ply
format ascii 1.0
comment VCGLIB generated
obj_info Generated by SPFormer!
element vertex 884
property float x
property float y
property float z
property float nx
property float ny
property float nz
end_header
1.155369 0.816687 1.735973 0.000000 0.000000 0.000000
1.186893 0.833818 1.761399 0.000000 0.000000 0.000000
1.258285 0.623576 1.796248 0.000000 0.000000 0.000000
1.172474 0.510114 1.727404 0.000000 0.000000 0.000000
1.269968 0.717223 1.820379 0.000000 0.000000 0.000000
1.268221 0.728078 1.823365 0.000000 0.000000 0.000000
1.093356 0.609985 1.661420 0.000000 0.000000 0.000000
1.183239 0.835272 1.756916 0.000000 0.000000 0.000000
1.098245 0.670238 1.666640 0.000000 0.000000 0.000000
1.104200 0.655335 1.670591 0.000000 0.000000 0.000000
1.230485 0.831651 1.801044 0.000000 0.000000 0.000000
1.105322 0.652040 1.669993 0.000000 0.000000 0.000000
1.149399 0.798905 1.731918 0.000000 0.000000 0.000000
1.178753 0.522680 1.730345 0.000000 0.000000 0.000000
1.258254 0.729943 1.811299 0.000000 0.000000 0.000000
1.141801 0.802241 1.729382 0.000000 0.000000 0.000000
1.261384 0.690283 1.812138 0.000000 0.000000 0.000000
1.150512 0.793773 1.730978 0.000000 0.000000 0.000000
1.138988 0.799126 1.728492 0.000000 0.000000 0.000000
1.149255 0.790887 1.730809 0.000000 0.000000 0.000000
1.139447 0.511246 1.700685 0.000000 0.000000 0.000000
1.238929 0.832773 1.802288 0.000000 0.000000 0.000000
1.126486 0.639685 1.691595 0.000000 0.000000 0.000000
1.099510 0.658540 1.664893 0.000000 0.000000 0.000000
1.234007 0.841270 1.803183 0.000000 0.000000 0.000000
1.111272 0.743771 1.704049 0.000000 0.000000 0.000000
1.112662 0.627866 1.672808 0.000000 0.000000 0.000000
1.171668 0.509419 1.725949 0.000000 0.000000 0.000000
1.096713 0.650747 1.662652 0.000000 0.000000 0.000000
1.266406 0.696278 1.818982 0.000000 0.000000 0.000000
1.099446 0.646166 1.662711 0.000000 0.000000 0.000000
1.252335 0.731142 1.808087 0.000000 0.000000 0.000000
1.135767 0.799379 1.724246 0.000000 0.000000 0.000000
1.231302 0.817460 1.794015 0.000000 0.000000 0.000000
1.223420 0.858064 1.793901 0.000000 0.000000 0.000000
1.095874 0.674590 1.669526 0.000000 0.000000 0.000000
1.242160 0.822296 1.817407 0.000000 0.000000 0.000000
1.093368 0.671013 1.667437 0.000000 0.000000 0.000000
1.109868 0.758001 1.706529 0.000000 0.000000 0.000000
1.105443 0.608810 1.664877 0.000000 0.000000 0.000000
1.108280 0.583427 1.668406 0.000000 0.000000 0.000000
1.256340 0.747279 1.811794 0.000000 0.000000 0.000000
1.100591 0.624391 1.665683 0.000000 0.000000 0.000000
1.221914 0.844893 1.788631 0.000000 0.000000 0.000000
1.115688 0.592064 1.677770 0.000000 0.000000 0.000000
1.119817 0.549653 1.681059 0.000000 0.000000 0.000000
1.154705 0.810582 1.735943 0.000000 0.000000 0.000000
1.119592 0.772890 1.715978 0.000000 0.000000 0.000000
1.135381 0.797755 1.724660 0.000000 0.000000 0.000000
1.115334 0.775678 1.715657 0.000000 0.000000 0.000000
1.095379 0.624480 1.659991 0.000000 0.000000 0.000000
1.261859 0.740243 1.814077 0.000000 0.000000 0.000000
1.105605 0.627610 1.666467 0.000000 0.000000 0.000000
1.193863 0.831696 1.765279 0.000000 0.000000 0.000000
1.110220 0.576185 1.673729 0.000000 0.000000 0.000000
1.119888 0.775031 1.715893 0.000000 0.000000 0.000000
1.256655 0.660388 1.810038 0.000000 0.000000 0.000000
1.212707 0.857725 1.784947 0.000000 0.000000 0.000000
1.220848 0.858673 1.793594 0.000000 0.000000 0.000000
1.244012 0.813606 1.813181 0.000000 0.000000 0.000000
1.119402 0.562733 1.675512 0.000000 0.000000 0.000000
1.101494 0.642404 1.667326 0.000000 0.000000 0.000000
1.138368 0.799086 1.725413 0.000000 0.000000 0.000000
1.164843 0.521944 1.742088 0.000000 0.000000 0.000000
1.197623 0.586456 1.757615 0.000000 0.000000 0.000000
1.160263 0.491811 1.726533 0.000000 0.000000 0.000000
1.170656 0.512738 1.735448 0.000000 0.000000 0.000000
1.265366 0.728107 1.822999 0.000000 0.000000 0.000000
1.164322 0.549500 1.742415 0.000000 0.000000 0.000000
1.202828 0.838935 1.770940 0.000000 0.000000 0.000000
1.245498 0.818424 1.815487 0.000000 0.000000 0.000000
1.189790 0.602737 1.743218 0.000000 0.000000 0.000000
1.190162 0.554404 1.749221 0.000000 0.000000 0.000000
1.194386 0.506908 1.738019 0.000000 0.000000 0.000000
1.160136 0.526440 1.725150 0.000000 0.000000 0.000000
1.228628 0.822079 1.792089 0.000000 0.000000 0.000000
1.193018 0.638983 1.754819 0.000000 0.000000 0.000000
1.246408 0.794784 1.808341 0.000000 0.000000 0.000000
1.231678 0.851132 1.798302 0.000000 0.000000 0.000000
1.122994 0.553782 1.684899 0.000000 0.000000 0.000000
1.119117 0.554120 1.677821 0.000000 0.000000 0.000000
1.091462 0.657210 1.660747 0.000000 0.000000 0.000000
1.096159 0.669882 1.669504 0.000000 0.000000 0.000000
1.255688 0.783195 1.819387 0.000000 0.000000 0.000000
1.231376 0.853944 1.799566 0.000000 0.000000 0.000000
1.255591 0.792969 1.818756 0.000000 0.000000 0.000000
1.118737 0.566568 1.679550 0.000000 0.000000 0.000000
1.202338 0.811731 1.772598 0.000000 0.000000 0.000000
1.236746 0.845076 1.801755 0.000000 0.000000 0.000000
1.255029 0.770707 1.815830 0.000000 0.000000 0.000000
1.091074 0.681281 1.669825 0.000000 0.000000 0.000000
1.105131 0.579172 1.670577 0.000000 0.000000 0.000000
1.124993 0.537744 1.684079 0.000000 0.000000 0.000000
1.255611 0.786567 1.819118 0.000000 0.000000 0.000000
1.125304 0.786586 1.721698 0.000000 0.000000 0.000000
1.254621 0.774503 1.815169 0.000000 0.000000 0.000000
1.233793 0.758364 1.803662 0.000000 0.000000 0.000000
1.088760 0.676471 1.666794 0.000000 0.000000 0.000000
1.098129 0.606571 1.662668 0.000000 0.000000 0.000000
1.090249 0.653554 1.659205 0.000000 0.000000 0.000000
1.108302 0.764237 1.709438 0.000000 0.000000 0.000000
1.249217 0.793782 1.816932 0.000000 0.000000 0.000000
1.262648 0.759532 1.822350 0.000000 0.000000 0.000000
1.086947 0.671838 1.663479 0.000000 0.000000 0.000000
1.124371 0.539567 1.683384 0.000000 0.000000 0.000000
1.122276 0.541988 1.683038 0.000000 0.000000 0.000000
1.123051 0.548437 1.681577 0.000000 0.000000 0.000000
1.146849 0.504467 1.708571 0.000000 0.000000 0.000000
1.127889 0.537656 1.685866 0.000000 0.000000 0.000000
1.128841 0.529803 1.685518 0.000000 0.000000 0.000000
1.240813 0.825468 1.806168 0.000000 0.000000 0.000000
1.095555 0.749232 1.703678 0.000000 0.000000 0.000000
1.117738 0.556177 1.678582 0.000000 0.000000 0.000000
1.231916 0.546168 1.756473 0.000000 0.000000 0.000000
1.186707 0.831920 1.759777 0.000000 0.000000 0.000000
1.206987 0.552919 1.751904 0.000000 0.000000 0.000000
1.233207 0.544701 1.762242 0.000000 0.000000 0.000000
1.139887 0.515319 1.697588 0.000000 0.000000 0.000000
1.210400 0.858617 1.784181 0.000000 0.000000 0.000000
1.089077 0.695688 1.673812 0.000000 0.000000 0.000000
1.094469 0.700873 1.682219 0.000000 0.000000 0.000000
1.089609 0.716770 1.683112 0.000000 0.000000 0.000000
1.177889 0.812811 1.752297 0.000000 0.000000 0.000000
1.146466 0.499466 1.711143 0.000000 0.000000 0.000000
1.091793 0.708230 1.680557 0.000000 0.000000 0.000000
1.108344 0.735809 1.702435 0.000000 0.000000 0.000000
1.087571 0.695227 1.672987 0.000000 0.000000 0.000000
1.091201 0.693884 1.674935 0.000000 0.000000 0.000000
1.098882 0.703044 1.684045 0.000000 0.000000 0.000000
1.267278 0.704783 1.816686 0.000000 0.000000 0.000000
1.269941 0.701833 1.818667 0.000000 0.000000 0.000000
1.178789 0.598786 1.739743 0.000000 0.000000 0.000000
1.100722 0.708130 1.687950 0.000000 0.000000 0.000000
1.089921 0.716796 1.681694 0.000000 0.000000 0.000000
1.105748 0.725233 1.697551 0.000000 0.000000 0.000000
1.091313 0.704010 1.678411 0.000000 0.000000 0.000000
1.096678 0.702457 1.680482 0.000000 0.000000 0.000000
1.246979 0.816654 1.816059 0.000000 0.000000 0.000000
1.262465 0.696487 1.813285 0.000000 0.000000 0.000000
1.262639 0.687543 1.814965 0.000000 0.000000 0.000000
1.123249 0.539414 1.682347 0.000000 0.000000 0.000000
1.172863 0.579301 1.736732 0.000000 0.000000 0.000000
1.237182 0.837431 1.802937 0.000000 0.000000 0.000000
1.221244 0.859609 1.792246 0.000000 0.000000 0.000000
1.157936 0.799293 1.735957 0.000000 0.000000 0.000000
1.101716 0.603628 1.668378 0.000000 0.000000 0.000000
1.111357 0.591066 1.673381 0.000000 0.000000 0.000000
1.102753 0.619189 1.666855 0.000000 0.000000 0.000000
1.097696 0.617154 1.664647 0.000000 0.000000 0.000000
1.106269 0.627023 1.670332 0.000000 0.000000 0.000000
1.101266 0.625491 1.664731 0.000000 0.000000 0.000000
1.099813 0.610892 1.664906 0.000000 0.000000 0.000000
1.116347 0.549530 1.679894 0.000000 0.000000 0.000000
1.122532 0.541433 1.682335 0.000000 0.000000 0.000000
1.120009 0.544976 1.680064 0.000000 0.000000 0.000000
1.086686 0.677919 1.664130 0.000000 0.000000 0.000000
1.127103 0.534378 1.685653 0.000000 0.000000 0.000000
1.147402 0.503901 1.710772 0.000000 0.000000 0.000000
1.127169 0.527839 1.686341 0.000000 0.000000 0.000000
1.123237 0.541511 1.682629 0.000000 0.000000 0.000000
1.102313 0.683040 1.674900 0.000000 0.000000 0.000000
1.139843 0.719114 1.711617 0.000000 0.000000 0.000000
1.130199 0.715264 1.707078 0.000000 0.000000 0.000000
1.221516 0.563377 1.767085 0.000000 0.000000 0.000000
1.100868 0.678013 1.675630 0.000000 0.000000 0.000000
1.125798 0.707684 1.705689 0.000000 0.000000 0.000000
1.166926 0.726017 1.728827 0.000000 0.000000 0.000000
1.093928 0.674431 1.668887 0.000000 0.000000 0.000000
1.088001 0.678766 1.667048 0.000000 0.000000 0.000000
1.095358 0.666088 1.665043 0.000000 0.000000 0.000000
1.103978 0.674523 1.675320 0.000000 0.000000 0.000000
1.128038 0.737221 1.708580 0.000000 0.000000 0.000000
1.236912 0.583827 1.773919 0.000000 0.000000 0.000000
1.105091 0.681356 1.680933 0.000000 0.000000 0.000000
1.160613 0.705696 1.727066 0.000000 0.000000 0.000000
1.192917 0.681205 1.751682 0.000000 0.000000 0.000000
1.099490 0.641044 1.664891 0.000000 0.000000 0.000000
1.226181 0.847362 1.792732 0.000000 0.000000 0.000000
1.222001 0.859701 1.791690 0.000000 0.000000 0.000000
1.092534 0.689328 1.675345 0.000000 0.000000 0.000000
1.135542 0.516565 1.696509 0.000000 0.000000 0.000000
1.240583 0.570422 1.763553 0.000000 0.000000 0.000000
1.145658 0.510443 1.710730 0.000000 0.000000 0.000000
1.102757 0.579923 1.669517 0.000000 0.000000 0.000000
1.239847 0.554473 1.768711 0.000000 0.000000 0.000000
1.242133 0.577550 1.772113 0.000000 0.000000 0.000000
1.143378 0.517073 1.704247 0.000000 0.000000 0.000000
1.168551 0.526951 1.738276 0.000000 0.000000 0.000000
1.087458 0.702853 1.674866 0.000000 0.000000 0.000000
1.159809 0.825934 1.744243 0.000000 0.000000 0.000000
1.118277 0.772970 1.714705 0.000000 0.000000 0.000000
1.133121 0.522381 1.691709 0.000000 0.000000 0.000000
1.267898 0.710801 1.823759 0.000000 0.000000 0.000000
1.111503 0.766557 1.710641 0.000000 0.000000 0.000000
1.144418 0.515327 1.705253 0.000000 0.000000 0.000000
1.211825 0.859608 1.784417 0.000000 0.000000 0.000000
1.121061 0.745510 1.708680 0.000000 0.000000 0.000000
1.107482 0.761713 1.709141 0.000000 0.000000 0.000000
1.127012 0.764269 1.717060 0.000000 0.000000 0.000000
1.115972 0.752110 1.708594 0.000000 0.000000 0.000000
1.103746 0.753537 1.704669 0.000000 0.000000 0.000000
1.113217 0.762391 1.711427 0.000000 0.000000 0.000000
1.101107 0.745538 1.700850 0.000000 0.000000 0.000000
1.120662 0.771821 1.715419 0.000000 0.000000 0.000000
1.113348 0.761378 1.709368 0.000000 0.000000 0.000000
1.108912 0.761836 1.707806 0.000000 0.000000 0.000000
1.108094 0.757283 1.706745 0.000000 0.000000 0.000000
1.113043 0.754493 1.707537 0.000000 0.000000 0.000000
1.106962 0.764881 1.708461 0.000000 0.000000 0.000000
1.142182 0.508149 1.701365 0.000000 0.000000 0.000000
1.146640 0.807807 1.734493 0.000000 0.000000 0.000000
1.099947 0.726809 1.693460 0.000000 0.000000 0.000000
1.145478 0.505501 1.708524 0.000000 0.000000 0.000000
1.109802 0.602207 1.673172 0.000000 0.000000 0.000000
1.138889 0.799345 1.726810 0.000000 0.000000 0.000000
1.108445 0.580152 1.672875 0.000000 0.000000 0.000000
1.145468 0.799012 1.729229 0.000000 0.000000 0.000000
1.239304 0.832855 1.805238 0.000000 0.000000 0.000000
1.103807 0.717089 1.696121 0.000000 0.000000 0.000000
1.101074 0.715435 1.690992 0.000000 0.000000 0.000000
1.117498 0.573377 1.679723 0.000000 0.000000 0.000000
1.241171 0.837452 1.805349 0.000000 0.000000 0.000000
1.125892 0.544701 1.682088 0.000000 0.000000 0.000000
1.089804 0.709241 1.679470 0.000000 0.000000 0.000000
1.131387 0.534291 1.685476 0.000000 0.000000 0.000000
1.124993 0.546121 1.680099 0.000000 0.000000 0.000000
1.121938 0.546086 1.680431 0.000000 0.000000 0.000000
1.143597 0.524156 1.705392 0.000000 0.000000 0.000000
1.088463 0.689675 1.671666 0.000000 0.000000 0.000000
1.088979 0.701600 1.677343 0.000000 0.000000 0.000000
1.110579 0.676118 1.682604 0.000000 0.000000 0.000000
1.096502 0.733720 1.693479 0.000000 0.000000 0.000000
1.252521 0.800403 1.818695 0.000000 0.000000 0.000000
1.245687 0.821159 1.814378 0.000000 0.000000 0.000000
1.238826 0.825971 1.806168 0.000000 0.000000 0.000000
1.249639 0.798654 1.813898 0.000000 0.000000 0.000000
1.242461 0.817659 1.809315 0.000000 0.000000 0.000000
1.170235 0.813189 1.746248 0.000000 0.000000 0.000000
1.236426 0.805771 1.809602 0.000000 0.000000 0.000000
1.247969 0.787038 1.814309 0.000000 0.000000 0.000000
1.271080 0.709592 1.823798 0.000000 0.000000 0.000000
1.246084 0.822454 1.816120 0.000000 0.000000 0.000000
1.244688 0.822068 1.811528 0.000000 0.000000 0.000000
1.249474 0.797206 1.810602 0.000000 0.000000 0.000000
1.181508 0.839175 1.755465 0.000000 0.000000 0.000000
1.162690 0.824582 1.744277 0.000000 0.000000 0.000000
1.242453 0.831062 1.808729 0.000000 0.000000 0.000000
1.245993 0.814062 1.815536 0.000000 0.000000 0.000000
1.245101 0.823175 1.813093 0.000000 0.000000 0.000000
1.091856 0.659566 1.659790 0.000000 0.000000 0.000000
1.250762 0.790579 1.814394 0.000000 0.000000 0.000000
1.248769 0.803063 1.817041 0.000000 0.000000 0.000000
1.203439 0.858149 1.777909 0.000000 0.000000 0.000000
1.199420 0.855594 1.773071 0.000000 0.000000 0.000000
1.225518 0.532087 1.752155 0.000000 0.000000 0.000000
1.204202 0.854040 1.776384 0.000000 0.000000 0.000000
1.254671 0.797162 1.818779 0.000000 0.000000 0.000000
1.254555 0.796682 1.819245 0.000000 0.000000 0.000000
1.251977 0.798109 1.816873 0.000000 0.000000 0.000000
1.248796 0.813942 1.815779 0.000000 0.000000 0.000000
1.246235 0.812028 1.809786 0.000000 0.000000 0.000000
1.231745 0.820030 1.796514 0.000000 0.000000 0.000000
1.253510 0.795855 1.817114 0.000000 0.000000 0.000000
1.232937 0.542986 1.760224 0.000000 0.000000 0.000000
1.250275 0.803739 1.814549 0.000000 0.000000 0.000000
1.252041 0.798970 1.816541 0.000000 0.000000 0.000000
1.236966 0.546674 1.757458 0.000000 0.000000 0.000000
1.245955 0.822551 1.811387 0.000000 0.000000 0.000000
1.242822 0.820169 1.808687 0.000000 0.000000 0.000000
1.238050 0.810765 1.801420 0.000000 0.000000 0.000000
1.255800 0.765758 1.813276 0.000000 0.000000 0.000000
1.221800 0.526499 1.744459 0.000000 0.000000 0.000000
1.215279 0.523814 1.748068 0.000000 0.000000 0.000000
1.250068 0.797008 1.813147 0.000000 0.000000 0.000000
1.253109 0.809106 1.821734 0.000000 0.000000 0.000000
1.240787 0.555840 1.767341 0.000000 0.000000 0.000000
1.229046 0.538283 1.761508 0.000000 0.000000 0.000000
1.256631 0.766176 1.817267 0.000000 0.000000 0.000000
1.257408 0.768378 1.820710 0.000000 0.000000 0.000000
1.101165 0.730426 1.695059 0.000000 0.000000 0.000000
1.250260 0.779877 1.810284 0.000000 0.000000 0.000000
1.104594 0.733441 1.699578 0.000000 0.000000 0.000000
1.102464 0.747025 1.703015 0.000000 0.000000 0.000000
1.096768 0.728771 1.693193 0.000000 0.000000 0.000000
1.259014 0.758646 1.815438 0.000000 0.000000 0.000000
1.093904 0.737343 1.692456 0.000000 0.000000 0.000000
1.096283 0.697916 1.679824 0.000000 0.000000 0.000000
1.100293 0.739744 1.695895 0.000000 0.000000 0.000000
1.097166 0.740610 1.698400 0.000000 0.000000 0.000000
1.094342 0.727318 1.690879 0.000000 0.000000 0.000000
1.253707 0.749149 1.806490 0.000000 0.000000 0.000000
1.096324 0.737030 1.694381 0.000000 0.000000 0.000000
1.096888 0.737209 1.695829 0.000000 0.000000 0.000000
1.098382 0.741573 1.697600 0.000000 0.000000 0.000000
1.127939 0.764470 1.716169 0.000000 0.000000 0.000000
1.260659 0.763721 1.820682 0.000000 0.000000 0.000000
1.107354 0.766782 1.713818 0.000000 0.000000 0.000000
1.101964 0.597193 1.665912 0.000000 0.000000 0.000000
1.105848 0.592545 1.665730 0.000000 0.000000 0.000000
1.113347 0.755399 1.708163 0.000000 0.000000 0.000000
1.265176 0.740420 1.822365 0.000000 0.000000 0.000000
1.266532 0.741848 1.821301 0.000000 0.000000 0.000000
1.138569 0.792158 1.725742 0.000000 0.000000 0.000000
1.262581 0.743432 1.818034 0.000000 0.000000 0.000000
1.135875 0.803899 1.729243 0.000000 0.000000 0.000000
1.115760 0.760750 1.710286 0.000000 0.000000 0.000000
1.111249 0.569643 1.672059 0.000000 0.000000 0.000000
1.266158 0.742363 1.823147 0.000000 0.000000 0.000000
1.262363 0.749398 1.819420 0.000000 0.000000 0.000000
1.270659 0.723078 1.823051 0.000000 0.000000 0.000000
1.098736 0.680582 1.673229 0.000000 0.000000 0.000000
1.106621 0.752535 1.704989 0.000000 0.000000 0.000000
1.221824 0.843264 1.789609 0.000000 0.000000 0.000000
1.101459 0.606619 1.663282 0.000000 0.000000 0.000000
1.222871 0.857954 1.792976 0.000000 0.000000 0.000000
1.109245 0.577877 1.669230 0.000000 0.000000 0.000000
1.264240 0.738281 1.820636 0.000000 0.000000 0.000000
1.099810 0.703263 1.685544 0.000000 0.000000 0.000000
1.262702 0.758889 1.821614 0.000000 0.000000 0.000000
1.098641 0.720827 1.687568 0.000000 0.000000 0.000000
1.183193 0.841860 1.758641 0.000000 0.000000 0.000000
1.096315 0.718643 1.689215 0.000000 0.000000 0.000000
1.094234 0.734197 1.694108 0.000000 0.000000 0.000000
1.092093 0.739595 1.696339 0.000000 0.000000 0.000000
1.093746 0.715009 1.685352 0.000000 0.000000 0.000000
1.098158 0.721495 1.690399 0.000000 0.000000 0.000000
1.180520 0.824123 1.755754 0.000000 0.000000 0.000000
1.090810 0.717177 1.685169 0.000000 0.000000 0.000000
1.097666 0.733888 1.696464 0.000000 0.000000 0.000000
1.102465 0.737751 1.699707 0.000000 0.000000 0.000000
1.096193 0.716177 1.685781 0.000000 0.000000 0.000000
1.266216 0.720955 1.822047 0.000000 0.000000 0.000000
1.170200 0.801517 1.741928 0.000000 0.000000 0.000000
1.140790 0.808281 1.728333 0.000000 0.000000 0.000000
1.174591 0.553946 1.744057 0.000000 0.000000 0.000000
1.173856 0.829062 1.746307 0.000000 0.000000 0.000000
1.132678 0.797611 1.724460 0.000000 0.000000 0.000000
1.176713 0.579555 1.744113 0.000000 0.000000 0.000000
1.260063 0.759021 1.820279 0.000000 0.000000 0.000000
1.262052 0.761372 1.822294 0.000000 0.000000 0.000000
1.217770 0.545819 1.754073 0.000000 0.000000 0.000000
1.098691 0.650680 1.666093 0.000000 0.000000 0.000000
1.262257 0.760781 1.820928 0.000000 0.000000 0.000000
1.269692 0.723372 1.821574 0.000000 0.000000 0.000000
1.206072 0.519693 1.744332 0.000000 0.000000 0.000000
1.257198 0.761447 1.819467 0.000000 0.000000 0.000000
1.195787 0.848286 1.768598 0.000000 0.000000 0.000000
1.125413 0.780629 1.718027 0.000000 0.000000 0.000000
1.260420 0.754541 1.816206 0.000000 0.000000 0.000000
1.193109 0.850797 1.767058 0.000000 0.000000 0.000000
1.225545 0.856570 1.796850 0.000000 0.000000 0.000000
1.137057 0.586607 1.702409 0.000000 0.000000 0.000000
1.130899 0.691538 1.704701 0.000000 0.000000 0.000000
1.187267 0.631889 1.748749 0.000000 0.000000 0.000000
1.255809 0.784620 1.816576 0.000000 0.000000 0.000000
1.141574 0.659494 1.715797 0.000000 0.000000 0.000000
1.151033 0.610315 1.713128 0.000000 0.000000 0.000000
1.146320 0.603076 1.712097 0.000000 0.000000 0.000000
1.148354 0.588528 1.706231 0.000000 0.000000 0.000000
1.111172 0.630922 1.675437 0.000000 0.000000 0.000000
1.158562 0.500583 1.711778 0.000000 0.000000 0.000000
1.168674 0.641145 1.721964 0.000000 0.000000 0.000000
1.181479 0.623040 1.737605 0.000000 0.000000 0.000000
1.193681 0.667567 1.756424 0.000000 0.000000 0.000000
1.148798 0.507823 1.706491 0.000000 0.000000 0.000000
1.153779 0.656422 1.715149 0.000000 0.000000 0.000000
1.105933 0.745813 1.703487 0.000000 0.000000 0.000000
1.142450 0.599606 1.704157 0.000000 0.000000 0.000000
1.138576 0.654519 1.705028 0.000000 0.000000 0.000000
1.162814 0.615512 1.723255 0.000000 0.000000 0.000000
1.257573 0.775007 1.818132 0.000000 0.000000 0.000000
1.126721 0.651531 1.688966 0.000000 0.000000 0.000000
1.159234 0.665163 1.721704 0.000000 0.000000 0.000000
1.157355 0.592124 1.719717 0.000000 0.000000 0.000000
1.149882 0.577888 1.709477 0.000000 0.000000 0.000000
1.097281 0.623190 1.662583 0.000000 0.000000 0.000000
1.171187 0.671206 1.727449 0.000000 0.000000 0.000000
1.091928 0.647996 1.656631 0.000000 0.000000 0.000000
1.160891 0.617011 1.719376 0.000000 0.000000 0.000000
1.187423 0.682676 1.754260 0.000000 0.000000 0.000000
1.156749 0.665062 1.723164 0.000000 0.000000 0.000000
1.114019 0.557272 1.677090 0.000000 0.000000 0.000000
1.116771 0.569723 1.674904 0.000000 0.000000 0.000000
1.092496 0.627443 1.656886 0.000000 0.000000 0.000000
1.230020 0.856689 1.791498 0.000000 0.000000 0.000000
1.117573 0.578422 1.675504 0.000000 0.000000 0.000000
1.120962 0.560411 1.678090 0.000000 0.000000 0.000000
1.147444 0.619425 1.704603 0.000000 0.000000 0.000000
1.138590 0.523704 1.694835 0.000000 0.000000 0.000000
1.120229 0.550741 1.681458 0.000000 0.000000 0.000000
1.088256 0.667117 1.661924 0.000000 0.000000 0.000000
1.117980 0.555186 1.677408 0.000000 0.000000 0.000000
1.239485 0.822197 1.805415 0.000000 0.000000 0.000000
1.126680 0.568057 1.686900 0.000000 0.000000 0.000000
1.232130 0.845874 1.797608 0.000000 0.000000 0.000000
1.112657 0.560969 1.676167 0.000000 0.000000 0.000000
1.107015 0.590009 1.670031 0.000000 0.000000 0.000000
1.161336 0.555072 1.716473 0.000000 0.000000 0.000000
1.142692 0.515284 1.702246 0.000000 0.000000 0.000000
1.129540 0.543960 1.685891 0.000000 0.000000 0.000000
1.112219 0.569532 1.674929 0.000000 0.000000 0.000000
1.235992 0.842554 1.807055 0.000000 0.000000 0.000000
1.106345 0.756463 1.703042 0.000000 0.000000 0.000000
1.127579 0.533411 1.685335 0.000000 0.000000 0.000000
1.257627 0.773446 1.820566 0.000000 0.000000 0.000000
1.147122 0.498035 1.710847 0.000000 0.000000 0.000000
1.089979 0.659259 1.658024 0.000000 0.000000 0.000000
1.099603 0.600796 1.664302 0.000000 0.000000 0.000000
1.097446 0.610184 1.664167 0.000000 0.000000 0.000000
1.096590 0.609108 1.662064 0.000000 0.000000 0.000000
1.185642 0.844057 1.759120 0.000000 0.000000 0.000000
1.093674 0.643667 1.657304 0.000000 0.000000 0.000000
1.107040 0.610086 1.666333 0.000000 0.000000 0.000000
1.207776 0.855845 1.777587 0.000000 0.000000 0.000000
1.179335 0.838357 1.754204 0.000000 0.000000 0.000000
1.088995 0.670949 1.664793 0.000000 0.000000 0.000000
1.134493 0.798690 1.724958 0.000000 0.000000 0.000000
1.110156 0.566058 1.673583 0.000000 0.000000 0.000000
1.199661 0.830607 1.769840 0.000000 0.000000 0.000000
1.094483 0.646633 1.658759 0.000000 0.000000 0.000000
1.098321 0.614028 1.662773 0.000000 0.000000 0.000000
1.197061 0.847295 1.763209 0.000000 0.000000 0.000000
1.195962 0.845769 1.766633 0.000000 0.000000 0.000000
1.100917 0.596658 1.666702 0.000000 0.000000 0.000000
1.134613 0.801909 1.727377 0.000000 0.000000 0.000000
1.115050 0.560660 1.675335 0.000000 0.000000 0.000000
1.109063 0.745075 1.704811 0.000000 0.000000 0.000000
1.192349 0.846196 1.764079 0.000000 0.000000 0.000000
1.258415 0.774601 1.821019 0.000000 0.000000 0.000000
1.089589 0.668398 1.661582 0.000000 0.000000 0.000000
1.237150 0.848920 1.797731 0.000000 0.000000 0.000000
1.255709 0.772189 1.813543 0.000000 0.000000 0.000000
1.259159 0.778083 1.816820 0.000000 0.000000 0.000000
1.247924 0.582906 1.777009 0.000000 0.000000 0.000000
1.167811 0.822192 1.744986 0.000000 0.000000 0.000000
1.258864 0.768568 1.818151 0.000000 0.000000 0.000000
1.112771 0.568593 1.675579 0.000000 0.000000 0.000000
1.149569 0.510701 1.714569 0.000000 0.000000 0.000000
1.245649 0.576823 1.776705 0.000000 0.000000 0.000000
1.252553 0.774804 1.811855 0.000000 0.000000 0.000000
1.249950 0.581513 1.778040 0.000000 0.000000 0.000000
1.161051 0.817130 1.739239 0.000000 0.000000 0.000000
1.106895 0.572109 1.670948 0.000000 0.000000 0.000000
1.145786 0.495490 1.713215 0.000000 0.000000 0.000000
1.111725 0.771405 1.711922 0.000000 0.000000 0.000000
1.248133 0.569301 1.775328 0.000000 0.000000 0.000000
1.257448 0.775566 1.819648 0.000000 0.000000 0.000000
1.093038 0.654482 1.660010 0.000000 0.000000 0.000000
1.148593 0.495826 1.712946 0.000000 0.000000 0.000000
1.147162 0.495573 1.713808 0.000000 0.000000 0.000000
1.208187 0.851020 1.779911 0.000000 0.000000 0.000000
1.111224 0.771614 1.712776 0.000000 0.000000 0.000000
1.227467 0.537920 1.756821 0.000000 0.000000 0.000000
1.218139 0.521140 1.748276 0.000000 0.000000 0.000000
1.090693 0.671748 1.665081 0.000000 0.000000 0.000000
1.096112 0.634455 1.659838 0.000000 0.000000 0.000000
1.176537 0.570301 1.745695 0.000000 0.000000 0.000000
1.109290 0.769522 1.709968 0.000000 0.000000 0.000000
1.205977 0.522703 1.739542 0.000000 0.000000 0.000000
1.238456 0.553140 1.764823 0.000000 0.000000 0.000000
1.223598 0.524672 1.750136 0.000000 0.000000 0.000000
1.115332 0.771228 1.714188 0.000000 0.000000 0.000000
1.119017 0.785961 1.720434 0.000000 0.000000 0.000000
1.093008 0.655761 1.662134 0.000000 0.000000 0.000000
1.110341 0.767034 1.710686 0.000000 0.000000 0.000000
1.147667 0.512095 1.713063 0.000000 0.000000 0.000000
1.119064 0.769200 1.714349 0.000000 0.000000 0.000000
1.096078 0.665152 1.664811 0.000000 0.000000 0.000000
1.206633 0.537019 1.749454 0.000000 0.000000 0.000000
1.204202 0.513420 1.737270 0.000000 0.000000 0.000000
1.235799 0.557583 1.763170 0.000000 0.000000 0.000000
1.112260 0.770541 1.712973 0.000000 0.000000 0.000000
1.090913 0.674946 1.667496 0.000000 0.000000 0.000000
1.124356 0.790262 1.716533 0.000000 0.000000 0.000000
1.193949 0.848141 1.766762 0.000000 0.000000 0.000000
1.122069 0.568123 1.677443 0.000000 0.000000 0.000000
1.112074 0.564642 1.675439 0.000000 0.000000 0.000000
1.260836 0.609254 1.795344 0.000000 0.000000 0.000000
1.258741 0.648433 1.807825 0.000000 0.000000 0.000000
1.258399 0.615789 1.793351 0.000000 0.000000 0.000000
1.260569 0.630199 1.803566 0.000000 0.000000 0.000000
1.262855 0.618101 1.798911 0.000000 0.000000 0.000000
1.255443 0.621512 1.791790 0.000000 0.000000 0.000000
1.258380 0.599117 1.788844 0.000000 0.000000 0.000000
1.263153 0.618414 1.801585 0.000000 0.000000 0.000000
1.252949 0.614825 1.792073 0.000000 0.000000 0.000000
1.270449 0.724384 1.824839 0.000000 0.000000 0.000000
1.109475 0.575216 1.670675 0.000000 0.000000 0.000000
1.086937 0.689954 1.669295 0.000000 0.000000 0.000000
1.261618 0.622394 1.801529 0.000000 0.000000 0.000000
1.259679 0.627930 1.800535 0.000000 0.000000 0.000000
1.261420 0.615573 1.795205 0.000000 0.000000 0.000000
1.260006 0.613763 1.796071 0.000000 0.000000 0.000000
1.262167 0.612879 1.796669 0.000000 0.000000 0.000000
1.270395 0.715360 1.822067 0.000000 0.000000 0.000000
1.108841 0.584758 1.669100 0.000000 0.000000 0.000000
1.245864 0.615792 1.784943 0.000000 0.000000 0.000000
1.256674 0.779420 1.818048 0.000000 0.000000 0.000000
1.092560 0.657759 1.660313 0.000000 0.000000 0.000000
1.102088 0.621221 1.664181 0.000000 0.000000 0.000000
1.141130 0.506166 1.704389 0.000000 0.000000 0.000000
1.245345 0.809902 1.811433 0.000000 0.000000 0.000000
1.095307 0.634765 1.657180 0.000000 0.000000 0.000000
1.096188 0.630883 1.659223 0.000000 0.000000 0.000000
1.100096 0.639584 1.661739 0.000000 0.000000 0.000000
1.098020 0.617888 1.662496 0.000000 0.000000 0.000000
1.150160 0.495405 1.711748 0.000000 0.000000 0.000000
1.257196 0.778010 1.819417 0.000000 0.000000 0.000000
1.096524 0.646086 1.662512 0.000000 0.000000 0.000000
1.090971 0.654360 1.655211 0.000000 0.000000 0.000000
1.241958 0.837621 1.807057 0.000000 0.000000 0.000000
1.202483 0.856571 1.776546 0.000000 0.000000 0.000000
1.107131 0.582238 1.672048 0.000000 0.000000 0.000000
1.095115 0.648889 1.658519 0.000000 0.000000 0.000000
1.245446 0.822394 1.814334 0.000000 0.000000 0.000000
1.105099 0.582117 1.670581 0.000000 0.000000 0.000000
1.126494 0.767949 1.719870 0.000000 0.000000 0.000000
1.093725 0.655402 1.660808 0.000000 0.000000 0.000000
1.212964 0.860000 1.786816 0.000000 0.000000 0.000000
1.257098 0.778624 1.819279 0.000000 0.000000 0.000000
1.127045 0.788225 1.718789 0.000000 0.000000 0.000000
1.201249 0.851218 1.773488 0.000000 0.000000 0.000000
1.121224 0.777451 1.717261 0.000000 0.000000 0.000000
1.126595 0.781524 1.719254 0.000000 0.000000 0.000000
1.125935 0.789351 1.720532 0.000000 0.000000 0.000000
1.130206 0.793084 1.722482 0.000000 0.000000 0.000000
1.133033 0.772280 1.721497 0.000000 0.000000 0.000000
1.096027 0.607231 1.659179 0.000000 0.000000 0.000000
1.145301 0.790736 1.730022 0.000000 0.000000 0.000000
1.137366 0.801631 1.731114 0.000000 0.000000 0.000000
1.140340 0.794631 1.726028 0.000000 0.000000 0.000000
1.127354 0.769412 1.717876 0.000000 0.000000 0.000000
1.134159 0.784583 1.722032 0.000000 0.000000 0.000000
1.144261 0.793493 1.727592 0.000000 0.000000 0.000000
1.133505 0.792609 1.724616 0.000000 0.000000 0.000000
1.122261 0.786583 1.718883 0.000000 0.000000 0.000000
1.123867 0.785848 1.719762 0.000000 0.000000 0.000000
1.097709 0.619254 1.660520 0.000000 0.000000 0.000000
1.162252 0.809812 1.742399 0.000000 0.000000 0.000000
1.132508 0.785683 1.718622 0.000000 0.000000 0.000000
1.145335 0.804560 1.733505 0.000000 0.000000 0.000000
1.123556 0.787945 1.719544 0.000000 0.000000 0.000000
1.120919 0.779376 1.715758 0.000000 0.000000 0.000000
1.152084 0.497701 1.719639 0.000000 0.000000 0.000000
1.153270 0.491720 1.719989 0.000000 0.000000 0.000000
1.196023 0.841483 1.765039 0.000000 0.000000 0.000000
1.101547 0.602962 1.666523 0.000000 0.000000 0.000000
1.112093 0.768187 1.715354 0.000000 0.000000 0.000000
1.134212 0.797766 1.727506 0.000000 0.000000 0.000000
1.155531 0.528344 1.714918 0.000000 0.000000 0.000000
1.146511 0.519736 1.712179 0.000000 0.000000 0.000000
1.103530 0.588580 1.668181 0.000000 0.000000 0.000000
1.106969 0.598765 1.666291 0.000000 0.000000 0.000000
1.116482 0.557473 1.678738 0.000000 0.000000 0.000000
1.194129 0.514370 1.735935 0.000000 0.000000 0.000000
1.182379 0.510332 1.730739 0.000000 0.000000 0.000000
1.160205 0.497876 1.720569 0.000000 0.000000 0.000000
1.167226 0.493914 1.722491 0.000000 0.000000 0.000000
1.148679 0.500910 1.712767 0.000000 0.000000 0.000000
1.107416 0.593113 1.665532 0.000000 0.000000 0.000000
1.131089 0.794347 1.722506 0.000000 0.000000 0.000000
1.097147 0.616973 1.660625 0.000000 0.000000 0.000000
1.122935 0.545920 1.681675 0.000000 0.000000 0.000000
1.143157 0.503962 1.707122 0.000000 0.000000 0.000000
1.100933 0.609340 1.662267 0.000000 0.000000 0.000000
1.254711 0.758683 1.811811 0.000000 0.000000 0.000000
1.234029 0.540181 1.759613 0.000000 0.000000 0.000000
1.101752 0.593089 1.666547 0.000000 0.000000 0.000000
1.165906 0.551718 1.728308 0.000000 0.000000 0.000000
1.180205 0.604546 1.740575 0.000000 0.000000 0.000000
1.153108 0.514782 1.717156 0.000000 0.000000 0.000000
1.138481 0.551163 1.704655 0.000000 0.000000 0.000000
1.150952 0.507302 1.717368 0.000000 0.000000 0.000000
1.113708 0.602944 1.671273 0.000000 0.000000 0.000000
1.115143 0.565008 1.678236 0.000000 0.000000 0.000000
1.179805 0.503046 1.727357 0.000000 0.000000 0.000000
1.175714 0.505308 1.727762 0.000000 0.000000 0.000000
1.165416 0.502810 1.726033 0.000000 0.000000 0.000000
1.171829 0.497898 1.723185 0.000000 0.000000 0.000000
1.148798 0.504345 1.714457 0.000000 0.000000 0.000000
1.100697 0.602177 1.663146 0.000000 0.000000 0.000000
1.134728 0.792159 1.722429 0.000000 0.000000 0.000000
1.099518 0.613645 1.662189 0.000000 0.000000 0.000000
1.137216 0.522443 1.694913 0.000000 0.000000 0.000000
1.145125 0.504358 1.708295 0.000000 0.000000 0.000000
1.103421 0.596572 1.665456 0.000000 0.000000 0.000000
1.260252 0.752885 1.815165 0.000000 0.000000 0.000000
1.149020 0.500247 1.709506 0.000000 0.000000 0.000000
1.228392 0.540948 1.756034 0.000000 0.000000 0.000000
1.147231 0.509078 1.704023 0.000000 0.000000 0.000000
1.100294 0.599091 1.664680 0.000000 0.000000 0.000000
1.267714 0.639207 1.808129 0.000000 0.000000 0.000000
1.089867 0.658722 1.658438 0.000000 0.000000 0.000000
1.258472 0.761489 1.817293 0.000000 0.000000 0.000000
1.091219 0.645681 1.653975 0.000000 0.000000 0.000000
1.262877 0.751028 1.820183 0.000000 0.000000 0.000000
1.254798 0.663788 1.806199 0.000000 0.000000 0.000000
1.256953 0.645954 1.804216 0.000000 0.000000 0.000000
1.259615 0.643024 1.809532 0.000000 0.000000 0.000000
1.166788 0.550225 1.729051 0.000000 0.000000 0.000000
1.116751 0.552936 1.677898 0.000000 0.000000 0.000000
1.111974 0.564421 1.673666 0.000000 0.000000 0.000000
1.253846 0.626326 1.797834 0.000000 0.000000 0.000000
1.266312 0.750203 1.823190 0.000000 0.000000 0.000000
1.258030 0.642607 1.805267 0.000000 0.000000 0.000000
1.260950 0.634788 1.807720 0.000000 0.000000 0.000000
1.164488 0.544129 1.730775 0.000000 0.000000 0.000000
1.117986 0.558239 1.676741 0.000000 0.000000 0.000000
1.087473 0.717156 1.680462 0.000000 0.000000 0.000000
1.168286 0.501057 1.724506 0.000000 0.000000 0.000000
1.092816 0.650046 1.658363 0.000000 0.000000 0.000000
1.087721 0.646923 1.657515 0.000000 0.000000 0.000000
1.247095 0.766295 1.807866 0.000000 0.000000 0.000000
1.093676 0.727691 1.690426 0.000000 0.000000 0.000000
1.244731 0.562083 1.770966 0.000000 0.000000 0.000000
1.090297 0.730428 1.686619 0.000000 0.000000 0.000000
1.182689 0.503835 1.740403 0.000000 0.000000 0.000000
1.254169 0.770025 1.812096 0.000000 0.000000 0.000000
1.103173 0.747120 1.700319 0.000000 0.000000 0.000000
1.242555 0.556021 1.764987 0.000000 0.000000 0.000000
1.087868 0.725594 1.683425 0.000000 0.000000 0.000000
1.161232 0.501499 1.726363 0.000000 0.000000 0.000000
1.102702 0.712164 1.691292 0.000000 0.000000 0.000000
1.090422 0.723815 1.687227 0.000000 0.000000 0.000000
1.091642 0.727871 1.687332 0.000000 0.000000 0.000000
1.092289 0.656973 1.659861 0.000000 0.000000 0.000000
1.259332 0.684926 1.810635 0.000000 0.000000 0.000000
1.094059 0.725574 1.690230 0.000000 0.000000 0.000000
1.261649 0.661363 1.816300 0.000000 0.000000 0.000000
1.092634 0.723143 1.688008 0.000000 0.000000 0.000000
1.263709 0.676810 1.821846 0.000000 0.000000 0.000000
1.211378 0.856814 1.783550 0.000000 0.000000 0.000000
1.088283 0.675493 1.662639 0.000000 0.000000 0.000000
1.262508 0.674387 1.820191 0.000000 0.000000 0.000000
1.260994 0.672840 1.815875 0.000000 0.000000 0.000000
1.091245 0.723400 1.686522 0.000000 0.000000 0.000000
1.264357 0.676932 1.822618 0.000000 0.000000 0.000000
1.231886 0.855133 1.800745 0.000000 0.000000 0.000000
1.088238 0.668735 1.658811 0.000000 0.000000 0.000000
1.245190 0.802761 1.807569 0.000000 0.000000 0.000000
1.249886 0.807152 1.817655 0.000000 0.000000 0.000000
1.246304 0.819140 1.814963 0.000000 0.000000 0.000000
1.206810 0.860191 1.780380 0.000000 0.000000 0.000000
1.146188 0.508182 1.708760 0.000000 0.000000 0.000000
1.148852 0.495957 1.713521 0.000000 0.000000 0.000000
1.147063 0.785518 1.724210 0.000000 0.000000 0.000000
1.140737 0.517438 1.699968 0.000000 0.000000 0.000000
1.105667 0.763446 1.708962 0.000000 0.000000 0.000000
1.203620 0.853031 1.776396 0.000000 0.000000 0.000000
1.248335 0.812118 1.815850 0.000000 0.000000 0.000000
1.179630 0.836682 1.752786 0.000000 0.000000 0.000000
1.154351 0.789440 1.728110 0.000000 0.000000 0.000000
1.138018 0.513662 1.700323 0.000000 0.000000 0.000000
1.106458 0.767783 1.711202 0.000000 0.000000 0.000000
1.201909 0.855029 1.775627 0.000000 0.000000 0.000000
1.253389 0.788377 1.817100 0.000000 0.000000 0.000000
1.096964 0.617387 1.662303 0.000000 0.000000 0.000000
1.200640 0.857405 1.777191 0.000000 0.000000 0.000000
1.092506 0.627524 1.656682 0.000000 0.000000 0.000000
1.100563 0.762463 1.708592 0.000000 0.000000 0.000000
1.228602 0.647292 1.783251 0.000000 0.000000 0.000000
1.242816 0.676447 1.797292 0.000000 0.000000 0.000000
1.255459 0.574648 1.779763 0.000000 0.000000 0.000000
1.257753 0.680753 1.812498 0.000000 0.000000 0.000000
1.243054 0.566409 1.768870 0.000000 0.000000 0.000000
1.246736 0.569864 1.769607 0.000000 0.000000 0.000000
1.106126 0.754891 1.704513 0.000000 0.000000 0.000000
1.119143 0.556711 1.679629 0.000000 0.000000 0.000000
1.259659 0.658637 1.812199 0.000000 0.000000 0.000000
1.093246 0.734516 1.693025 0.000000 0.000000 0.000000
1.258093 0.637920 1.805278 0.000000 0.000000 0.000000
1.260149 0.643199 1.812801 0.000000 0.000000 0.000000
1.255329 0.649048 1.810832 0.000000 0.000000 0.000000
1.260852 0.643828 1.811809 0.000000 0.000000 0.000000
1.213664 0.676328 1.776163 0.000000 0.000000 0.000000
1.240916 0.653378 1.792428 0.000000 0.000000 0.000000
1.260599 0.654615 1.814644 0.000000 0.000000 0.000000
1.245080 0.562660 1.772271 0.000000 0.000000 0.000000
1.251078 0.577147 1.776109 0.000000 0.000000 0.000000
1.255410 0.655937 1.808154 0.000000 0.000000 0.000000
1.238031 0.548948 1.764760 0.000000 0.000000 0.000000
1.127941 0.530869 1.686347 0.000000 0.000000 0.000000
1.250624 0.575705 1.778414 0.000000 0.000000 0.000000
1.100340 0.742011 1.699169 0.000000 0.000000 0.000000
1.115587 0.558641 1.677791 0.000000 0.000000 0.000000
1.260702 0.650814 1.811707 0.000000 0.000000 0.000000
1.260111 0.635567 1.809358 0.000000 0.000000 0.000000
1.262459 0.649323 1.815259 0.000000 0.000000 0.000000
1.260646 0.664994 1.819303 0.000000 0.000000 0.000000
1.142820 0.769527 1.719448 0.000000 0.000000 0.000000
1.196415 0.846834 1.765985 0.000000 0.000000 0.000000
1.143583 0.509472 1.704321 0.000000 0.000000 0.000000
1.087234 0.675740 1.662864 0.000000 0.000000 0.000000
1.245861 0.810206 1.813185 0.000000 0.000000 0.000000
1.219839 0.864895 1.792266 0.000000 0.000000 0.000000
1.088287 0.712740 1.680031 0.000000 0.000000 0.000000
1.248486 0.801221 1.814415 0.000000 0.000000 0.000000
1.089113 0.709397 1.679904 0.000000 0.000000 0.000000
1.251514 0.806005 1.818372 0.000000 0.000000 0.000000
1.103493 0.754501 1.704132 0.000000 0.000000 0.000000
1.262639 0.663710 1.820774 0.000000 0.000000 0.000000
1.140796 0.780157 1.722197 0.000000 0.000000 0.000000
1.157833 0.728772 1.729900 0.000000 0.000000 0.000000
1.119897 0.767548 1.713188 0.000000 0.000000 0.000000
1.119160 0.755017 1.707240 0.000000 0.000000 0.000000
1.124166 0.767751 1.714229 0.000000 0.000000 0.000000
1.087721 0.682454 1.667984 0.000000 0.000000 0.000000
1.092332 0.682638 1.671494 0.000000 0.000000 0.000000
1.127522 0.765039 1.712627 0.000000 0.000000 0.000000
1.129154 0.769288 1.715893 0.000000 0.000000 0.000000
1.263972 0.687115 1.820670 0.000000 0.000000 0.000000
1.262554 0.659153 1.818013 0.000000 0.000000 0.000000
1.148500 0.753876 1.725425 0.000000 0.000000 0.000000
1.145054 0.757092 1.722191 0.000000 0.000000 0.000000
1.114334 0.761963 1.711267 0.000000 0.000000 0.000000
1.133626 0.751331 1.712609 0.000000 0.000000 0.000000
1.126911 0.758252 1.712589 0.000000 0.000000 0.000000
1.087451 0.687323 1.669509 0.000000 0.000000 0.000000
1.093628 0.684222 1.671605 0.000000 0.000000 0.000000
1.088520 0.682907 1.667758 0.000000 0.000000 0.000000
1.121480 0.776606 1.716103 0.000000 0.000000 0.000000
1.138214 0.772976 1.716025 0.000000 0.000000 0.000000
1.261626 0.675592 1.820934 0.000000 0.000000 0.000000
1.261832 0.654881 1.817220 0.000000 0.000000 0.000000
1.197171 0.854977 1.768411 0.000000 0.000000 0.000000
1.245201 0.830837 1.812186 0.000000 0.000000 0.000000
1.129507 0.529818 1.684524 0.000000 0.000000 0.000000
1.127125 0.533630 1.684441 0.000000 0.000000 0.000000
1.239486 0.839664 1.805679 0.000000 0.000000 0.000000
1.136892 0.516397 1.694007 0.000000 0.000000 0.000000
1.193452 0.848803 1.764967 0.000000 0.000000 0.000000
1.265740 0.732147 1.820028 0.000000 0.000000 0.000000
1.253136 0.590956 1.785779 0.000000 0.000000 0.000000
1.239669 0.834866 1.803059 0.000000 0.000000 0.000000
1.264786 0.740484 1.820236 0.000000 0.000000 0.000000
1.236854 0.846310 1.803373 0.000000 0.000000 0.000000
1.263205 0.737858 1.817857 0.000000 0.000000 0.000000
1.269555 0.725970 1.823065 0.000000 0.000000 0.000000
1.116450 0.770992 1.717339 0.000000 0.000000 0.000000
1.257174 0.749486 1.816652 0.000000 0.000000 0.000000
1.267118 0.734188 1.823674 0.000000 0.000000 0.000000
1.254708 0.590617 1.784557 0.000000 0.000000 0.000000
1.243196 0.838194 1.805619 0.000000 0.000000 0.000000
1.231642 0.839433 1.796533 0.000000 0.000000 0.000000
1.268646 0.726861 1.821978 0.000000 0.000000 0.000000
1.242771 0.839734 1.808468 0.000000 0.000000 0.000000
1.265205 0.737876 1.819930 0.000000 0.000000 0.000000
1.264230 0.752643 1.822306 0.000000 0.000000 0.000000
1.112446 0.773679 1.717032 0.000000 0.000000 0.000000
1.256768 0.760866 1.814235 0.000000 0.000000 0.000000
1.092644 0.655253 1.660001 0.000000 0.000000 0.000000
1.092426 0.655858 1.658431 0.000000 0.000000 0.000000
1.243386 0.634970 1.788320 0.000000 0.000000 0.000000
1.254251 0.605124 1.787149 0.000000 0.000000 0.000000
1.119406 0.778839 1.710857 0.000000 0.000000 0.000000
1.256684 0.589887 1.789529 0.000000 0.000000 0.000000
1.255922 0.596785 1.782785 0.000000 0.000000 0.000000
1.252550 0.610883 1.785704 0.000000 0.000000 0.000000
1.250853 0.596550 1.781921 0.000000 0.000000 0.000000
1.258999 0.762458 1.817152 0.000000 0.000000 0.000000
1.263290 0.754315 1.819453 0.000000 0.000000 0.000000
1.266118 0.744104 1.821464 0.000000 0.000000 0.000000
1.256833 0.598193 1.788024 0.000000 0.000000 0.000000
1.261466 0.762559 1.821623 0.000000 0.000000 0.000000
1.240524 0.621252 1.784971 0.000000 0.000000 0.000000
1.260642 0.603974 1.791233 0.000000 0.000000 0.000000
1.256503 0.608257 1.789854 0.000000 0.000000 0.000000
1.253805 0.582176 1.784218 0.000000 0.000000 0.000000
1.257160 0.592975 1.787603 0.000000 0.000000 0.000000
1.255872 0.590406 1.784217 0.000000 0.000000 0.000000
1.245669 0.568746 1.773875 0.000000 0.000000 0.000000
1.252089 0.789862 1.811036 0.000000 0.000000 0.000000
1.261134 0.756772 1.818414 0.000000 0.000000 0.000000
1.258444 0.596253 1.791610 0.000000 0.000000 0.000000
1.266964 0.741192 1.824205 0.000000 0.000000 0.000000
1.256854 0.592190 1.787234 0.000000 0.000000 0.000000
1.263136 0.758329 1.821479 0.000000 0.000000 0.000000
1.086545 0.689280 1.669699 0.000000 0.000000 0.000000
1.264536 0.754862 1.821896 0.000000 0.000000 0.000000
1.224334 0.529112 1.751528 0.000000 0.000000 0.000000
1.215225 0.519872 1.743566 0.000000 0.000000 0.000000
1.129644 0.531176 1.686613 0.000000 0.000000 0.000000
1.229998 0.535889 1.751766 0.000000 0.000000 0.000000
1.225567 0.527791 1.750174 0.000000 0.000000 0.000000
1.211590 0.521931 1.744997 0.000000 0.000000 0.000000
1.085546 0.689708 1.665411 0.000000 0.000000 0.000000
1.130884 0.523422 1.689386 0.000000 0.000000 0.000000
1.092383 0.681419 1.668062 0.000000 0.000000 0.000000
1.087715 0.692598 1.674579 0.000000 0.000000 0.000000
1.205823 0.862698 1.782786 0.000000 0.000000 0.000000
1.248463 0.816725 1.818306 0.000000 0.000000 0.000000
1.088161 0.686465 1.669686 0.000000 0.000000 0.000000
1.090310 0.687822 1.672834 0.000000 0.000000 0.000000
1.093289 0.676342 1.670360 0.000000 0.000000 0.000000
1.102561 0.674317 1.676892 0.000000 0.000000 0.000000
1.089590 0.669065 1.664965 0.000000 0.000000 0.000000
1.088140 0.690883 1.671562 0.000000 0.000000 0.000000
1.087074 0.695330 1.671504 0.000000 0.000000 0.000000
1.103885 0.677120 1.679373 0.000000 0.000000 0.000000
1.087847 0.691328 1.671534 0.000000 0.000000 0.000000
1.131298 0.802223 1.725348 0.000000 0.000000 0.000000
1.091795 0.677019 1.670783 0.000000 0.000000 0.000000
1.086501 0.690449 1.669642 0.000000 0.000000 0.000000
1.087078 0.679392 1.667511 0.000000 0.000000 0.000000
1.085675 0.685214 1.672475 0.000000 0.000000 0.000000
1.210335 0.514253 1.738847 0.000000 0.000000 0.000000
1.263620 0.727116 1.816383 0.000000 0.000000 0.000000
1.258751 0.633928 1.806474 0.000000 0.000000 0.000000
1.243098 0.834165 1.810086 0.000000 0.000000 0.000000
1.193794 0.503646 1.739804 0.000000 0.000000 0.000000
1.188946 0.500357 1.733757 0.000000 0.000000 0.000000
1.199235 0.509792 1.741841 0.000000 0.000000 0.000000
1.265752 0.721973 1.820571 0.000000 0.000000 0.000000
1.269607 0.717523 1.824070 0.000000 0.000000 0.000000
1.177863 0.496548 1.725302 0.000000 0.000000 0.000000
1.201037 0.508489 1.740532 0.000000 0.000000 0.000000
1.187045 0.506121 1.730989 0.000000 0.000000 0.000000
1.202910 0.509184 1.740488 0.000000 0.000000 0.000000
1.269711 0.718457 1.825000 0.000000 0.000000 0.000000
1.268743 0.727698 1.824538 0.000000 0.000000 0.000000
1.183704 0.496115 1.725918 0.000000 0.000000 0.000000
1.092867 0.650799 1.659971 0.000000 0.000000 0.000000
1.104550 0.585467 1.669171 0.000000 0.000000 0.000000
1.114130 0.563492 1.672775 0.000000 0.000000 0.000000
1.247806 0.814456 1.817089 0.000000 0.000000 0.000000
1.262623 0.625572 1.802558 0.000000 0.000000 0.000000
1.261777 0.769412 1.814946 0.000000 0.000000 0.000000
1.123184 0.548803 1.680366 0.000000 0.000000 0.000000
1.257421 0.768995 1.811041 0.000000 0.000000 0.000000
1.106995 0.577891 1.670410 0.000000 0.000000 0.000000
1.087314 0.682344 1.668147 0.000000 0.000000 0.000000
1.117773 0.559104 1.678756 0.000000 0.000000 0.000000
1.150340 0.493721 1.716647 0.000000 0.000000 0.000000
1.116205 0.563296 1.674688 0.000000 0.000000 0.000000
1.086327 0.708987 1.680343 0.000000 0.000000 0.000000
1.100019 0.591276 1.668944 0.000000 0.000000 0.000000
1.097929 0.597720 1.664324 0.000000 0.000000 0.000000
1.229295 0.855067 1.797625 0.000000 0.000000 0.000000
1.114891 0.565154 1.673314 0.000000 0.000000 0.000000
1.085481 0.715599 1.682702 0.000000 0.000000 0.000000
1.104100 0.583354 1.670119 0.000000 0.000000 0.000000
1.101406 0.590188 1.666499 0.000000 0.000000 0.000000
1.236308 0.850765 1.801381 0.000000 0.000000 0.000000
1.115308 0.559985 1.674427 0.000000 0.000000 0.000000
1.085427 0.709988 1.677443 0.000000 0.000000 0.000000
1.094745 0.705876 1.681344 0.000000 0.000000 0.000000
1.092915 0.712920 1.678184 0.000000 0.000000 0.000000
1.180197 0.498866 1.726321 0.000000 0.000000 0.000000
1.204912 0.803586 1.769682 0.000000 0.000000 0.000000
1.145802 0.789951 1.728138 0.000000 0.000000 0.000000
1.168413 0.804850 1.741892 0.000000 0.000000 0.000000
1.201511 0.798280 1.768534 0.000000 0.000000 0.000000
1.184810 0.792664 1.752228 0.000000 0.000000 0.000000
1.166111 0.795528 1.739559 0.000000 0.000000 0.000000
1.090415 0.716494 1.683509 0.000000 0.000000 0.000000
1.135745 0.780995 1.723434 0.000000 0.000000 0.000000
1.175479 0.815762 1.747702 0.000000 0.000000 0.000000
1.087770 0.711927 1.677729 0.000000 0.000000 0.000000
1.083971 0.696850 1.673436 0.000000 0.000000 0.000000
1.168302 0.829338 1.745645 0.000000 0.000000 0.000000
1.086017 0.696539 1.670003 0.000000 0.000000 0.000000
1.193145 0.849949 1.763359 0.000000 0.000000 0.000000
1.212357 0.767763 1.773921 0.000000 0.000000 0.000000
1.163937 0.804072 1.737273 0.000000 0.000000 0.000000
1.182969 0.803776 1.751746 0.000000 0.000000 0.000000
1.187439 0.773455 1.752423 0.000000 0.000000 0.000000
1.177931 0.790412 1.747290 0.000000 0.000000 0.000000
1.167249 0.801733 1.741597 0.000000 0.000000 0.000000
1.094663 0.712165 1.684314 0.000000 0.000000 0.000000
1.171099 0.811584 1.745283 0.000000 0.000000 0.000000
1.159999 0.808021 1.737797 0.000000 0.000000 0.000000
1.086254 0.705243 1.673925 0.000000 0.000000 0.000000
1.180998 0.843493 1.752821 0.000000 0.000000 0.000000
1.186166 0.842625 1.758747 0.000000 0.000000 0.000000
1.255282 0.792715 1.820595 0.000000 0.000000 0.000000
1.093246 0.639861 1.659007 0.000000 0.000000 0.000000
1.090838 0.647744 1.659819 0.000000 0.000000 0.000000
1.092511 0.633475 1.653671 0.000000 0.000000 0.000000
1.095207 0.638495 1.658451 0.000000 0.000000 0.000000
1.093858 0.647474 1.660587 0.000000 0.000000 0.000000
1.091313 0.641852 1.657026 0.000000 0.000000 0.000000
1.168130 0.686131 1.724963 0.000000 0.000000 0.000000
1.220846 0.656591 1.771235 0.000000 0.000000 0.000000
1.235927 0.664830 1.781555 0.000000 0.000000 0.000000
