ply
format ascii 1.0
comment VCGLIB generated
obj_info Generated by SPFormer!
element vertex 884
property float x
property float y
property float z
property float nx
property float ny
property float nz
end_header
1.060215 0.301987 1.876580 0.000000 0.000000 0.000000
1.129649 0.440280 1.734930 0.000000 0.000000 0.000000
1.233098 0.433543 1.816046 0.000000 0.000000 0.000000
1.079403 0.311106 1.874214 0.000000 0.000000 0.000000
1.061831 0.306875 1.870433 0.000000 0.000000 0.000000
1.232028 0.425190 1.831280 0.000000 0.000000 0.000000
1.108951 0.402951 1.752055 0.000000 0.000000 0.000000
1.118514 0.427292 1.737850 0.000000 0.000000 0.000000
1.123050 0.435781 1.733694 0.000000 0.000000 0.000000
1.125454 0.432148 1.736986 0.000000 0.000000 0.000000
1.077681 0.289043 1.916134 0.000000 0.000000 0.000000
1.109175 0.276416 1.986138 0.000000 0.000000 0.000000
1.114403 0.275960 1.999261 0.000000 0.000000 0.000000
1.189171 0.443460 1.776567 0.000000 0.000000 0.000000
1.104861 0.273125 1.986944 0.000000 0.000000 0.000000
1.132297 0.271192 2.019509 0.000000 0.000000 0.000000
1.178029 0.286120 2.054545 0.000000 0.000000 0.000000
1.242656 0.365559 1.966319 0.000000 0.000000 0.000000
1.167518 0.273422 2.058260 0.000000 0.000000 0.000000
1.251716 0.365759 1.959501 0.000000 0.000000 0.000000
1.246991 0.369123 1.957604 0.000000 0.000000 0.000000
1.112017 0.420408 1.737232 0.000000 0.000000 0.000000
1.062843 0.343421 1.807861 0.000000 0.000000 0.000000
1.242175 0.366934 1.950948 0.000000 0.000000 0.000000
1.168835 0.278665 2.049295 0.000000 0.000000 0.000000
1.118646 0.276713 1.998319 0.000000 0.000000 0.000000
1.100612 0.407033 1.745161 0.000000 0.000000 0.000000
1.239335 0.369434 1.943402 0.000000 0.000000 0.000000
1.156827 0.273241 2.048547 0.000000 0.000000 0.000000
1.123550 0.275252 2.006919 0.000000 0.000000 0.000000
1.095741 0.403282 1.747283 0.000000 0.000000 0.000000
1.096687 0.403102 1.748251 0.000000 0.000000 0.000000
1.109107 0.276059 2.007255 0.000000 0.000000 0.000000
1.108549 0.273122 2.000185 0.000000 0.000000 0.000000
1.124719 0.274307 2.000756 0.000000 0.000000 0.000000
1.092308 0.277519 1.979575 0.000000 0.000000 0.000000
1.119033 0.277074 2.004025 0.000000 0.000000 0.000000
1.109558 0.273764 2.000768 0.000000 0.000000 0.000000
1.100037 0.273686 1.992583 0.000000 0.000000 0.000000
1.104000 0.274767 1.998521 0.000000 0.000000 0.000000
1.116736 0.273254 2.008169 0.000000 0.000000 0.000000
1.091369 0.282323 1.964399 0.000000 0.000000 0.000000
1.124343 0.276308 1.992209 0.000000 0.000000 0.000000
1.101197 0.277157 1.989043 0.000000 0.000000 0.000000
1.112245 0.270974 2.005206 0.000000 0.000000 0.000000
1.068002 0.344460 1.806129 0.000000 0.000000 0.000000
1.106986 0.277578 1.987186 0.000000 0.000000 0.000000
1.095517 0.279736 1.976546 0.000000 0.000000 0.000000
1.113094 0.271688 2.003390 0.000000 0.000000 0.000000
1.098185 0.277110 1.992126 0.000000 0.000000 0.000000
1.124250 0.275810 2.010907 0.000000 0.000000 0.000000
1.093704 0.282722 1.972255 0.000000 0.000000 0.000000
1.148035 0.461093 1.734632 0.000000 0.000000 0.000000
1.110654 0.405792 1.745702 0.000000 0.000000 0.000000
1.077992 0.278877 1.963286 0.000000 0.000000 0.000000
1.056484 0.306919 1.867039 0.000000 0.000000 0.000000
1.051642 0.310552 1.850255 0.000000 0.000000 0.000000
1.140876 0.442608 1.746485 0.000000 0.000000 0.000000
1.222200 0.338837 1.982718 0.000000 0.000000 0.000000
1.225242 0.338369 2.004753 0.000000 0.000000 0.000000
1.139914 0.449813 1.739773 0.000000 0.000000 0.000000
1.108513 0.417952 1.740111 0.000000 0.000000 0.000000
1.055611 0.310503 1.854411 0.000000 0.000000 0.000000
1.142704 0.442770 1.748620 0.000000 0.000000 0.000000
1.154391 0.275882 2.042761 0.000000 0.000000 0.000000
1.217162 0.340918 1.997641 0.000000 0.000000 0.000000
1.132833 0.440385 1.738114 0.000000 0.000000 0.000000
1.130718 0.274180 2.017597 0.000000 0.000000 0.000000
1.193982 0.297677 2.051822 0.000000 0.000000 0.000000
1.170434 0.282151 2.048533 0.000000 0.000000 0.000000
1.104579 0.405073 1.741331 0.000000 0.000000 0.000000
1.177693 0.279418 2.054545 0.000000 0.000000 0.000000
1.189614 0.293418 2.044723 0.000000 0.000000 0.000000
1.117389 0.428871 1.733855 0.000000 0.000000 0.000000
1.061984 0.335669 1.817631 0.000000 0.000000 0.000000
1.171922 0.281029 2.057318 0.000000 0.000000 0.000000
1.172237 0.335372 1.921286 0.000000 0.000000 0.000000
1.247920 0.377069 1.950379 0.000000 0.000000 0.000000
1.163079 0.273493 2.054400 0.000000 0.000000 0.000000
1.194467 0.297836 2.042770 0.000000 0.000000 0.000000
1.188194 0.289396 2.049923 0.000000 0.000000 0.000000
1.169957 0.289934 2.034034 0.000000 0.000000 0.000000
1.155583 0.273364 2.051966 0.000000 0.000000 0.000000
1.239007 0.364983 1.962273 0.000000 0.000000 0.000000
1.200244 0.302688 2.046710 0.000000 0.000000 0.000000
1.175528 0.293580 2.026437 0.000000 0.000000 0.000000
1.152348 0.277114 2.039909 0.000000 0.000000 0.000000
1.248451 0.368912 1.963771 0.000000 0.000000 0.000000
1.131300 0.427446 1.741896 0.000000 0.000000 0.000000
1.244933 0.365890 1.967369 0.000000 0.000000 0.000000
1.247724 0.375316 1.953337 0.000000 0.000000 0.000000
1.136775 0.271957 2.030941 0.000000 0.000000 0.000000
1.170502 0.304900 1.992634 0.000000 0.000000 0.000000
1.245290 0.366689 1.961109 0.000000 0.000000 0.000000
1.237538 0.362277 1.969142 0.000000 0.000000 0.000000
1.127488 0.437725 1.732256 0.000000 0.000000 0.000000
1.135270 0.274296 2.027735 0.000000 0.000000 0.000000
1.100163 0.391983 1.759277 0.000000 0.000000 0.000000
1.248049 0.366618 1.967915 0.000000 0.000000 0.000000
1.247958 0.367166 1.967703 0.000000 0.000000 0.000000
1.083988 0.279485 1.975062 0.000000 0.000000 0.000000
1.086863 0.283579 1.976371 0.000000 0.000000 0.000000
1.102417 0.282925 1.980243 0.000000 0.000000 0.000000
1.063301 0.329260 1.829207 0.000000 0.000000 0.000000
1.063067 0.346267 1.804453 0.000000 0.000000 0.000000
1.085764 0.278816 1.970534 0.000000 0.000000 0.000000
1.051941 0.313828 1.843022 0.000000 0.000000 0.000000
1.133817 0.444830 1.735539 0.000000 0.000000 0.000000
1.054400 0.319262 1.836668 0.000000 0.000000 0.000000
1.142184 0.449963 1.739378 0.000000 0.000000 0.000000
1.142256 0.456012 1.733187 0.000000 0.000000 0.000000
1.116923 0.421897 1.738770 0.000000 0.000000 0.000000
1.129769 0.433689 1.743423 0.000000 0.000000 0.000000
1.247088 0.418439 1.878639 0.000000 0.000000 0.000000
1.220467 0.413333 1.842208 0.000000 0.000000 0.000000
1.136818 0.446510 1.735155 0.000000 0.000000 0.000000
1.242545 0.410387 1.875454 0.000000 0.000000 0.000000
1.141683 0.443512 1.751033 0.000000 0.000000 0.000000
1.248213 0.397703 1.880806 0.000000 0.000000 0.000000
1.108051 0.348238 1.828426 0.000000 0.000000 0.000000
1.236331 0.390121 1.896556 0.000000 0.000000 0.000000
1.248475 0.413333 1.882121 0.000000 0.000000 0.000000
1.130410 0.438851 1.735710 0.000000 0.000000 0.000000
1.232230 0.408856 1.862187 0.000000 0.000000 0.000000
1.153265 0.447988 1.746321 0.000000 0.000000 0.000000
1.139361 0.435513 1.753927 0.000000 0.000000 0.000000
1.066756 0.325046 1.833742 0.000000 0.000000 0.000000
1.058377 0.325916 1.832155 0.000000 0.000000 0.000000
1.061051 0.322099 1.833728 0.000000 0.000000 0.000000
1.059611 0.326690 1.825625 0.000000 0.000000 0.000000
1.058428 0.323027 1.833952 0.000000 0.000000 0.000000
1.094842 0.281847 1.965989 0.000000 0.000000 0.000000
1.054064 0.317299 1.836782 0.000000 0.000000 0.000000
1.209488 0.314160 2.026683 0.000000 0.000000 0.000000
1.059347 0.311781 1.846766 0.000000 0.000000 0.000000
1.062914 0.324101 1.833783 0.000000 0.000000 0.000000
1.055011 0.325812 1.827232 0.000000 0.000000 0.000000
1.219545 0.441737 1.774497 0.000000 0.000000 0.000000
1.208686 0.450158 1.765271 0.000000 0.000000 0.000000
1.080421 0.367708 1.780534 0.000000 0.000000 0.000000
1.062420 0.337835 1.814441 0.000000 0.000000 0.000000
1.097500 0.339438 1.840318 0.000000 0.000000 0.000000
1.056363 0.317901 1.836042 0.000000 0.000000 0.000000
1.216881 0.444194 1.783282 0.000000 0.000000 0.000000
1.207039 0.442441 1.782606 0.000000 0.000000 0.000000
1.079399 0.376746 1.768844 0.000000 0.000000 0.000000
1.107038 0.351797 1.828938 0.000000 0.000000 0.000000
1.076033 0.280019 1.948816 0.000000 0.000000 0.000000
1.059392 0.328957 1.823938 0.000000 0.000000 0.000000
1.100825 0.406664 1.746218 0.000000 0.000000 0.000000
1.253080 0.387124 1.932851 0.000000 0.000000 0.000000
1.244532 0.433490 1.833889 0.000000 0.000000 0.000000
1.242135 0.427311 1.837830 0.000000 0.000000 0.000000
1.249118 0.397924 1.907159 0.000000 0.000000 0.000000
1.070754 0.351613 1.793634 0.000000 0.000000 0.000000
1.094880 0.282552 1.961552 0.000000 0.000000 0.000000
1.069602 0.328355 1.828538 0.000000 0.000000 0.000000
1.246082 0.368631 1.961401 0.000000 0.000000 0.000000
1.185095 0.291086 2.051254 0.000000 0.000000 0.000000
1.134856 0.441275 1.737899 0.000000 0.000000 0.000000
1.251829 0.386830 1.933549 0.000000 0.000000 0.000000
1.230053 0.439088 1.789678 0.000000 0.000000 0.000000
1.205616 0.308523 2.039829 0.000000 0.000000 0.000000
1.065483 0.357617 1.785135 0.000000 0.000000 0.000000
1.078312 0.365159 1.780523 0.000000 0.000000 0.000000
1.079921 0.359160 1.783495 0.000000 0.000000 0.000000
1.090798 0.282896 1.954986 0.000000 0.000000 0.000000
1.243141 0.361169 1.977218 0.000000 0.000000 0.000000
1.102214 0.399846 1.751952 0.000000 0.000000 0.000000
1.114696 0.429538 1.731473 0.000000 0.000000 0.000000
1.073888 0.368089 1.779377 0.000000 0.000000 0.000000
1.244624 0.432759 1.833956 0.000000 0.000000 0.000000
1.248983 0.406115 1.890562 0.000000 0.000000 0.000000
1.241577 0.430473 1.837489 0.000000 0.000000 0.000000
1.075556 0.362579 1.787417 0.000000 0.000000 0.000000
1.250043 0.402834 1.891658 0.000000 0.000000 0.000000
1.145221 0.459174 1.733988 0.000000 0.000000 0.000000
1.089875 0.393738 1.754611 0.000000 0.000000 0.000000
1.092165 0.395815 1.752534 0.000000 0.000000 0.000000
1.088283 0.400389 1.749401 0.000000 0.000000 0.000000
1.155565 0.463174 1.731276 0.000000 0.000000 0.000000
1.100795 0.401111 1.752378 0.000000 0.000000 0.000000
1.116829 0.400361 1.763287 0.000000 0.000000 0.000000
1.098043 0.403633 1.748853 0.000000 0.000000 0.000000
1.099945 0.408806 1.743815 0.000000 0.000000 0.000000
1.088069 0.387452 1.755515 0.000000 0.000000 0.000000
1.111071 0.421083 1.737064 0.000000 0.000000 0.000000
1.250827 0.384801 1.936819 0.000000 0.000000 0.000000
1.082735 0.363374 1.786938 0.000000 0.000000 0.000000
1.155337 0.415041 1.786172 0.000000 0.000000 0.000000
1.138007 0.449425 1.734918 0.000000 0.000000 0.000000
1.212551 0.449272 1.771156 0.000000 0.000000 0.000000
1.070431 0.363126 1.782659 0.000000 0.000000 0.000000
1.240902 0.386673 1.910608 0.000000 0.000000 0.000000
1.100154 0.399015 1.751925 0.000000 0.000000 0.000000
1.111587 0.413953 1.745714 0.000000 0.000000 0.000000
1.152783 0.447497 1.753919 0.000000 0.000000 0.000000
1.158342 0.451585 1.750044 0.000000 0.000000 0.000000
1.208830 0.449642 1.767440 0.000000 0.000000 0.000000
1.248943 0.398525 1.898965 0.000000 0.000000 0.000000
1.103972 0.399451 1.755449 0.000000 0.000000 0.000000
1.253347 0.395551 1.908854 0.000000 0.000000 0.000000
1.099526 0.396552 1.753534 0.000000 0.000000 0.000000
1.099850 0.406210 1.747608 0.000000 0.000000 0.000000
1.056623 0.313878 1.846368 0.000000 0.000000 0.000000
1.147994 0.461153 1.742925 0.000000 0.000000 0.000000
1.095502 0.398136 1.752920 0.000000 0.000000 0.000000
1.063990 0.314952 1.842613 0.000000 0.000000 0.000000
1.080925 0.281978 1.954296 0.000000 0.000000 0.000000
1.114101 0.426133 1.734496 0.000000 0.000000 0.000000
1.052766 0.316384 1.839731 0.000000 0.000000 0.000000
1.056224 0.305918 1.866733 0.000000 0.000000 0.000000
1.106943 0.408876 1.743649 0.000000 0.000000 0.000000
1.106006 0.407393 1.748560 0.000000 0.000000 0.000000
1.101608 0.406012 1.748122 0.000000 0.000000 0.000000
1.108998 0.416326 1.738363 0.000000 0.000000 0.000000
1.051437 0.315318 1.854809 0.000000 0.000000 0.000000
1.047948 0.317493 1.838163 0.000000 0.000000 0.000000
1.054439 0.317210 1.839430 0.000000 0.000000 0.000000
1.094998 0.399760 1.749031 0.000000 0.000000 0.000000
1.068228 0.308097 1.869418 0.000000 0.000000 0.000000
1.059419 0.313857 1.849299 0.000000 0.000000 0.000000
1.237937 0.435703 1.824197 0.000000 0.000000 0.000000
1.053788 0.314127 1.844997 0.000000 0.000000 0.000000
1.222960 0.423508 1.832877 0.000000 0.000000 0.000000
1.118892 0.422245 1.743709 0.000000 0.000000 0.000000
1.089088 0.392783 1.753000 0.000000 0.000000 0.000000
1.136403 0.440902 1.738292 0.000000 0.000000 0.000000
1.242304 0.431252 1.829799 0.000000 0.000000 0.000000
1.208498 0.437940 1.799896 0.000000 0.000000 0.000000
1.098301 0.401692 1.748942 0.000000 0.000000 0.000000
1.243813 0.432608 1.842746 0.000000 0.000000 0.000000
1.112157 0.409665 1.747581 0.000000 0.000000 0.000000
1.069753 0.307673 1.872080 0.000000 0.000000 0.000000
1.060936 0.318226 1.841378 0.000000 0.000000 0.000000
1.227544 0.439576 1.821107 0.000000 0.000000 0.000000
1.051154 0.313838 1.844905 0.000000 0.000000 0.000000
1.063066 0.302065 1.884371 0.000000 0.000000 0.000000
1.216896 0.445632 1.786811 0.000000 0.000000 0.000000
1.184656 0.290145 2.051567 0.000000 0.000000 0.000000
1.103429 0.411180 1.740498 0.000000 0.000000 0.000000
1.234497 0.409488 1.865185 0.000000 0.000000 0.000000
1.236589 0.436167 1.814988 0.000000 0.000000 0.000000
1.228861 0.428081 1.829248 0.000000 0.000000 0.000000
1.056494 0.307488 1.859764 0.000000 0.000000 0.000000
1.090942 0.397536 1.752159 0.000000 0.000000 0.000000
1.067498 0.319413 1.851364 0.000000 0.000000 0.000000
1.077274 0.280308 1.952246 0.000000 0.000000 0.000000
1.121806 0.434673 1.733470 0.000000 0.000000 0.000000
1.245215 0.383223 1.943830 0.000000 0.000000 0.000000
1.089556 0.393489 1.751494 0.000000 0.000000 0.000000
1.059600 0.294407 1.901461 0.000000 0.000000 0.000000
1.078782 0.307910 1.883163 0.000000 0.000000 0.000000
1.051958 0.306164 1.866568 0.000000 0.000000 0.000000
1.224912 0.439117 1.804100 0.000000 0.000000 0.000000
1.063839 0.290211 1.913288 0.000000 0.000000 0.000000
1.053787 0.303475 1.878668 0.000000 0.000000 0.000000
1.066131 0.350628 1.797790 0.000000 0.000000 0.000000
1.227302 0.434426 1.815811 0.000000 0.000000 0.000000
1.138632 0.445963 1.738265 0.000000 0.000000 0.000000
1.136154 0.449041 1.734869 0.000000 0.000000 0.000000
1.117185 0.430911 1.730488 0.000000 0.000000 0.000000
1.062432 0.314080 1.851008 0.000000 0.000000 0.000000
1.113094 0.424517 1.734051 0.000000 0.000000 0.000000
1.121842 0.425124 1.745841 0.000000 0.000000 0.000000
1.067009 0.347203 1.801571 0.000000 0.000000 0.000000
1.138159 0.444142 1.739583 0.000000 0.000000 0.000000
1.207744 0.434467 1.797920 0.000000 0.000000 0.000000
1.092737 0.278258 1.982702 0.000000 0.000000 0.000000
1.237803 0.430015 1.830090 0.000000 0.000000 0.000000
1.232874 0.434213 1.820745 0.000000 0.000000 0.000000
1.124529 0.427692 1.741073 0.000000 0.000000 0.000000
1.069804 0.345582 1.803459 0.000000 0.000000 0.000000
1.182966 0.288085 2.051402 0.000000 0.000000 0.000000
1.130740 0.441777 1.737409 0.000000 0.000000 0.000000
1.204793 0.311103 2.030282 0.000000 0.000000 0.000000
1.222285 0.431030 1.811880 0.000000 0.000000 0.000000
1.111632 0.280654 1.986778 0.000000 0.000000 0.000000
1.134509 0.271821 2.039784 0.000000 0.000000 0.000000
1.245528 0.426460 1.846509 0.000000 0.000000 0.000000
1.243404 0.436081 1.831458 0.000000 0.000000 0.000000
1.086033 0.383921 1.760076 0.000000 0.000000 0.000000
1.090349 0.289781 1.936777 0.000000 0.000000 0.000000
1.140703 0.455002 1.734736 0.000000 0.000000 0.000000
1.074286 0.290941 1.918398 0.000000 0.000000 0.000000
1.061583 0.290544 1.912226 0.000000 0.000000 0.000000
1.067873 0.287051 1.923148 0.000000 0.000000 0.000000
1.065504 0.294354 1.906562 0.000000 0.000000 0.000000
1.218257 0.325064 2.022893 0.000000 0.000000 0.000000
1.079799 0.289894 1.927937 0.000000 0.000000 0.000000
1.072765 0.294810 1.911464 0.000000 0.000000 0.000000
1.068934 0.288890 1.914450 0.000000 0.000000 0.000000
1.060762 0.293117 1.910532 0.000000 0.000000 0.000000
1.075971 0.359700 1.790146 0.000000 0.000000 0.000000
1.176730 0.282931 2.050035 0.000000 0.000000 0.000000
1.137621 0.450722 1.733634 0.000000 0.000000 0.000000
1.118858 0.426992 1.735931 0.000000 0.000000 0.000000
1.056879 0.328886 1.823572 0.000000 0.000000 0.000000
1.250357 0.390275 1.919012 0.000000 0.000000 0.000000
1.093950 0.385564 1.759981 0.000000 0.000000 0.000000
1.110794 0.410950 1.749316 0.000000 0.000000 0.000000
1.087644 0.382179 1.761526 0.000000 0.000000 0.000000
1.096969 0.384519 1.763392 0.000000 0.000000 0.000000
1.057587 0.297455 1.893125 0.000000 0.000000 0.000000
1.160826 0.273645 2.048239 0.000000 0.000000 0.000000
1.145708 0.277481 2.024224 0.000000 0.000000 0.000000
1.137934 0.272146 2.033055 0.000000 0.000000 0.000000
1.212201 0.319389 2.029351 0.000000 0.000000 0.000000
1.120940 0.431717 1.735553 0.000000 0.000000 0.000000
1.100636 0.407997 1.744629 0.000000 0.000000 0.000000
1.099835 0.398227 1.755450 0.000000 0.000000 0.000000
1.088580 0.392953 1.749441 0.000000 0.000000 0.000000
1.140936 0.273081 2.045499 0.000000 0.000000 0.000000
1.090306 0.385875 1.760996 0.000000 0.000000 0.000000
1.094629 0.385198 1.762515 0.000000 0.000000 0.000000
1.089953 0.385135 1.759664 0.000000 0.000000 0.000000
1.057930 0.298218 1.891642 0.000000 0.000000 0.000000
1.127848 0.273399 2.024022 0.000000 0.000000 0.000000
1.132872 0.270684 2.031133 0.000000 0.000000 0.000000
1.128706 0.271437 2.020221 0.000000 0.000000 0.000000
1.130641 0.273636 2.031998 0.000000 0.000000 0.000000
1.124433 0.438517 1.731214 0.000000 0.000000 0.000000
1.115872 0.407406 1.754606 0.000000 0.000000 0.000000
1.094182 0.397588 1.753214 0.000000 0.000000 0.000000
1.082379 0.379956 1.761169 0.000000 0.000000 0.000000
1.249065 0.373545 1.952009 0.000000 0.000000 0.000000
1.103622 0.413973 1.736934 0.000000 0.000000 0.000000
1.140682 0.441688 1.743146 0.000000 0.000000 0.000000
1.248519 0.374699 1.946462 0.000000 0.000000 0.000000
1.136597 0.448991 1.732056 0.000000 0.000000 0.000000
1.244294 0.376684 1.937095 0.000000 0.000000 0.000000
1.114778 0.424459 1.734592 0.000000 0.000000 0.000000
1.057432 0.325164 1.831871 0.000000 0.000000 0.000000
1.069126 0.286117 1.912089 0.000000 0.000000 0.000000
1.074926 0.297675 1.908567 0.000000 0.000000 0.000000
1.065596 0.346112 1.798360 0.000000 0.000000 0.000000
1.163940 0.282478 2.043230 0.000000 0.000000 0.000000
1.062736 0.337402 1.809966 0.000000 0.000000 0.000000
1.054787 0.335986 1.816136 0.000000 0.000000 0.000000
1.151550 0.271223 2.055055 0.000000 0.000000 0.000000
1.246071 0.375519 1.948621 0.000000 0.000000 0.000000
1.153765 0.274934 2.055002 0.000000 0.000000 0.000000
1.170885 0.275435 2.055905 0.000000 0.000000 0.000000
1.158107 0.276667 2.051741 0.000000 0.000000 0.000000
1.154385 0.364770 1.843132 0.000000 0.000000 0.000000
1.144596 0.306773 1.946725 0.000000 0.000000 0.000000
1.245864 0.375948 1.941085 0.000000 0.000000 0.000000
1.150194 0.316759 1.937401 0.000000 0.000000 0.000000
1.124429 0.316221 1.907530 0.000000 0.000000 0.000000
1.246474 0.386160 1.924217 0.000000 0.000000 0.000000
1.142632 0.447749 1.757916 0.000000 0.000000 0.000000
1.249533 0.390696 1.916257 0.000000 0.000000 0.000000
1.126338 0.313417 1.909571 0.000000 0.000000 0.000000
1.155119 0.336740 1.897501 0.000000 0.000000 0.000000
1.075963 0.330914 1.831435 0.000000 0.000000 0.000000
1.139314 0.304012 1.953888 0.000000 0.000000 0.000000
1.164029 0.295244 2.002511 0.000000 0.000000 0.000000
1.184778 0.406868 1.816956 0.000000 0.000000 0.000000
1.160982 0.309240 1.960581 0.000000 0.000000 0.000000
1.251741 0.393942 1.910196 0.000000 0.000000 0.000000
1.246579 0.382951 1.931591 0.000000 0.000000 0.000000
1.207595 0.429462 1.806678 0.000000 0.000000 0.000000
1.247802 0.389092 1.920218 0.000000 0.000000 0.000000
1.252870 0.388799 1.926357 0.000000 0.000000 0.000000
1.250410 0.385388 1.925457 0.000000 0.000000 0.000000
1.211605 0.309785 2.036934 0.000000 0.000000 0.000000
1.165481 0.282422 2.048292 0.000000 0.000000 0.000000
1.152907 0.273570 2.050946 0.000000 0.000000 0.000000
1.142796 0.272006 2.037200 0.000000 0.000000 0.000000
1.251615 0.385468 1.934470 0.000000 0.000000 0.000000
1.130175 0.334762 1.875938 0.000000 0.000000 0.000000
1.238964 0.380144 1.922910 0.000000 0.000000 0.000000
1.222250 0.387208 1.884331 0.000000 0.000000 0.000000
1.126264 0.325915 1.894126 0.000000 0.000000 0.000000
1.244531 0.384317 1.924229 0.000000 0.000000 0.000000
1.135188 0.427586 1.755956 0.000000 0.000000 0.000000
1.247085 0.379830 1.938578 0.000000 0.000000 0.000000
1.250022 0.388846 1.918958 0.000000 0.000000 0.000000
1.134832 0.327364 1.895147 0.000000 0.000000 0.000000
1.088882 0.293575 1.920628 0.000000 0.000000 0.000000
1.067237 0.330597 1.827412 0.000000 0.000000 0.000000
1.152526 0.308590 1.958149 0.000000 0.000000 0.000000
1.169845 0.303705 1.992465 0.000000 0.000000 0.000000
1.165681 0.423367 1.787544 0.000000 0.000000 0.000000
1.167054 0.313463 1.959800 0.000000 0.000000 0.000000
1.155403 0.295987 1.981547 0.000000 0.000000 0.000000
1.243995 0.384084 1.929229 0.000000 0.000000 0.000000
1.208714 0.434711 1.796649 0.000000 0.000000 0.000000
1.242734 0.387758 1.919293 0.000000 0.000000 0.000000
1.244185 0.387000 1.916839 0.000000 0.000000 0.000000
1.162215 0.444456 1.764546 0.000000 0.000000 0.000000
1.162220 0.277059 2.055945 0.000000 0.000000 0.000000
1.179215 0.281425 2.054191 0.000000 0.000000 0.000000
1.054989 0.329489 1.820446 0.000000 0.000000 0.000000
1.208923 0.311103 2.039079 0.000000 0.000000 0.000000
1.251671 0.390117 1.918437 0.000000 0.000000 0.000000
1.071855 0.354778 1.792687 0.000000 0.000000 0.000000
1.069077 0.349678 1.800911 0.000000 0.000000 0.000000
1.064629 0.351261 1.796149 0.000000 0.000000 0.000000
1.086824 0.280542 1.964449 0.000000 0.000000 0.000000
1.068537 0.357126 1.788434 0.000000 0.000000 0.000000
1.176571 0.280341 2.055212 0.000000 0.000000 0.000000
1.187878 0.294616 2.050961 0.000000 0.000000 0.000000
1.128123 0.440622 1.733752 0.000000 0.000000 0.000000
1.181054 0.326375 1.953778 0.000000 0.000000 0.000000
1.067113 0.353182 1.793838 0.000000 0.000000 0.000000
1.067152 0.345962 1.800521 0.000000 0.000000 0.000000
1.080590 0.345243 1.810414 0.000000 0.000000 0.000000
1.065321 0.355407 1.791422 0.000000 0.000000 0.000000
1.177071 0.286550 2.051898 0.000000 0.000000 0.000000
1.128293 0.438705 1.732368 0.000000 0.000000 0.000000
1.126150 0.272288 2.017121 0.000000 0.000000 0.000000
1.235610 0.432854 1.820192 0.000000 0.000000 0.000000
1.234907 0.440605 1.805222 0.000000 0.000000 0.000000
1.062414 0.290293 1.909418 0.000000 0.000000 0.000000
1.164164 0.436228 1.776092 0.000000 0.000000 0.000000
1.159697 0.324203 1.923940 0.000000 0.000000 0.000000
1.069051 0.353128 1.796595 0.000000 0.000000 0.000000
1.069221 0.353073 1.792468 0.000000 0.000000 0.000000
1.067650 0.335995 1.820889 0.000000 0.000000 0.000000
1.072928 0.359421 1.789706 0.000000 0.000000 0.000000
1.192292 0.296940 2.049654 0.000000 0.000000 0.000000
1.233908 0.350511 1.989870 0.000000 0.000000 0.000000
1.116585 0.427391 1.733624 0.000000 0.000000 0.000000
1.227359 0.445587 1.790168 0.000000 0.000000 0.000000
1.225544 0.443344 1.792829 0.000000 0.000000 0.000000
1.060722 0.291895 1.903901 0.000000 0.000000 0.000000
1.165587 0.444744 1.766453 0.000000 0.000000 0.000000
1.122233 0.271663 2.018262 0.000000 0.000000 0.000000
1.087415 0.281763 1.962166 0.000000 0.000000 0.000000
1.139484 0.453913 1.732627 0.000000 0.000000 0.000000
1.129670 0.278566 2.002114 0.000000 0.000000 0.000000
1.084665 0.279595 1.963252 0.000000 0.000000 0.000000
1.249929 0.382766 1.935869 0.000000 0.000000 0.000000
1.095402 0.276300 1.985061 0.000000 0.000000 0.000000
1.143512 0.274920 2.033315 0.000000 0.000000 0.000000
1.114499 0.270122 2.014013 0.000000 0.000000 0.000000
1.117145 0.272924 2.009715 0.000000 0.000000 0.000000
1.114963 0.270449 2.013001 0.000000 0.000000 0.000000
1.246604 0.373013 1.959596 0.000000 0.000000 0.000000
1.249679 0.419518 1.854810 0.000000 0.000000 0.000000
1.130327 0.271964 2.027361 0.000000 0.000000 0.000000
1.126133 0.269983 2.025646 0.000000 0.000000 0.000000
1.167691 0.281225 2.047556 0.000000 0.000000 0.000000
1.248495 0.370681 1.957929 0.000000 0.000000 0.000000
1.125766 0.270477 2.023635 0.000000 0.000000 0.000000
1.249405 0.372584 1.958027 0.000000 0.000000 0.000000
1.114022 0.270623 2.012094 0.000000 0.000000 0.000000
1.120726 0.275045 2.018704 0.000000 0.000000 0.000000
1.130087 0.268797 2.033683 0.000000 0.000000 0.000000
1.243902 0.369447 1.960558 0.000000 0.000000 0.000000
1.247711 0.423427 1.837123 0.000000 0.000000 0.000000
1.104144 0.272344 1.999826 0.000000 0.000000 0.000000
1.135197 0.272688 2.025408 0.000000 0.000000 0.000000
1.213525 0.319369 2.028181 0.000000 0.000000 0.000000
1.223756 0.336040 2.009887 0.000000 0.000000 0.000000
1.062338 0.311062 1.857694 0.000000 0.000000 0.000000
1.057731 0.305482 1.871120 0.000000 0.000000 0.000000
1.061451 0.344079 1.805881 0.000000 0.000000 0.000000
1.248624 0.370639 1.951391 0.000000 0.000000 0.000000
1.244791 0.392872 1.899863 0.000000 0.000000 0.000000
1.237796 0.372991 1.955751 0.000000 0.000000 0.000000
1.064986 0.309908 1.862637 0.000000 0.000000 0.000000
1.241937 0.422608 1.852993 0.000000 0.000000 0.000000
1.250198 0.385846 1.928295 0.000000 0.000000 0.000000
1.252621 0.391469 1.913933 0.000000 0.000000 0.000000
1.253703 0.386006 1.903437 0.000000 0.000000 0.000000
1.048657 0.306373 1.856578 0.000000 0.000000 0.000000
1.050452 0.309241 1.857387 0.000000 0.000000 0.000000
1.243879 0.423378 1.859404 0.000000 0.000000 0.000000
1.247316 0.427366 1.850457 0.000000 0.000000 0.000000
1.240779 0.374004 1.938979 0.000000 0.000000 0.000000
1.060087 0.309676 1.863189 0.000000 0.000000 0.000000
1.238474 0.421502 1.849569 0.000000 0.000000 0.000000
1.251410 0.385989 1.929246 0.000000 0.000000 0.000000
1.063181 0.308160 1.866153 0.000000 0.000000 0.000000
1.251827 0.385153 1.926600 0.000000 0.000000 0.000000
1.252536 0.392490 1.896338 0.000000 0.000000 0.000000
1.054666 0.311264 1.848191 0.000000 0.000000 0.000000
1.054897 0.306999 1.864014 0.000000 0.000000 0.000000
1.241920 0.417686 1.863500 0.000000 0.000000 0.000000
1.246602 0.430318 1.847931 0.000000 0.000000 0.000000
1.049381 0.313505 1.844874 0.000000 0.000000 0.000000
1.238525 0.425210 1.845422 0.000000 0.000000 0.000000
1.084070 0.277032 1.976838 0.000000 0.000000 0.000000
1.243301 0.374575 1.946541 0.000000 0.000000 0.000000
1.212919 0.320104 2.028294 0.000000 0.000000 0.000000
1.157430 0.420241 1.785451 0.000000 0.000000 0.000000
1.220010 0.328310 2.015244 0.000000 0.000000 0.000000
1.236313 0.353480 1.983214 0.000000 0.000000 0.000000
1.067549 0.349569 1.800355 0.000000 0.000000 0.000000
1.256223 0.386270 1.920246 0.000000 0.000000 0.000000
1.150572 0.428744 1.773870 0.000000 0.000000 0.000000
1.222195 0.331630 2.010463 0.000000 0.000000 0.000000
1.062240 0.342090 1.810748 0.000000 0.000000 0.000000
1.255205 0.381067 1.934398 0.000000 0.000000 0.000000
1.216589 0.325117 2.026251 0.000000 0.000000 0.000000
1.094606 0.403412 1.745233 0.000000 0.000000 0.000000
1.145544 0.458752 1.739095 0.000000 0.000000 0.000000
1.082448 0.281179 1.943133 0.000000 0.000000 0.000000
1.048484 0.304148 1.863108 0.000000 0.000000 0.000000
1.055515 0.303438 1.873859 0.000000 0.000000 0.000000
1.213602 0.317008 2.033407 0.000000 0.000000 0.000000
1.113676 0.291841 1.951941 0.000000 0.000000 0.000000
1.058794 0.330617 1.821608 0.000000 0.000000 0.000000
1.054691 0.301659 1.881238 0.000000 0.000000 0.000000
1.071221 0.285265 1.923426 0.000000 0.000000 0.000000
1.070135 0.282763 1.931309 0.000000 0.000000 0.000000
1.141681 0.311488 1.937739 0.000000 0.000000 0.000000
1.131736 0.299911 1.951750 0.000000 0.000000 0.000000
1.068546 0.303004 1.889365 0.000000 0.000000 0.000000
1.055107 0.295967 1.894395 0.000000 0.000000 0.000000
1.095018 0.273961 1.989390 0.000000 0.000000 0.000000
1.070015 0.282767 1.930205 0.000000 0.000000 0.000000
1.065156 0.285856 1.917587 0.000000 0.000000 0.000000
1.146883 0.315878 1.936740 0.000000 0.000000 0.000000
1.091032 0.396038 1.749309 0.000000 0.000000 0.000000
1.193169 0.296306 2.051124 0.000000 0.000000 0.000000
1.214871 0.322195 2.021280 0.000000 0.000000 0.000000
1.139169 0.452439 1.733542 0.000000 0.000000 0.000000
1.135864 0.441506 1.738036 0.000000 0.000000 0.000000
1.133718 0.448562 1.732821 0.000000 0.000000 0.000000
1.088736 0.283772 1.956912 0.000000 0.000000 0.000000
1.134301 0.441307 1.737652 0.000000 0.000000 0.000000
1.125170 0.436000 1.734888 0.000000 0.000000 0.000000
1.131340 0.438006 1.737803 0.000000 0.000000 0.000000
1.217438 0.322594 2.029550 0.000000 0.000000 0.000000
1.214597 0.317462 2.030797 0.000000 0.000000 0.000000
1.218869 0.324158 2.022381 0.000000 0.000000 0.000000
1.215586 0.318539 2.027957 0.000000 0.000000 0.000000
1.140163 0.445324 1.754284 0.000000 0.000000 0.000000
1.215396 0.322524 2.019744 0.000000 0.000000 0.000000
1.122165 0.430471 1.738872 0.000000 0.000000 0.000000
1.198059 0.316454 1.999810 0.000000 0.000000 0.000000
1.068636 0.285012 1.927432 0.000000 0.000000 0.000000
1.064386 0.286508 1.921070 0.000000 0.000000 0.000000
1.218588 0.326889 2.019599 0.000000 0.000000 0.000000
1.210032 0.315386 2.035572 0.000000 0.000000 0.000000
1.209847 0.317165 2.019026 0.000000 0.000000 0.000000
1.130471 0.437124 1.739150 0.000000 0.000000 0.000000
1.219476 0.327404 2.008526 0.000000 0.000000 0.000000
1.128764 0.425407 1.741193 0.000000 0.000000 0.000000
1.068295 0.291698 1.927709 0.000000 0.000000 0.000000
1.209559 0.314437 2.034649 0.000000 0.000000 0.000000
1.182860 0.288885 2.054911 0.000000 0.000000 0.000000
1.136141 0.450761 1.732941 0.000000 0.000000 0.000000
1.102114 0.405110 1.745634 0.000000 0.000000 0.000000
1.092534 0.282329 1.959467 0.000000 0.000000 0.000000
1.078343 0.353242 1.797780 0.000000 0.000000 0.000000
1.068657 0.361177 1.781914 0.000000 0.000000 0.000000
1.054507 0.311164 1.857067 0.000000 0.000000 0.000000
1.077508 0.370406 1.775362 0.000000 0.000000 0.000000
1.053120 0.317901 1.841796 0.000000 0.000000 0.000000
1.047796 0.302560 1.877099 0.000000 0.000000 0.000000
1.213476 0.320951 2.030694 0.000000 0.000000 0.000000
1.076134 0.366331 1.778456 0.000000 0.000000 0.000000
1.098960 0.278531 1.986587 0.000000 0.000000 0.000000
1.219128 0.321839 2.026158 0.000000 0.000000 0.000000
1.236648 0.379198 1.915560 0.000000 0.000000 0.000000
1.246177 0.380882 1.939990 0.000000 0.000000 0.000000
1.077875 0.280894 1.947971 0.000000 0.000000 0.000000
1.248619 0.382494 1.940885 0.000000 0.000000 0.000000
1.251181 0.383472 1.940579 0.000000 0.000000 0.000000
1.065981 0.305162 1.862528 0.000000 0.000000 0.000000
1.239053 0.369426 1.949453 0.000000 0.000000 0.000000
1.063660 0.296305 1.897931 0.000000 0.000000 0.000000
1.252119 0.385899 1.936456 0.000000 0.000000 0.000000
1.247154 0.382009 1.933548 0.000000 0.000000 0.000000
1.248112 0.392972 1.915024 0.000000 0.000000 0.000000
1.253730 0.376736 1.958127 0.000000 0.000000 0.000000
1.247369 0.375693 1.944377 0.000000 0.000000 0.000000
1.056003 0.304966 1.871031 0.000000 0.000000 0.000000
1.071015 0.364455 1.784089 0.000000 0.000000 0.000000
1.245845 0.377989 1.945532 0.000000 0.000000 0.000000
1.067762 0.283880 1.931263 0.000000 0.000000 0.000000
1.252380 0.386913 1.935442 0.000000 0.000000 0.000000
1.249005 0.382603 1.935144 0.000000 0.000000 0.000000
1.194230 0.447856 1.767315 0.000000 0.000000 0.000000
1.250366 0.383767 1.938875 0.000000 0.000000 0.000000
1.253645 0.397212 1.908694 0.000000 0.000000 0.000000
1.052976 0.304068 1.872091 0.000000 0.000000 0.000000
1.256334 0.380534 1.944574 0.000000 0.000000 0.000000
1.249491 0.381027 1.939471 0.000000 0.000000 0.000000
1.250164 0.381437 1.945957 0.000000 0.000000 0.000000
1.057627 0.304118 1.870003 0.000000 0.000000 0.000000
1.049708 0.309511 1.851029 0.000000 0.000000 0.000000
1.072184 0.367409 1.779474 0.000000 0.000000 0.000000
1.193974 0.295269 2.047628 0.000000 0.000000 0.000000
1.250469 0.400371 1.900677 0.000000 0.000000 0.000000
1.137068 0.452512 1.733105 0.000000 0.000000 0.000000
1.245159 0.381461 1.950057 0.000000 0.000000 0.000000
1.247458 0.383047 1.945617 0.000000 0.000000 0.000000
1.062785 0.350851 1.792248 0.000000 0.000000 0.000000
1.051017 0.306177 1.861593 0.000000 0.000000 0.000000
1.119178 0.273669 2.013280 0.000000 0.000000 0.000000
1.062061 0.342185 1.808142 0.000000 0.000000 0.000000
1.056571 0.303857 1.871323 0.000000 0.000000 0.000000
1.060004 0.328522 1.825584 0.000000 0.000000 0.000000
1.243012 0.369836 1.960786 0.000000 0.000000 0.000000
1.246487 0.370199 1.961797 0.000000 0.000000 0.000000
1.070233 0.284250 1.934534 0.000000 0.000000 0.000000
1.234677 0.366505 1.934835 0.000000 0.000000 0.000000
1.076246 0.282239 1.945359 0.000000 0.000000 0.000000
1.180482 0.288874 2.052860 0.000000 0.000000 0.000000
1.230148 0.355415 1.966231 0.000000 0.000000 0.000000
1.244600 0.363929 1.973243 0.000000 0.000000 0.000000
1.171591 0.280708 2.054822 0.000000 0.000000 0.000000
1.240179 0.371098 1.957573 0.000000 0.000000 0.000000
1.243776 0.369929 1.960136 0.000000 0.000000 0.000000
1.236117 0.431373 1.801606 0.000000 0.000000 0.000000
1.243222 0.423564 1.818501 0.000000 0.000000 0.000000
1.068245 0.282421 1.934928 0.000000 0.000000 0.000000
1.240406 0.367955 1.955285 0.000000 0.000000 0.000000
1.234072 0.437456 1.808017 0.000000 0.000000 0.000000
1.247253 0.429937 1.827918 0.000000 0.000000 0.000000
1.094902 0.401682 1.745486 0.000000 0.000000 0.000000
1.193328 0.297302 2.052431 0.000000 0.000000 0.000000
1.062609 0.327325 1.828418 0.000000 0.000000 0.000000
1.081906 0.282806 1.953550 0.000000 0.000000 0.000000
1.210105 0.316852 2.033200 0.000000 0.000000 0.000000
1.160808 0.311955 1.968726 0.000000 0.000000 0.000000
1.111421 0.273171 1.999117 0.000000 0.000000 0.000000
1.170690 0.328533 1.940870 0.000000 0.000000 0.000000
1.130380 0.271329 2.035309 0.000000 0.000000 0.000000
1.246286 0.368764 1.963332 0.000000 0.000000 0.000000
1.201937 0.301904 2.051582 0.000000 0.000000 0.000000
1.144162 0.269802 2.043164 0.000000 0.000000 0.000000
1.152110 0.274359 2.049063 0.000000 0.000000 0.000000
1.245887 0.368320 1.967358 0.000000 0.000000 0.000000
1.250826 0.385410 1.932544 0.000000 0.000000 0.000000
1.139476 0.272506 2.031601 0.000000 0.000000 0.000000
1.146175 0.272422 2.047713 0.000000 0.000000 0.000000
1.138702 0.270938 2.041630 0.000000 0.000000 0.000000
1.145419 0.271459 2.035585 0.000000 0.000000 0.000000
1.157856 0.272474 2.053238 0.000000 0.000000 0.000000
1.129407 0.270451 2.033123 0.000000 0.000000 0.000000
1.134231 0.271087 2.030630 0.000000 0.000000 0.000000
1.102651 0.272788 1.997081 0.000000 0.000000 0.000000
1.137153 0.269699 2.040433 0.000000 0.000000 0.000000
1.251804 0.391797 1.927800 0.000000 0.000000 0.000000
1.203709 0.301917 2.046545 0.000000 0.000000 0.000000
1.140808 0.270032 2.038358 0.000000 0.000000 0.000000
1.147123 0.270636 2.045825 0.000000 0.000000 0.000000
1.239859 0.360354 1.979047 0.000000 0.000000 0.000000
1.252106 0.388836 1.930572 0.000000 0.000000 0.000000
1.132910 0.272789 2.035425 0.000000 0.000000 0.000000
1.145761 0.272831 2.042632 0.000000 0.000000 0.000000
1.137969 0.271092 2.037016 0.000000 0.000000 0.000000
1.131217 0.270492 2.034329 0.000000 0.000000 0.000000
1.155739 0.272298 2.054514 0.000000 0.000000 0.000000
1.147528 0.270586 2.048711 0.000000 0.000000 0.000000
1.131244 0.271066 2.034730 0.000000 0.000000 0.000000
1.113514 0.270620 2.007993 0.000000 0.000000 0.000000
1.116325 0.270029 2.015930 0.000000 0.000000 0.000000
1.130433 0.447229 1.731687 0.000000 0.000000 0.000000
1.253685 0.393276 1.922593 0.000000 0.000000 0.000000
1.090392 0.401452 1.744704 0.000000 0.000000 0.000000
1.237206 0.364106 1.951377 0.000000 0.000000 0.000000
1.074288 0.278790 1.953384 0.000000 0.000000 0.000000
1.125367 0.438955 1.730823 0.000000 0.000000 0.000000
1.243024 0.367639 1.955956 0.000000 0.000000 0.000000
1.130593 0.444128 1.732649 0.000000 0.000000 0.000000
1.078183 0.372069 1.772989 0.000000 0.000000 0.000000
1.238406 0.361166 1.971648 0.000000 0.000000 0.000000
1.157979 0.323667 1.932725 0.000000 0.000000 0.000000
1.172730 0.322245 1.939180 0.000000 0.000000 0.000000
1.228882 0.340370 2.006512 0.000000 0.000000 0.000000
1.114416 0.270173 2.012305 0.000000 0.000000 0.000000
1.156355 0.331051 1.905852 0.000000 0.000000 0.000000
1.181020 0.321552 1.967148 0.000000 0.000000 0.000000
1.230366 0.347886 1.993900 0.000000 0.000000 0.000000
1.119142 0.273070 2.009406 0.000000 0.000000 0.000000
1.113873 0.418689 1.741541 0.000000 0.000000 0.000000
1.094594 0.399506 1.747521 0.000000 0.000000 0.000000
1.207589 0.310661 2.038773 0.000000 0.000000 0.000000
1.123398 0.273872 2.017399 0.000000 0.000000 0.000000
1.133704 0.447070 1.732017 0.000000 0.000000 0.000000
1.204428 0.307486 2.035745 0.000000 0.000000 0.000000
1.214827 0.319920 2.029389 0.000000 0.000000 0.000000
1.108969 0.419449 1.738415 0.000000 0.000000 0.000000
1.204502 0.305062 2.039674 0.000000 0.000000 0.000000
1.209648 0.308338 2.038090 0.000000 0.000000 0.000000
1.193576 0.298395 2.048401 0.000000 0.000000 0.000000
1.197833 0.306631 2.031871 0.000000 0.000000 0.000000
1.202332 0.305051 2.042632 0.000000 0.000000 0.000000
1.119500 0.423834 1.741843 0.000000 0.000000 0.000000
1.206356 0.308822 2.041307 0.000000 0.000000 0.000000
1.209958 0.312032 2.032541 0.000000 0.000000 0.000000
1.186728 0.293498 2.047282 0.000000 0.000000 0.000000
1.202675 0.306751 2.042441 0.000000 0.000000 0.000000
1.166606 0.275959 2.059266 0.000000 0.000000 0.000000
1.079663 0.279996 1.949404 0.000000 0.000000 0.000000
1.078000 0.281972 1.940117 0.000000 0.000000 0.000000
1.204989 0.308092 2.038947 0.000000 0.000000 0.000000
1.138126 0.270874 2.042822 0.000000 0.000000 0.000000
1.205965 0.309242 2.041124 0.000000 0.000000 0.000000
1.212077 0.316007 2.028371 0.000000 0.000000 0.000000
1.211245 0.313957 2.033559 0.000000 0.000000 0.000000
1.203287 0.305834 2.039063 0.000000 0.000000 0.000000
1.081243 0.281555 1.958969 0.000000 0.000000 0.000000
1.061396 0.283811 1.921831 0.000000 0.000000 0.000000
1.091180 0.277359 1.979723 0.000000 0.000000 0.000000
1.097667 0.277278 1.980178 0.000000 0.000000 0.000000
1.085870 0.280985 1.966239 0.000000 0.000000 0.000000
1.083304 0.280619 1.956921 0.000000 0.000000 0.000000
1.135752 0.447871 1.732389 0.000000 0.000000 0.000000
1.080649 0.280458 1.955606 0.000000 0.000000 0.000000
1.060857 0.288681 1.912835 0.000000 0.000000 0.000000
1.088841 0.279176 1.971222 0.000000 0.000000 0.000000
1.107695 0.275110 1.992292 0.000000 0.000000 0.000000
1.084741 0.279925 1.970806 0.000000 0.000000 0.000000
1.084787 0.283439 1.954736 0.000000 0.000000 0.000000
1.126118 0.437541 1.732183 0.000000 0.000000 0.000000
1.127407 0.442949 1.731702 0.000000 0.000000 0.000000
1.104815 0.286072 1.965586 0.000000 0.000000 0.000000
1.104897 0.404287 1.747808 0.000000 0.000000 0.000000
1.092674 0.285699 1.953127 0.000000 0.000000 0.000000
1.079816 0.283813 1.945235 0.000000 0.000000 0.000000
1.091016 0.284044 1.948319 0.000000 0.000000 0.000000
1.253362 0.400722 1.903848 0.000000 0.000000 0.000000
1.249619 0.400426 1.897800 0.000000 0.000000 0.000000
1.082495 0.280115 1.964365 0.000000 0.000000 0.000000
1.210564 0.314957 2.034626 0.000000 0.000000 0.000000
1.245978 0.397336 1.908798 0.000000 0.000000 0.000000
1.203593 0.308302 2.036654 0.000000 0.000000 0.000000
1.211111 0.311387 2.036298 0.000000 0.000000 0.000000
1.071223 0.365580 1.778661 0.000000 0.000000 0.000000
1.252825 0.396427 1.915220 0.000000 0.000000 0.000000
1.255463 0.397424 1.908194 0.000000 0.000000 0.000000
1.086591 0.285778 1.947016 0.000000 0.000000 0.000000
1.097925 0.281979 1.964715 0.000000 0.000000 0.000000
1.083428 0.284098 1.939540 0.000000 0.000000 0.000000
1.067039 0.290094 1.914036 0.000000 0.000000 0.000000
1.096286 0.279796 1.973176 0.000000 0.000000 0.000000
1.074485 0.282624 1.942620 0.000000 0.000000 0.000000
1.075929 0.284101 1.945022 0.000000 0.000000 0.000000
1.076736 0.280394 1.949865 0.000000 0.000000 0.000000
1.093895 0.283553 1.958912 0.000000 0.000000 0.000000
1.228979 0.338686 2.005229 0.000000 0.000000 0.000000
1.168043 0.299475 1.994368 0.000000 0.000000 0.000000
1.249029 0.393380 1.909468 0.000000 0.000000 0.000000
1.098550 0.283334 1.952576 0.000000 0.000000 0.000000
1.111112 0.285456 1.957614 0.000000 0.000000 0.000000
1.188759 0.293804 2.053489 0.000000 0.000000 0.000000
1.089686 0.283872 1.950526 0.000000 0.000000 0.000000
1.096043 0.280100 1.971845 0.000000 0.000000 0.000000
1.082324 0.283406 1.945058 0.000000 0.000000 0.000000
1.087265 0.278808 1.956112 0.000000 0.000000 0.000000
1.080777 0.280581 1.955973 0.000000 0.000000 0.000000
1.073399 0.282066 1.939461 0.000000 0.000000 0.000000
1.082193 0.282354 1.953921 0.000000 0.000000 0.000000
1.074693 0.280175 1.945942 0.000000 0.000000 0.000000
1.236982 0.345767 1.997024 0.000000 0.000000 0.000000
1.170696 0.315199 1.958223 0.000000 0.000000 0.000000
1.248701 0.395076 1.905903 0.000000 0.000000 0.000000
1.066790 0.359088 1.789170 0.000000 0.000000 0.000000
1.113455 0.288073 1.947207 0.000000 0.000000 0.000000
1.178095 0.283980 2.056031 0.000000 0.000000 0.000000
1.115678 0.272364 2.009555 0.000000 0.000000 0.000000
1.075041 0.280390 1.947765 0.000000 0.000000 0.000000
1.165490 0.316540 1.946073 0.000000 0.000000 0.000000
1.186890 0.291175 2.054280 0.000000 0.000000 0.000000
1.164134 0.310463 1.965523 0.000000 0.000000 0.000000
1.181949 0.287668 2.053673 0.000000 0.000000 0.000000
1.089917 0.392522 1.753649 0.000000 0.000000 0.000000
1.062542 0.348177 1.800031 0.000000 0.000000 0.000000
1.094778 0.380947 1.762906 0.000000 0.000000 0.000000
1.084409 0.385884 1.757966 0.000000 0.000000 0.000000
1.083163 0.378714 1.763477 0.000000 0.000000 0.000000
1.059009 0.344758 1.799781 0.000000 0.000000 0.000000
1.233498 0.349190 1.995362 0.000000 0.000000 0.000000
1.248754 0.424900 1.864005 0.000000 0.000000 0.000000
1.129462 0.271136 2.033413 0.000000 0.000000 0.000000
1.248674 0.424986 1.864742 0.000000 0.000000 0.000000
1.244293 0.429150 1.847911 0.000000 0.000000 0.000000
1.245491 0.426768 1.853243 0.000000 0.000000 0.000000
1.238800 0.423460 1.852496 0.000000 0.000000 0.000000
1.248737 0.424957 1.862032 0.000000 0.000000 0.000000
1.244976 0.429936 1.853849 0.000000 0.000000 0.000000
1.091309 0.401587 1.742958 0.000000 0.000000 0.000000
1.085797 0.280347 1.956215 0.000000 0.000000 0.000000
1.243597 0.368191 1.964388 0.000000 0.000000 0.000000
1.103206 0.339989 1.830520 0.000000 0.000000 0.000000
1.104932 0.348571 1.821772 0.000000 0.000000 0.000000
1.069474 0.283820 1.936437 0.000000 0.000000 0.000000
1.066943 0.291844 1.914157 0.000000 0.000000 0.000000
1.065089 0.290769 1.912723 0.000000 0.000000 0.000000
1.163783 0.275408 2.057668 0.000000 0.000000 0.000000
1.199420 0.452632 1.763343 0.000000 0.000000 0.000000
1.063675 0.289043 1.917201 0.000000 0.000000 0.000000
1.067819 0.285491 1.927055 0.000000 0.000000 0.000000
1.172426 0.280011 2.057786 0.000000 0.000000 0.000000
1.100660 0.405387 1.749073 0.000000 0.000000 0.000000
1.054506 0.340455 1.808926 0.000000 0.000000 0.000000
1.058167 0.292054 1.905189 0.000000 0.000000 0.000000
1.075292 0.281382 1.942685 0.000000 0.000000 0.000000
1.228614 0.342620 2.003811 0.000000 0.000000 0.000000
1.056682 0.299688 1.896812 0.000000 0.000000 0.000000
1.171805 0.281742 2.054439 0.000000 0.000000 0.000000
1.068972 0.335676 1.810221 0.000000 0.000000 0.000000
1.073249 0.280336 1.944683 0.000000 0.000000 0.000000
1.244554 0.363506 1.975553 0.000000 0.000000 0.000000
1.059122 0.296365 1.901076 0.000000 0.000000 0.000000
1.049309 0.296805 1.895738 0.000000 0.000000 0.000000
1.170983 0.279504 2.055686 0.000000 0.000000 0.000000
1.075072 0.339056 1.807030 0.000000 0.000000 0.000000
1.248200 0.416150 1.880929 0.000000 0.000000 0.000000
1.242506 0.434888 1.835471 0.000000 0.000000 0.000000
1.059896 0.327293 1.828153 0.000000 0.000000 0.000000
1.113312 0.417475 1.740177 0.000000 0.000000 0.000000
1.064192 0.332993 1.824119 0.000000 0.000000 0.000000
1.120421 0.430583 1.733046 0.000000 0.000000 0.000000
1.243843 0.361621 1.978886 0.000000 0.000000 0.000000
1.230439 0.442435 1.803824 0.000000 0.000000 0.000000
1.112797 0.420794 1.737920 0.000000 0.000000 0.000000
1.235795 0.437216 1.818965 0.000000 0.000000 0.000000
1.234043 0.431799 1.827314 0.000000 0.000000 0.000000
1.239333 0.438949 1.820809 0.000000 0.000000 0.000000
1.193223 0.297373 2.051315 0.000000 0.000000 0.000000
1.237185 0.420044 1.855141 0.000000 0.000000 0.000000
1.096372 0.403525 1.746506 0.000000 0.000000 0.000000
1.226096 0.431927 1.821855 0.000000 0.000000 0.000000
1.228313 0.428796 1.826550 0.000000 0.000000 0.000000
1.235853 0.441296 1.812572 0.000000 0.000000 0.000000
1.193114 0.298035 2.053931 0.000000 0.000000 0.000000
1.058473 0.325483 1.828820 0.000000 0.000000 0.000000
1.251602 0.385883 1.939242 0.000000 0.000000 0.000000
1.138566 0.456407 1.733745 0.000000 0.000000 0.000000
1.251500 0.386113 1.931363 0.000000 0.000000 0.000000
1.204798 0.305867 2.043370 0.000000 0.000000 0.000000
1.076704 0.284344 1.936032 0.000000 0.000000 0.000000
1.068029 0.334593 1.823177 0.000000 0.000000 0.000000
1.228266 0.340594 2.004746 0.000000 0.000000 0.000000
1.225681 0.338924 2.000833 0.000000 0.000000 0.000000
1.232218 0.346192 1.997755 0.000000 0.000000 0.000000
1.252048 0.390252 1.922958 0.000000 0.000000 0.000000
1.105401 0.268556 2.006958 0.000000 0.000000 0.000000
1.062968 0.352055 1.797187 0.000000 0.000000 0.000000
1.234093 0.348443 1.994989 0.000000 0.000000 0.000000
1.080547 0.340745 1.808756 0.000000 0.000000 0.000000
1.227784 0.334821 2.009983 0.000000 0.000000 0.000000
1.226949 0.348930 1.974971 0.000000 0.000000 0.000000
1.199907 0.304267 2.047210 0.000000 0.000000 0.000000
1.230967 0.344790 1.994710 0.000000 0.000000 0.000000
1.250188 0.389378 1.936643 0.000000 0.000000 0.000000
1.095576 0.272474 1.992652 0.000000 0.000000 0.000000
1.065387 0.354789 1.791307 0.000000 0.000000 0.000000
1.238859 0.355564 1.985893 0.000000 0.000000 0.000000
1.244934 0.365334 1.971707 0.000000 0.000000 0.000000
1.063365 0.325337 1.831600 0.000000 0.000000 0.000000
1.219260 0.327131 2.023056 0.000000 0.000000 0.000000
1.243718 0.368408 1.969359 0.000000 0.000000 0.000000
1.248006 0.379910 1.947162 0.000000 0.000000 0.000000
1.218093 0.327702 2.019531 0.000000 0.000000 0.000000
1.221105 0.329960 2.018789 0.000000 0.000000 0.000000
1.218111 0.324454 2.012177 0.000000 0.000000 0.000000
1.250777 0.366598 1.966037 0.000000 0.000000 0.000000
1.073069 0.282030 1.942582 0.000000 0.000000 0.000000
1.255223 0.387986 1.932194 0.000000 0.000000 0.000000
1.055457 0.290152 1.908977 0.000000 0.000000 0.000000
1.243814 0.365874 1.972469 0.000000 0.000000 0.000000
1.223690 0.334309 2.013884 0.000000 0.000000 0.000000
1.218672 0.328298 2.016717 0.000000 0.000000 0.000000
1.224728 0.333473 2.015486 0.000000 0.000000 0.000000
1.250833 0.366252 1.969705 0.000000 0.000000 0.000000
1.069845 0.282152 1.936887 0.000000 0.000000 0.000000
1.249771 0.392215 1.920281 0.000000 0.000000 0.000000
1.121289 0.434582 1.731419 0.000000 0.000000 0.000000
1.126958 0.268141 2.024059 0.000000 0.000000 0.000000
1.054324 0.295607 1.895446 0.000000 0.000000 0.000000
1.069455 0.280038 1.942443 0.000000 0.000000 0.000000
1.136717 0.270777 2.032433 0.000000 0.000000 0.000000
1.071454 0.280664 1.937323 0.000000 0.000000 0.000000
1.246681 0.363250 1.979487 0.000000 0.000000 0.000000
1.138232 0.268736 2.036316 0.000000 0.000000 0.000000
1.068164 0.283086 1.926090 0.000000 0.000000 0.000000
1.240862 0.357505 1.977028 0.000000 0.000000 0.000000
1.206156 0.310931 2.036520 0.000000 0.000000 0.000000
1.202811 0.308803 2.031574 0.000000 0.000000 0.000000
1.204294 0.307312 2.039749 0.000000 0.000000 0.000000
1.113913 0.424871 1.734864 0.000000 0.000000 0.000000
1.108755 0.419709 1.734007 0.000000 0.000000 0.000000
1.210238 0.314361 2.036557 0.000000 0.000000 0.000000
1.206912 0.309489 2.041448 0.000000 0.000000 0.000000
