ply
format ascii 1.0
comment VCGLIB generated
obj_info Generated by SPFormer!
element vertex 881
property float x
property float y
property float z
property float nx
property float ny
property float nz
end_header
0.649771 -0.154021 0.630149 0.000000 0.000000 0.000000
0.656412 0.101957 0.969890 0.000000 0.000000 0.000000
0.760439 0.395615 1.384989 0.000000 0.000000 0.000000
0.626499 -0.130649 0.604019 0.000000 0.000000 0.000000
0.956134 0.888689 2.355601 0.000000 0.000000 0.000000
0.624905 -0.111299 0.630402 0.000000 0.000000 0.000000
0.793994 0.334158 1.357892 0.000000 0.000000 0.000000
0.621213 0.049389 0.825162 0.000000 0.000000 0.000000
0.627474 -0.115106 0.633081 0.000000 0.000000 0.000000
0.639495 -0.052150 0.719362 0.000000 0.000000 0.000000
1.056549 1.038629 2.577307 0.000000 0.000000 0.000000
0.628795 -0.118798 0.641926 0.000000 0.000000 0.000000
0.426277 0.192531 0.583708 0.000000 0.000000 0.000000
0.620867 -0.221771 0.587907 0.000000 0.000000 0.000000
0.805536 0.339965 1.355700 0.000000 0.000000 0.000000
0.624552 0.040956 0.937243 0.000000 0.000000 0.000000
0.760831 0.395991 1.388683 0.000000 0.000000 0.000000
0.636250 -0.099530 0.679388 0.000000 0.000000 0.000000
0.943850 0.694682 2.016463 0.000000 0.000000 0.000000
1.028818 0.982301 2.466555 0.000000 0.000000 0.000000
0.640508 -0.021288 0.753704 0.000000 0.000000 0.000000
0.849522 0.470917 1.595489 0.000000 0.000000 0.000000
0.649518 0.004991 0.795470 0.000000 0.000000 0.000000
0.633226 -0.092994 0.675630 0.000000 0.000000 0.000000
0.767654 0.297393 1.298059 0.000000 0.000000 0.000000
0.749816 0.400217 1.385134 0.000000 0.000000 0.000000
0.936070 0.854787 2.335601 0.000000 0.000000 0.000000
0.618244 -0.242408 0.579520 0.000000 0.000000 0.000000
0.862152 0.532855 1.685048 0.000000 0.000000 0.000000
0.670519 0.148013 1.040253 0.000000 0.000000 0.000000
0.642612 -0.039140 0.748272 0.000000 0.000000 0.000000
0.624412 -0.268031 0.541831 0.000000 0.000000 0.000000
0.969015 0.885161 2.385843 0.000000 0.000000 0.000000
0.716524 0.208788 1.197279 0.000000 0.000000 0.000000
0.736836 0.406055 1.357284 0.000000 0.000000 0.000000
0.704334 0.202849 1.168225 0.000000 0.000000 0.000000
0.749797 0.400683 1.382015 0.000000 0.000000 0.000000
0.902238 0.626807 1.846143 0.000000 0.000000 0.000000
0.734072 0.224101 1.183346 0.000000 0.000000 0.000000
0.856595 0.519201 1.663208 0.000000 0.000000 0.000000
0.627932 0.037614 0.924889 0.000000 0.000000 0.000000
0.973602 0.821280 2.220450 0.000000 0.000000 0.000000
0.564920 0.083946 0.755564 0.000000 0.000000 0.000000
0.739500 0.402710 1.355075 0.000000 0.000000 0.000000
0.643634 -0.023576 0.753217 0.000000 0.000000 0.000000
0.631250 -0.118039 0.640559 0.000000 0.000000 0.000000
0.753770 0.396896 1.376717 0.000000 0.000000 0.000000
0.749431 0.400058 1.367687 0.000000 0.000000 0.000000
0.517386 0.110651 0.687611 0.000000 0.000000 0.000000
0.968145 0.832641 2.228349 0.000000 0.000000 0.000000
0.617084 0.061770 0.818774 0.000000 0.000000 0.000000
0.653334 0.442779 1.248927 0.000000 0.000000 0.000000
0.670465 -0.214110 0.519406 0.000000 0.000000 0.000000
0.959358 0.866332 2.360252 0.000000 0.000000 0.000000
0.644140 0.054692 0.971411 0.000000 0.000000 0.000000
0.827862 0.437813 1.536613 0.000000 0.000000 0.000000
0.627871 -0.156441 0.635433 0.000000 0.000000 0.000000
0.862139 0.505272 1.649799 0.000000 0.000000 0.000000
0.840008 0.455479 1.555551 0.000000 0.000000 0.000000
0.844644 0.486438 1.642614 0.000000 0.000000 0.000000
0.828905 0.439368 1.532954 0.000000 0.000000 0.000000
0.762471 0.394880 1.388240 0.000000 0.000000 0.000000
0.627948 -0.116956 0.632473 0.000000 0.000000 0.000000
0.652662 0.073376 0.919173 0.000000 0.000000 0.000000
0.728158 0.410968 1.350442 0.000000 0.000000 0.000000
0.833046 0.426283 1.524892 0.000000 0.000000 0.000000
0.937326 0.700716 2.012507 0.000000 0.000000 0.000000
0.657009 0.092701 0.956194 0.000000 0.000000 0.000000
0.743796 0.404919 1.364956 0.000000 0.000000 0.000000
0.878680 0.590552 1.789966 0.000000 0.000000 0.000000
0.955812 0.782033 2.160999 0.000000 0.000000 0.000000
0.957730 0.803163 2.176155 0.000000 0.000000 0.000000
0.868458 0.544653 1.737516 0.000000 0.000000 0.000000
0.956427 0.769538 2.142799 0.000000 0.000000 0.000000
0.641134 -0.024735 0.768941 0.000000 0.000000 0.000000
0.943356 0.643822 1.936700 0.000000 0.000000 0.000000
0.818901 0.387967 1.454703 0.000000 0.000000 0.000000
0.962745 0.824684 2.163569 0.000000 0.000000 0.000000
0.617787 -0.235008 0.586667 0.000000 0.000000 0.000000
0.816104 0.421280 1.519818 0.000000 0.000000 0.000000
0.753572 0.260485 1.242080 0.000000 0.000000 0.000000
0.756661 0.396871 1.376013 0.000000 0.000000 0.000000
0.748970 0.401587 1.377710 0.000000 0.000000 0.000000
0.640868 -0.162342 0.623135 0.000000 0.000000 0.000000
1.044053 1.084544 2.599297 0.000000 0.000000 0.000000
0.748495 0.262767 1.246627 0.000000 0.000000 0.000000
1.057120 1.037108 2.567322 0.000000 0.000000 0.000000
0.955750 0.866764 2.364064 0.000000 0.000000 0.000000
0.636471 -0.022138 0.754805 0.000000 0.000000 0.000000
0.849671 0.488308 1.609259 0.000000 0.000000 0.000000
0.622023 0.025216 0.910827 0.000000 0.000000 0.000000
0.947148 0.801863 2.168712 0.000000 0.000000 0.000000
0.857398 0.490615 1.629039 0.000000 0.000000 0.000000
0.954915 0.746053 2.135776 0.000000 0.000000 0.000000
0.966714 0.843309 2.196428 0.000000 0.000000 0.000000
1.054257 1.106310 2.616558 0.000000 0.000000 0.000000
0.641997 -0.143567 0.634833 0.000000 0.000000 0.000000
0.663540 0.087167 0.952052 0.000000 0.000000 0.000000
0.822142 0.386776 1.460164 0.000000 0.000000 0.000000
0.655309 0.091579 0.947738 0.000000 0.000000 0.000000
0.626916 0.042760 0.932837 0.000000 0.000000 0.000000
0.617224 0.034436 0.916524 0.000000 0.000000 0.000000
0.557039 0.090694 0.738809 0.000000 0.000000 0.000000
0.716565 0.218390 1.195508 0.000000 0.000000 0.000000
0.955194 0.795461 2.178958 0.000000 0.000000 0.000000
0.627598 -0.117163 0.623762 0.000000 0.000000 0.000000
0.740189 0.409401 1.353399 0.000000 0.000000 0.000000
0.961854 0.828189 2.169106 0.000000 0.000000 0.000000
0.992699 0.885644 2.370968 0.000000 0.000000 0.000000
0.980674 0.858583 2.245692 0.000000 0.000000 0.000000
0.857873 0.508808 1.643059 0.000000 0.000000 0.000000
0.784385 0.337963 1.382811 0.000000 0.000000 0.000000
0.951894 0.774840 2.144274 0.000000 0.000000 0.000000
0.880304 0.576825 1.807272 0.000000 0.000000 0.000000
0.724333 0.198375 1.156542 0.000000 0.000000 0.000000
1.009383 0.895180 2.367907 0.000000 0.000000 0.000000
0.758256 0.395431 1.379967 0.000000 0.000000 0.000000
1.033268 1.045141 2.513327 0.000000 0.000000 0.000000
0.658397 0.088744 0.956387 0.000000 0.000000 0.000000
0.837503 0.429750 1.526457 0.000000 0.000000 0.000000
0.640242 -0.142502 0.631607 0.000000 0.000000 0.000000
0.839212 0.455164 1.557360 0.000000 0.000000 0.000000
0.832112 0.431742 1.523627 0.000000 0.000000 0.000000
0.726708 0.215776 1.174846 0.000000 0.000000 0.000000
0.498151 0.120357 0.658339 0.000000 0.000000 0.000000
0.753122 0.399924 1.384384 0.000000 0.000000 0.000000
0.930687 0.724351 2.008605 0.000000 0.000000 0.000000
0.745249 0.400312 1.368181 0.000000 0.000000 0.000000
0.619471 -0.237484 0.580668 0.000000 0.000000 0.000000
0.627398 -0.118993 0.626136 0.000000 0.000000 0.000000
0.626197 -0.123161 0.622018 0.000000 0.000000 0.000000
0.655231 0.093769 0.957966 0.000000 0.000000 0.000000
0.754942 0.400054 1.376054 0.000000 0.000000 0.000000
0.885798 0.606895 1.808247 0.000000 0.000000 0.000000
0.961251 0.792248 2.173676 0.000000 0.000000 0.000000
0.956071 0.794514 2.165106 0.000000 0.000000 0.000000
0.957867 0.796905 2.162157 0.000000 0.000000 0.000000
0.953929 0.799383 2.175558 0.000000 0.000000 0.000000
0.863071 0.536808 1.693470 0.000000 0.000000 0.000000
0.930197 0.651993 1.948022 0.000000 0.000000 0.000000
0.811985 0.406240 1.491544 0.000000 0.000000 0.000000
0.668891 0.130466 1.017354 0.000000 0.000000 0.000000
0.734467 0.408787 1.363942 0.000000 0.000000 0.000000
0.954761 0.775032 2.131890 0.000000 0.000000 0.000000
0.759421 0.398466 1.395806 0.000000 0.000000 0.000000
0.640675 -0.165609 0.620913 0.000000 0.000000 0.000000
1.042333 1.082972 2.587388 0.000000 0.000000 0.000000
0.784014 0.331201 1.364768 0.000000 0.000000 0.000000
1.059653 1.047702 2.585623 0.000000 0.000000 0.000000
0.956886 0.794945 2.145934 0.000000 0.000000 0.000000
0.641588 -0.026596 0.751441 0.000000 0.000000 0.000000
0.648145 0.024152 0.810933 0.000000 0.000000 0.000000
0.711231 0.198211 1.139229 0.000000 0.000000 0.000000
1.038080 1.065518 2.565498 0.000000 0.000000 0.000000
0.749732 0.251228 1.225986 0.000000 0.000000 0.000000
0.793962 0.347716 1.380108 0.000000 0.000000 0.000000
0.959230 0.799991 2.164414 0.000000 0.000000 0.000000
0.903272 0.620279 1.833597 0.000000 0.000000 0.000000
1.047793 1.101111 2.626956 0.000000 0.000000 0.000000
0.974376 0.844371 2.207046 0.000000 0.000000 0.000000
1.054301 1.095226 2.600433 0.000000 0.000000 0.000000
0.843707 0.458971 1.567904 0.000000 0.000000 0.000000
0.639882 -0.132767 0.639165 0.000000 0.000000 0.000000
0.844398 0.477681 1.613525 0.000000 0.000000 0.000000
0.626074 0.046366 0.944632 0.000000 0.000000 0.000000
0.957833 0.786321 2.100656 0.000000 0.000000 0.000000
0.617288 0.026102 0.910641 0.000000 0.000000 0.000000
0.938700 0.697295 2.009093 0.000000 0.000000 0.000000
0.545949 0.094513 0.730883 0.000000 0.000000 0.000000
0.884517 0.575454 1.756864 0.000000 0.000000 0.000000
0.877945 0.570597 1.789427 0.000000 0.000000 0.000000
0.955654 0.791934 2.169667 0.000000 0.000000 0.000000
0.628020 -0.115121 0.627671 0.000000 0.000000 0.000000
0.735054 0.407978 1.346869 0.000000 0.000000 0.000000
0.730649 0.411506 1.346891 0.000000 0.000000 0.000000
0.957153 0.802436 2.189452 0.000000 0.000000 0.000000
1.051726 1.035106 2.571427 0.000000 0.000000 0.000000
0.998982 0.937736 2.398209 0.000000 0.000000 0.000000
0.982253 0.858746 2.244015 0.000000 0.000000 0.000000
0.958179 0.804428 2.172533 0.000000 0.000000 0.000000
0.859938 0.505297 1.636510 0.000000 0.000000 0.000000
0.592845 0.463088 1.151433 0.000000 0.000000 0.000000
0.880089 0.585764 1.814754 0.000000 0.000000 0.000000
0.957742 0.773841 2.131099 0.000000 0.000000 0.000000
0.732854 0.213622 1.176405 0.000000 0.000000 0.000000
1.032901 1.040277 2.508631 0.000000 0.000000 0.000000
1.018440 0.906749 2.357965 0.000000 0.000000 0.000000
0.944242 0.646990 1.930350 0.000000 0.000000 0.000000
0.533550 0.507852 1.082106 0.000000 0.000000 0.000000
0.601816 -0.041526 0.821754 0.000000 0.000000 0.000000
0.639654 -0.072000 0.693396 0.000000 0.000000 0.000000
0.622492 -0.247651 0.542477 0.000000 0.000000 0.000000
0.634093 0.043990 0.947516 0.000000 0.000000 0.000000
0.620868 -0.249862 0.543047 0.000000 0.000000 0.000000
0.596337 -0.043445 0.823544 0.000000 0.000000 0.000000
0.650429 -0.148374 0.632259 0.000000 0.000000 0.000000
0.637652 -0.079206 0.690290 0.000000 0.000000 0.000000
0.665794 0.116082 0.984633 0.000000 0.000000 0.000000
0.605158 0.063523 0.815172 0.000000 0.000000 0.000000
0.595924 0.066824 0.817462 0.000000 0.000000 0.000000
0.609616 0.060271 0.826098 0.000000 0.000000 0.000000
0.806783 0.420261 1.520918 0.000000 0.000000 0.000000
0.950278 0.748668 2.137636 0.000000 0.000000 0.000000
0.758945 0.285527 1.275618 0.000000 0.000000 0.000000
0.621291 0.038026 0.938629 0.000000 0.000000 0.000000
0.629607 0.036475 0.948087 0.000000 0.000000 0.000000
0.800089 0.307544 1.323138 0.000000 0.000000 0.000000
0.599649 0.066178 0.813932 0.000000 0.000000 0.000000
0.638501 0.442308 1.234190 0.000000 0.000000 0.000000
0.635303 -0.077107 0.699188 0.000000 0.000000 0.000000
0.601051 -0.038764 0.817399 0.000000 0.000000 0.000000
0.613732 0.463310 1.186135 0.000000 0.000000 0.000000
0.802402 0.365833 1.383232 0.000000 0.000000 0.000000
0.765482 0.275483 1.272121 0.000000 0.000000 0.000000
0.787750 0.292747 1.312034 0.000000 0.000000 0.000000
0.674388 0.103484 1.018159 0.000000 0.000000 0.000000
0.842751 0.457937 1.556457 0.000000 0.000000 0.000000
0.622923 0.048714 0.940325 0.000000 0.000000 0.000000
1.044539 0.998293 2.503622 0.000000 0.000000 0.000000
1.004409 0.890451 2.360775 0.000000 0.000000 0.000000
0.673671 0.133574 1.017944 0.000000 0.000000 0.000000
0.723192 0.196470 1.146108 0.000000 0.000000 0.000000
0.678012 0.122314 1.043121 0.000000 0.000000 0.000000
0.782920 0.378574 1.392934 0.000000 0.000000 0.000000
1.043227 0.994230 2.501703 0.000000 0.000000 0.000000
0.639888 -0.082685 0.672998 0.000000 0.000000 0.000000
0.929414 0.729649 2.013081 0.000000 0.000000 0.000000
1.002153 0.918683 2.279492 0.000000 0.000000 0.000000
1.031515 0.933573 2.340500 0.000000 0.000000 0.000000
0.605914 -0.038863 0.821704 0.000000 0.000000 0.000000
0.680647 -0.222025 0.514331 0.000000 0.000000 0.000000
0.676504 0.158078 1.055883 0.000000 0.000000 0.000000
0.618737 -0.233799 0.581951 0.000000 0.000000 0.000000
0.618535 -0.223085 0.592007 0.000000 0.000000 0.000000
0.636670 -0.079050 0.690434 0.000000 0.000000 0.000000
0.761888 0.284505 1.281573 0.000000 0.000000 0.000000
1.003334 0.598294 1.882844 0.000000 0.000000 0.000000
0.690453 -0.245071 0.559440 0.000000 0.000000 0.000000
0.688965 -0.255337 0.550399 0.000000 0.000000 0.000000
0.617895 -0.274649 0.542051 0.000000 0.000000 0.000000
0.729169 0.205280 1.167884 0.000000 0.000000 0.000000
0.823337 0.419011 1.507228 0.000000 0.000000 0.000000
1.006007 0.968956 2.456492 0.000000 0.000000 0.000000
0.858018 0.494324 1.622462 0.000000 0.000000 0.000000
0.668324 -0.185986 0.572474 0.000000 0.000000 0.000000
0.764427 0.253699 1.266945 0.000000 0.000000 0.000000
0.489249 0.125505 0.645035 0.000000 0.000000 0.000000
0.647888 -0.098883 0.677790 0.000000 0.000000 0.000000
0.964641 0.846668 2.337250 0.000000 0.000000 0.000000
0.812005 0.398940 1.469586 0.000000 0.000000 0.000000
0.680218 0.166301 1.067493 0.000000 0.000000 0.000000
0.634091 -0.097265 0.652583 0.000000 0.000000 0.000000
0.724007 0.226311 1.222269 0.000000 0.000000 0.000000
0.645540 -0.100231 0.677295 0.000000 0.000000 0.000000
0.874389 0.557465 1.773836 0.000000 0.000000 0.000000
0.954084 0.785756 2.153919 0.000000 0.000000 0.000000
0.604103 0.062139 0.822665 0.000000 0.000000 0.000000
0.601605 0.055621 0.814266 0.000000 0.000000 0.000000
0.965828 0.871044 2.360401 0.000000 0.000000 0.000000
0.607815 0.060077 0.818508 0.000000 0.000000 0.000000
0.753475 0.263170 1.239299 0.000000 0.000000 0.000000
0.672616 0.108060 1.016321 0.000000 0.000000 0.000000
0.612910 0.461575 1.187218 0.000000 0.000000 0.000000
0.656249 -0.192365 0.614857 0.000000 0.000000 0.000000
0.834838 0.431878 1.530745 0.000000 0.000000 0.000000
0.813916 0.392034 1.466275 0.000000 0.000000 0.000000
0.591999 -0.018629 0.856473 0.000000 0.000000 0.000000
0.628468 0.036322 0.930698 0.000000 0.000000 0.000000
0.596308 -0.002118 0.875790 0.000000 0.000000 0.000000
0.879589 0.563185 1.787058 0.000000 0.000000 0.000000
0.819260 0.444758 1.571703 0.000000 0.000000 0.000000
0.597044 -0.003767 0.878110 0.000000 0.000000 0.000000
0.593090 -0.007499 0.877487 0.000000 0.000000 0.000000
0.681868 0.117454 1.043897 0.000000 0.000000 0.000000
0.804588 0.412016 1.477959 0.000000 0.000000 0.000000
0.680210 0.111677 1.044694 0.000000 0.000000 0.000000
0.675216 -0.215793 0.514686 0.000000 0.000000 0.000000
0.842672 0.486522 1.620535 0.000000 0.000000 0.000000
0.723349 0.199466 1.149990 0.000000 0.000000 0.000000
0.592410 -0.011630 0.867213 0.000000 0.000000 0.000000
0.950420 0.756340 2.136195 0.000000 0.000000 0.000000
0.742156 0.231334 1.199334 0.000000 0.000000 0.000000
1.061045 1.063525 2.611437 0.000000 0.000000 0.000000
0.825411 0.449832 1.571915 0.000000 0.000000 0.000000
0.955189 0.743201 2.092372 0.000000 0.000000 0.000000
0.592609 -0.006472 0.873931 0.000000 0.000000 0.000000
1.028600 1.007313 2.496216 0.000000 0.000000 0.000000
1.036188 1.038313 2.505022 0.000000 0.000000 0.000000
1.019816 0.990398 2.483183 0.000000 0.000000 0.000000
0.531118 0.109527 0.688042 0.000000 0.000000 0.000000
0.626768 0.055376 0.948495 0.000000 0.000000 0.000000
0.829537 0.417283 1.519329 0.000000 0.000000 0.000000
0.958412 0.824170 2.156550 0.000000 0.000000 0.000000
0.593659 -0.017865 0.861257 0.000000 0.000000 0.000000
0.641522 0.050545 0.874650 0.000000 0.000000 0.000000
0.793602 0.391155 1.427414 0.000000 0.000000 0.000000
1.013078 0.970245 2.448180 0.000000 0.000000 0.000000
0.885676 0.592180 1.826040 0.000000 0.000000 0.000000
0.809900 0.372226 1.425703 0.000000 0.000000 0.000000
0.956912 0.751823 2.111032 0.000000 0.000000 0.000000
0.715146 0.195731 1.137101 0.000000 0.000000 0.000000
0.931230 0.745203 2.033654 0.000000 0.000000 0.000000
0.616827 0.460443 1.191447 0.000000 0.000000 0.000000
0.827334 0.416004 1.496218 0.000000 0.000000 0.000000
0.971980 0.866323 2.289293 0.000000 0.000000 0.000000
0.999111 0.602629 1.882925 0.000000 0.000000 0.000000
1.016792 0.988555 2.469636 0.000000 0.000000 0.000000
0.480597 0.131356 0.619804 0.000000 0.000000 0.000000
0.875300 0.557540 1.771380 0.000000 0.000000 0.000000
0.829918 0.424921 1.513467 0.000000 0.000000 0.000000
0.905997 0.653624 1.884145 0.000000 0.000000 0.000000
1.064977 1.106967 2.619354 0.000000 0.000000 0.000000
0.620176 0.025864 0.926476 0.000000 0.000000 0.000000
0.634211 -0.073621 0.695441 0.000000 0.000000 0.000000
0.873953 0.554245 1.764913 0.000000 0.000000 0.000000
0.921948 0.693742 1.951382 0.000000 0.000000 0.000000
0.825693 0.420376 1.504006 0.000000 0.000000 0.000000
0.827459 0.454446 1.587694 0.000000 0.000000 0.000000
0.616718 0.456150 1.188956 0.000000 0.000000 0.000000
0.724059 0.200455 1.164736 0.000000 0.000000 0.000000
0.959324 0.802510 2.141127 0.000000 0.000000 0.000000
0.681990 -0.236683 0.535389 0.000000 0.000000 0.000000
0.735517 0.229458 1.227962 0.000000 0.000000 0.000000
0.816043 0.387542 1.463109 0.000000 0.000000 0.000000
0.593041 -0.017729 0.861053 0.000000 0.000000 0.000000
1.035679 1.057024 2.554091 0.000000 0.000000 0.000000
0.628655 0.047713 0.935642 0.000000 0.000000 0.000000
0.825953 0.410637 1.493877 0.000000 0.000000 0.000000
0.703641 0.165396 1.106204 0.000000 0.000000 0.000000
0.817435 0.441550 1.563611 0.000000 0.000000 0.000000
0.593161 -0.028498 0.839717 0.000000 0.000000 0.000000
0.618468 0.039235 0.926564 0.000000 0.000000 0.000000
0.678041 0.117192 1.032192 0.000000 0.000000 0.000000
0.797982 0.403844 1.454978 0.000000 0.000000 0.000000
0.860587 0.497783 1.641680 0.000000 0.000000 0.000000
0.636215 -0.064206 0.704442 0.000000 0.000000 0.000000
0.821655 0.429157 1.521568 0.000000 0.000000 0.000000
0.922078 0.724611 2.005577 0.000000 0.000000 0.000000
0.422071 0.191249 0.586298 0.000000 0.000000 0.000000
0.688925 0.182535 1.120313 0.000000 0.000000 0.000000
0.846832 0.494517 1.618781 0.000000 0.000000 0.000000
0.737048 0.246009 1.214766 0.000000 0.000000 0.000000
0.734342 0.237917 1.201040 0.000000 0.000000 0.000000
0.595234 -0.000288 0.884748 0.000000 0.000000 0.000000
0.957802 0.742216 2.085610 0.000000 0.000000 0.000000
0.592642 0.004600 0.875615 0.000000 0.000000 0.000000
0.861210 0.508891 1.649814 0.000000 0.000000 0.000000
1.062679 1.110305 2.628585 0.000000 0.000000 0.000000
1.061078 1.088144 2.610636 0.000000 0.000000 0.000000
1.059850 1.118485 2.639707 0.000000 0.000000 0.000000
0.618840 -0.130387 0.605312 0.000000 0.000000 0.000000
1.005500 0.944424 2.376345 0.000000 0.000000 0.000000
0.887269 0.610378 1.817080 0.000000 0.000000 0.000000
0.622400 0.035137 0.932279 0.000000 0.000000 0.000000
0.953950 0.812064 2.151864 0.000000 0.000000 0.000000
0.590989 -0.012827 0.865509 0.000000 0.000000 0.000000
0.797796 0.396804 1.431457 0.000000 0.000000 0.000000
1.003674 0.967098 2.449004 0.000000 0.000000 0.000000
0.815537 0.386743 1.454610 0.000000 0.000000 0.000000
0.644720 -0.063942 0.713753 0.000000 0.000000 0.000000
0.913025 0.676546 1.924156 0.000000 0.000000 0.000000
0.818058 0.390276 1.466507 0.000000 0.000000 0.000000
0.820968 0.400231 1.481189 0.000000 0.000000 0.000000
0.958242 0.748362 2.118615 0.000000 0.000000 0.000000
0.957458 0.757812 2.117286 0.000000 0.000000 0.000000
0.828961 0.418051 1.510891 0.000000 0.000000 0.000000
0.864530 0.534107 1.686498 0.000000 0.000000 0.000000
0.846664 0.491033 1.614583 0.000000 0.000000 0.000000
0.621902 0.456868 1.198506 0.000000 0.000000 0.000000
0.969037 0.854313 2.270788 0.000000 0.000000 0.000000
0.738972 0.251227 1.222612 0.000000 0.000000 0.000000
0.875072 0.567707 1.781565 0.000000 0.000000 0.000000
1.007480 0.947182 2.382912 0.000000 0.000000 0.000000
0.955738 0.808179 2.139792 0.000000 0.000000 0.000000
1.011114 0.948149 2.384265 0.000000 0.000000 0.000000
0.871616 0.552156 1.761361 0.000000 0.000000 0.000000
0.887994 0.582234 1.787392 0.000000 0.000000 0.000000
0.621423 0.039756 0.937126 0.000000 0.000000 0.000000
0.874012 0.551859 1.759385 0.000000 0.000000 0.000000
0.917863 0.689392 1.944008 0.000000 0.000000 0.000000
0.847559 0.483523 1.624780 0.000000 0.000000 0.000000
0.815970 0.414176 1.501325 0.000000 0.000000 0.000000
0.622351 0.454245 1.200376 0.000000 0.000000 0.000000
0.741191 0.229732 1.200921 0.000000 0.000000 0.000000
0.829592 0.422419 1.507612 0.000000 0.000000 0.000000
0.702141 0.419649 1.311177 0.000000 0.000000 0.000000
0.715493 0.183363 1.139663 0.000000 0.000000 0.000000
0.624326 0.036888 0.936370 0.000000 0.000000 0.000000
0.619614 -0.258441 0.559736 0.000000 0.000000 0.000000
0.704579 0.421772 1.319883 0.000000 0.000000 0.000000
0.638602 0.067337 0.884212 0.000000 0.000000 0.000000
1.020737 0.585088 1.865283 0.000000 0.000000 0.000000
0.947668 0.752214 2.133725 0.000000 0.000000 0.000000
1.023994 0.582937 1.868016 0.000000 0.000000 0.000000
0.701753 0.421444 1.309286 0.000000 0.000000 0.000000
1.001143 0.950934 2.411464 0.000000 0.000000 0.000000
0.659604 0.087485 0.949875 0.000000 0.000000 0.000000
0.616835 -0.252181 0.565594 0.000000 0.000000 0.000000
0.636395 -0.064519 0.697604 0.000000 0.000000 0.000000
0.665068 0.129156 1.011215 0.000000 0.000000 0.000000
0.799165 0.363958 1.384814 0.000000 0.000000 0.000000
0.638146 0.060672 0.878570 0.000000 0.000000 0.000000
1.055825 1.039537 2.578161 0.000000 0.000000 0.000000
0.618557 0.037029 0.921886 0.000000 0.000000 0.000000
1.021591 0.585817 1.870940 0.000000 0.000000 0.000000
1.012627 0.594266 1.871077 0.000000 0.000000 0.000000
0.617184 -0.264730 0.561659 0.000000 0.000000 0.000000
0.891508 0.610774 1.813563 0.000000 0.000000 0.000000
0.953455 0.763733 2.135534 0.000000 0.000000 0.000000
0.610687 0.010374 0.909651 0.000000 0.000000 0.000000
0.642247 -0.022524 0.752264 0.000000 0.000000 0.000000
0.641393 -0.082842 0.682227 0.000000 0.000000 0.000000
0.683675 0.427773 1.289688 0.000000 0.000000 0.000000
0.771550 0.306772 1.326501 0.000000 0.000000 0.000000
0.698453 0.149613 1.087211 0.000000 0.000000 0.000000
0.787209 0.289430 1.308252 0.000000 0.000000 0.000000
0.842899 0.465170 1.568456 0.000000 0.000000 0.000000
0.658150 -0.250024 0.546389 0.000000 0.000000 0.000000
0.539581 0.496903 1.094378 0.000000 0.000000 0.000000
0.822356 0.442963 1.561455 0.000000 0.000000 0.000000
0.788129 0.290075 1.311335 0.000000 0.000000 0.000000
0.811758 0.425270 1.520110 0.000000 0.000000 0.000000
1.001558 0.959925 2.374537 0.000000 0.000000 0.000000
0.994602 0.937600 2.400786 0.000000 0.000000 0.000000
0.824881 0.395196 1.473927 0.000000 0.000000 0.000000
0.989675 0.938360 2.394238 0.000000 0.000000 0.000000
0.654341 -0.178898 0.569207 0.000000 0.000000 0.000000
0.634603 -0.080702 0.688241 0.000000 0.000000 0.000000
0.659356 -0.169129 0.583405 0.000000 0.000000 0.000000
0.935522 0.688876 1.994356 0.000000 0.000000 0.000000
0.621818 -0.271001 0.542337 0.000000 0.000000 0.000000
0.616343 -0.254494 0.567546 0.000000 0.000000 0.000000
1.024959 0.582435 1.861835 0.000000 0.000000 0.000000
1.028070 0.578642 1.858765 0.000000 0.000000 0.000000
0.844098 0.482005 1.637795 0.000000 0.000000 0.000000
0.620664 -0.261370 0.546800 0.000000 0.000000 0.000000
0.937612 0.679213 1.986512 0.000000 0.000000 0.000000
0.782801 0.313304 1.316474 0.000000 0.000000 0.000000
0.403078 0.207656 0.580661 0.000000 0.000000 0.000000
1.041318 0.997121 2.508043 0.000000 0.000000 0.000000
0.782976 0.328226 1.353901 0.000000 0.000000 0.000000
0.876580 0.545554 1.709935 0.000000 0.000000 0.000000
0.762144 0.287697 1.295113 0.000000 0.000000 0.000000
0.811379 0.368506 1.429738 0.000000 0.000000 0.000000
0.640678 -0.028445 0.747100 0.000000 0.000000 0.000000
0.947862 0.891797 2.382296 0.000000 0.000000 0.000000
0.679672 0.432436 1.286202 0.000000 0.000000 0.000000
0.803186 0.415377 1.492185 0.000000 0.000000 0.000000
0.643520 -0.019137 0.759421 0.000000 0.000000 0.000000
0.620748 0.032897 0.914161 0.000000 0.000000 0.000000
0.833113 0.461383 1.565669 0.000000 0.000000 0.000000
0.433001 0.193495 0.685000 0.000000 0.000000 0.000000
0.936322 0.682392 1.990046 0.000000 0.000000 0.000000
0.795859 0.320842 1.330727 0.000000 0.000000 0.000000
0.820077 0.439522 1.556490 0.000000 0.000000 0.000000
0.718615 0.189877 1.133518 0.000000 0.000000 0.000000
0.679073 0.154817 1.054256 0.000000 0.000000 0.000000
0.841558 0.454893 1.567370 0.000000 0.000000 0.000000
0.998474 0.890173 2.379283 0.000000 0.000000 0.000000
0.659689 0.078490 0.932849 0.000000 0.000000 0.000000
0.725954 0.230317 1.214477 0.000000 0.000000 0.000000
0.642530 -0.140855 0.650298 0.000000 0.000000 0.000000
0.856108 0.507910 1.686300 0.000000 0.000000 0.000000
0.757182 0.274684 1.257985 0.000000 0.000000 0.000000
0.777885 0.283732 1.298867 0.000000 0.000000 0.000000
0.822941 0.391798 1.470198 0.000000 0.000000 0.000000
0.933142 0.681625 1.981974 0.000000 0.000000 0.000000
0.755832 0.271896 1.247682 0.000000 0.000000 0.000000
0.806983 0.418646 1.508993 0.000000 0.000000 0.000000
0.953187 0.768417 2.141392 0.000000 0.000000 0.000000
0.702461 0.153689 1.080028 0.000000 0.000000 0.000000
0.617686 0.020344 0.917892 0.000000 0.000000 0.000000
0.800050 0.315402 1.333471 0.000000 0.000000 0.000000
0.806166 0.416940 1.511617 0.000000 0.000000 0.000000
0.801828 0.315853 1.337027 0.000000 0.000000 0.000000
0.958822 0.846449 2.336704 0.000000 0.000000 0.000000
0.876172 0.573012 1.772087 0.000000 0.000000 0.000000
0.699518 0.150272 1.071202 0.000000 0.000000 0.000000
0.689323 0.127752 1.046746 0.000000 0.000000 0.000000
0.698624 0.152665 1.080754 0.000000 0.000000 0.000000
0.791447 0.333662 1.369505 0.000000 0.000000 0.000000
0.667140 -0.168542 0.589830 0.000000 0.000000 0.000000
0.784266 0.307542 1.327995 0.000000 0.000000 0.000000
0.622686 -0.266163 0.557808 0.000000 0.000000 0.000000
0.868682 0.546972 1.738278 0.000000 0.000000 0.000000
0.839547 0.467390 1.611759 0.000000 0.000000 0.000000
1.145569 0.491747 1.746405 0.000000 0.000000 0.000000
0.781595 0.315204 1.329121 0.000000 0.000000 0.000000
0.954877 0.754169 2.137190 0.000000 0.000000 0.000000
1.022464 0.586347 1.870283 0.000000 0.000000 0.000000
0.636062 -0.059816 0.708006 0.000000 0.000000 0.000000
1.024592 0.586500 1.873839 0.000000 0.000000 0.000000
0.831282 0.428960 1.522109 0.000000 0.000000 0.000000
0.812040 0.430922 1.528029 0.000000 0.000000 0.000000
0.694955 0.422582 1.301909 0.000000 0.000000 0.000000
0.899401 0.610479 1.823407 0.000000 0.000000 0.000000
0.634825 -0.053225 0.720314 0.000000 0.000000 0.000000
0.646022 -0.023989 0.748011 0.000000 0.000000 0.000000
0.700565 0.146767 1.072242 0.000000 0.000000 0.000000
0.918549 0.703344 1.973287 0.000000 0.000000 0.000000
0.641933 -0.015071 0.751482 0.000000 0.000000 0.000000
0.681345 0.173773 1.082527 0.000000 0.000000 0.000000
0.733083 0.216262 1.184284 0.000000 0.000000 0.000000
1.014965 0.589817 1.873511 0.000000 0.000000 0.000000
0.948776 0.909869 2.306034 0.000000 0.000000 0.000000
0.637568 -0.067671 0.699037 0.000000 0.000000 0.000000
0.989491 0.611426 1.889930 0.000000 0.000000 0.000000
0.622184 -0.149074 0.594028 0.000000 0.000000 0.000000
0.705588 0.206472 1.162565 0.000000 0.000000 0.000000
0.798209 0.322064 1.338994 0.000000 0.000000 0.000000
1.123413 0.503112 1.763353 0.000000 0.000000 0.000000
0.796487 0.309802 1.331652 0.000000 0.000000 0.000000
0.927481 0.687115 1.984126 0.000000 0.000000 0.000000
0.652636 0.072176 0.909280 0.000000 0.000000 0.000000
0.901567 0.660598 1.894662 0.000000 0.000000 0.000000
0.796890 0.309968 1.328999 0.000000 0.000000 0.000000
0.791865 0.309101 1.328755 0.000000 0.000000 0.000000
0.992525 0.938658 2.388888 0.000000 0.000000 0.000000
1.057932 1.105670 2.637278 0.000000 0.000000 0.000000
1.053634 1.069129 2.590580 0.000000 0.000000 0.000000
0.701095 0.422630 1.307495 0.000000 0.000000 0.000000
1.028034 1.020408 2.491495 0.000000 0.000000 0.000000
0.622670 0.032053 0.931251 0.000000 0.000000 0.000000
0.858344 0.533338 1.682871 0.000000 0.000000 0.000000
1.061502 1.048355 2.585032 0.000000 0.000000 0.000000
0.753777 0.272423 1.257758 0.000000 0.000000 0.000000
0.806519 0.342988 1.358084 0.000000 0.000000 0.000000
1.010625 0.965510 2.393571 0.000000 0.000000 0.000000
1.069440 1.124773 2.651098 0.000000 0.000000 0.000000
1.139118 0.497439 1.754415 0.000000 0.000000 0.000000
0.520815 0.114893 0.681629 0.000000 0.000000 0.000000
0.645945 -0.015763 0.758302 0.000000 0.000000 0.000000
1.025292 1.023739 2.475739 0.000000 0.000000 0.000000
0.645843 -0.024932 0.754382 0.000000 0.000000 0.000000
0.817622 0.394602 1.474178 0.000000 0.000000 0.000000
0.638942 -0.064812 0.702300 0.000000 0.000000 0.000000
0.558536 0.484425 1.098800 0.000000 0.000000 0.000000
1.008293 0.939880 2.352757 0.000000 0.000000 0.000000
0.946076 0.781414 2.105027 0.000000 0.000000 0.000000
0.651520 -0.192217 0.554116 0.000000 0.000000 0.000000
0.692661 0.163317 1.089964 0.000000 0.000000 0.000000
0.785307 0.319065 1.351734 0.000000 0.000000 0.000000
0.792213 0.311405 1.330100 0.000000 0.000000 0.000000
0.617890 -0.258780 0.565186 0.000000 0.000000 0.000000
0.867044 0.544278 1.722949 0.000000 0.000000 0.000000
0.683197 0.430418 1.291769 0.000000 0.000000 0.000000
1.132642 0.497052 1.754884 0.000000 0.000000 0.000000
0.772486 0.309691 1.321934 0.000000 0.000000 0.000000
0.953946 0.758237 2.140513 0.000000 0.000000 0.000000
0.928608 0.679722 1.984344 0.000000 0.000000 0.000000
0.836086 0.475983 1.625759 0.000000 0.000000 0.000000
1.021330 0.586390 1.866351 0.000000 0.000000 0.000000
0.816592 0.403728 1.479176 0.000000 0.000000 0.000000
0.655288 -0.030123 0.738957 0.000000 0.000000 0.000000
0.804556 0.418945 1.504971 0.000000 0.000000 0.000000
0.813337 0.431645 1.541915 0.000000 0.000000 0.000000
0.657684 0.089863 0.955115 0.000000 0.000000 0.000000
0.646560 -0.022836 0.762727 0.000000 0.000000 0.000000
1.009447 0.976620 2.459892 0.000000 0.000000 0.000000
0.638811 -0.051350 0.729303 0.000000 0.000000 0.000000
0.640820 -0.041120 0.744323 0.000000 0.000000 0.000000
0.645705 -0.036187 0.732678 0.000000 0.000000 0.000000
0.957107 0.743062 2.093576 0.000000 0.000000 0.000000
0.647534 -0.025280 0.761232 0.000000 0.000000 0.000000
0.609291 0.024394 0.903917 0.000000 0.000000 0.000000
0.490992 0.124423 0.645601 0.000000 0.000000 0.000000
0.840671 0.459018 1.576086 0.000000 0.000000 0.000000
1.062151 1.113657 2.631748 0.000000 0.000000 0.000000
0.781191 0.317809 1.347305 0.000000 0.000000 0.000000
0.896830 0.610901 1.836903 0.000000 0.000000 0.000000
0.861162 0.531842 1.685730 0.000000 0.000000 0.000000
1.120131 0.505872 1.768665 0.000000 0.000000 0.000000
0.796494 0.320439 1.338486 0.000000 0.000000 0.000000
1.124557 0.503240 1.760135 0.000000 0.000000 0.000000
0.787564 0.313353 1.335726 0.000000 0.000000 0.000000
0.932083 0.688080 1.997003 0.000000 0.000000 0.000000
0.798487 0.319690 1.335099 0.000000 0.000000 0.000000
0.885373 0.578169 1.781540 0.000000 0.000000 0.000000
0.875154 0.577008 1.761539 0.000000 0.000000 0.000000
1.055660 1.100753 2.622003 0.000000 0.000000 0.000000
0.702971 0.422275 1.316410 0.000000 0.000000 0.000000
0.933114 0.681537 1.982320 0.000000 0.000000 0.000000
1.026718 1.013688 2.468308 0.000000 0.000000 0.000000
0.612532 0.463064 1.184860 0.000000 0.000000 0.000000
0.945895 0.710704 2.039110 0.000000 0.000000 0.000000
0.803193 0.325278 1.344706 0.000000 0.000000 0.000000
1.058206 1.059026 2.595352 0.000000 0.000000 0.000000
0.617486 -0.268657 0.558017 0.000000 0.000000 0.000000
0.751718 0.270196 1.255023 0.000000 0.000000 0.000000
0.802811 0.326285 1.344666 0.000000 0.000000 0.000000
1.003494 0.865980 2.320100 0.000000 0.000000 0.000000
0.799430 0.358360 1.384675 0.000000 0.000000 0.000000
0.697818 0.145506 1.072636 0.000000 0.000000 0.000000
0.795329 0.355796 1.388151 0.000000 0.000000 0.000000
0.951172 0.742787 2.091352 0.000000 0.000000 0.000000
1.131149 0.498852 1.755022 0.000000 0.000000 0.000000
0.668536 -0.183443 0.578958 0.000000 0.000000 0.000000
0.972275 0.848079 2.332808 0.000000 0.000000 0.000000
0.640575 -0.021762 0.752372 0.000000 0.000000 0.000000
0.815957 0.392148 1.464737 0.000000 0.000000 0.000000
1.062325 1.117711 2.640478 0.000000 0.000000 0.000000
0.638528 -0.070879 0.693665 0.000000 0.000000 0.000000
0.817038 0.377114 1.441915 0.000000 0.000000 0.000000
0.554018 0.485704 1.098945 0.000000 0.000000 0.000000
0.680303 0.115317 1.034195 0.000000 0.000000 0.000000
1.007412 0.942960 2.374470 0.000000 0.000000 0.000000
0.696043 0.427199 1.311255 0.000000 0.000000 0.000000
0.942673 0.644477 1.929827 0.000000 0.000000 0.000000
0.623552 -0.137232 0.594492 0.000000 0.000000 0.000000
0.615830 -0.264894 0.561619 0.000000 0.000000 0.000000
0.718787 0.416001 1.339034 0.000000 0.000000 0.000000
0.545928 0.480227 1.097913 0.000000 0.000000 0.000000
0.634658 -0.054553 0.722954 0.000000 0.000000 0.000000
0.618933 -0.259483 0.560598 0.000000 0.000000 0.000000
0.616491 -0.236936 0.573205 0.000000 0.000000 0.000000
0.802530 0.349312 1.405881 0.000000 0.000000 0.000000
0.663744 0.114188 0.973312 0.000000 0.000000 0.000000
0.614184 0.057580 0.831762 0.000000 0.000000 0.000000
0.671210 0.116170 1.004489 0.000000 0.000000 0.000000
0.853094 0.502634 1.681709 0.000000 0.000000 0.000000
1.006244 0.972286 2.458056 0.000000 0.000000 0.000000
0.802011 0.370354 1.404733 0.000000 0.000000 0.000000
0.637231 0.040120 0.840165 0.000000 0.000000 0.000000
0.551848 0.489592 1.100271 0.000000 0.000000 0.000000
0.761154 0.396298 1.387219 0.000000 0.000000 0.000000
0.975473 0.927520 2.278645 0.000000 0.000000 0.000000
0.660652 0.444900 1.245214 0.000000 0.000000 0.000000
0.632970 0.053362 0.945549 0.000000 0.000000 0.000000
0.635660 -0.090537 0.665962 0.000000 0.000000 0.000000
0.842590 0.461992 1.561450 0.000000 0.000000 0.000000
0.656093 -0.181181 0.617718 0.000000 0.000000 0.000000
0.448655 0.153135 0.631538 0.000000 0.000000 0.000000
1.004213 0.910717 2.273878 0.000000 0.000000 0.000000
0.847726 0.462142 1.582852 0.000000 0.000000 0.000000
0.970162 0.926215 2.277985 0.000000 0.000000 0.000000
0.648190 -0.069670 0.718534 0.000000 0.000000 0.000000
0.548693 0.480101 1.098633 0.000000 0.000000 0.000000
0.690830 0.188716 1.113234 0.000000 0.000000 0.000000
0.862348 0.526425 1.723807 0.000000 0.000000 0.000000
0.996195 0.857814 2.317399 0.000000 0.000000 0.000000
0.992426 0.944916 2.414605 0.000000 0.000000 0.000000
1.011185 0.978981 2.468253 0.000000 0.000000 0.000000
0.686029 0.425479 1.290122 0.000000 0.000000 0.000000
0.645514 0.445038 1.231807 0.000000 0.000000 0.000000
0.637947 -0.075294 0.697174 0.000000 0.000000 0.000000
0.664560 -0.148894 0.605521 0.000000 0.000000 0.000000
0.635000 0.446252 1.215451 0.000000 0.000000 0.000000
0.674775 -0.179037 0.596958 0.000000 0.000000 0.000000
0.865475 0.520754 1.665866 0.000000 0.000000 0.000000
0.799383 0.399228 1.442336 0.000000 0.000000 0.000000
0.801331 0.406267 1.473021 0.000000 0.000000 0.000000
0.854921 0.492126 1.619923 0.000000 0.000000 0.000000
0.849673 0.479036 1.599349 0.000000 0.000000 0.000000
0.851911 0.497261 1.622143 0.000000 0.000000 0.000000
0.654613 -0.163712 0.608007 0.000000 0.000000 0.000000
1.007720 0.974334 2.450486 0.000000 0.000000 0.000000
0.857926 0.520053 1.665100 0.000000 0.000000 0.000000
0.795639 0.356845 1.414797 0.000000 0.000000 0.000000
0.642329 0.445853 1.228370 0.000000 0.000000 0.000000
0.830530 0.466433 1.615573 0.000000 0.000000 0.000000
0.640171 -0.043862 0.715938 0.000000 0.000000 0.000000
0.656793 -0.055293 0.713394 0.000000 0.000000 0.000000
0.719255 0.191788 1.134110 0.000000 0.000000 0.000000
0.676468 0.145727 1.037246 0.000000 0.000000 0.000000
0.954200 0.797233 2.156460 0.000000 0.000000 0.000000
0.675817 0.156031 1.046027 0.000000 0.000000 0.000000
0.859534 0.510024 1.694821 0.000000 0.000000 0.000000
1.006396 0.976434 2.456980 0.000000 0.000000 0.000000
0.464413 0.155826 0.622513 0.000000 0.000000 0.000000
0.657331 -0.160112 0.600585 0.000000 0.000000 0.000000
1.000736 0.946164 2.373349 0.000000 0.000000 0.000000
1.014523 0.977009 2.458290 0.000000 0.000000 0.000000
0.611852 0.059750 0.844495 0.000000 0.000000 0.000000
0.616901 -0.245296 0.573035 0.000000 0.000000 0.000000
0.943714 0.861747 2.334654 0.000000 0.000000 0.000000
0.676434 0.103269 1.024452 0.000000 0.000000 0.000000
0.675032 0.438761 1.262467 0.000000 0.000000 0.000000
0.964752 0.785241 2.166552 0.000000 0.000000 0.000000
0.718623 0.220680 1.216486 0.000000 0.000000 0.000000
0.866603 0.531660 1.677634 0.000000 0.000000 0.000000
0.720745 0.414634 1.338081 0.000000 0.000000 0.000000
0.673454 -0.177404 0.595931 0.000000 0.000000 0.000000
0.719122 0.200633 1.151139 0.000000 0.000000 0.000000
0.713987 0.215706 1.187141 0.000000 0.000000 0.000000
1.074319 1.081375 2.640650 0.000000 0.000000 0.000000
0.802667 0.410862 1.483191 0.000000 0.000000 0.000000
0.620394 -0.196810 0.606616 0.000000 0.000000 0.000000
0.818085 0.428664 1.537285 0.000000 0.000000 0.000000
0.682655 0.151158 1.077955 0.000000 0.000000 0.000000
0.934288 0.731751 2.022387 0.000000 0.000000 0.000000
0.492843 0.129708 0.653752 0.000000 0.000000 0.000000
0.499145 0.123136 0.658056 0.000000 0.000000 0.000000
0.770938 0.299426 1.300806 0.000000 0.000000 0.000000
0.665930 0.096550 1.010564 0.000000 0.000000 0.000000
0.705561 0.179299 1.114285 0.000000 0.000000 0.000000
0.642478 0.076880 0.904823 0.000000 0.000000 0.000000
0.883313 0.592226 1.792487 0.000000 0.000000 0.000000
0.673880 0.119404 1.001135 0.000000 0.000000 0.000000
0.640237 -0.129286 0.642878 0.000000 0.000000 0.000000
0.803162 0.354807 1.369515 0.000000 0.000000 0.000000
0.807716 0.361473 1.421168 0.000000 0.000000 0.000000
0.887415 0.604081 1.841854 0.000000 0.000000 0.000000
0.642629 -0.087509 0.679071 0.000000 0.000000 0.000000
0.767880 0.304887 1.313153 0.000000 0.000000 0.000000
0.955582 0.803048 2.182678 0.000000 0.000000 0.000000
0.845374 0.470002 1.597580 0.000000 0.000000 0.000000
0.927140 0.728553 2.014779 0.000000 0.000000 0.000000
1.053963 1.103417 2.618084 0.000000 0.000000 0.000000
0.664750 0.092746 1.007874 0.000000 0.000000 0.000000
0.837469 0.476374 1.634070 0.000000 0.000000 0.000000
0.992497 0.949314 2.415076 0.000000 0.000000 0.000000
0.672232 0.436437 1.271801 0.000000 0.000000 0.000000
0.932606 0.741807 2.038004 0.000000 0.000000 0.000000
1.003747 0.949471 2.360029 0.000000 0.000000 0.000000
0.955378 0.809265 2.142631 0.000000 0.000000 0.000000
0.452183 0.156187 0.601706 0.000000 0.000000 0.000000
1.040815 1.074635 2.562228 0.000000 0.000000 0.000000
1.017406 0.984166 2.477285 0.000000 0.000000 0.000000
0.683638 0.145247 1.072643 0.000000 0.000000 0.000000
0.672880 -0.184791 0.572165 0.000000 0.000000 0.000000
1.060372 1.102397 2.635513 0.000000 0.000000 0.000000
0.710740 0.213772 1.176976 0.000000 0.000000 0.000000
1.003288 0.967552 2.450559 0.000000 0.000000 0.000000
0.938695 0.901902 2.317721 0.000000 0.000000 0.000000
0.687572 0.428451 1.289306 0.000000 0.000000 0.000000
1.014720 0.981115 2.473968 0.000000 0.000000 0.000000
0.935732 0.892404 2.323223 0.000000 0.000000 0.000000
0.475433 0.141637 0.614145 0.000000 0.000000 0.000000
0.941555 0.903412 2.315236 0.000000 0.000000 0.000000
0.957247 0.808818 2.204716 0.000000 0.000000 0.000000
1.017674 1.006282 2.460840 0.000000 0.000000 0.000000
0.891424 0.617918 1.835653 0.000000 0.000000 0.000000
0.861275 0.515932 1.702676 0.000000 0.000000 0.000000
0.830122 0.412785 1.504628 0.000000 0.000000 0.000000
0.859847 0.486741 1.622671 0.000000 0.000000 0.000000
0.491262 0.125478 0.644213 0.000000 0.000000 0.000000
0.678444 0.134643 1.065261 0.000000 0.000000 0.000000
0.790765 0.337415 1.380561 0.000000 0.000000 0.000000
0.637711 -0.064870 0.702246 0.000000 0.000000 0.000000
0.695062 -0.276465 0.515512 0.000000 0.000000 0.000000
0.952612 0.745420 2.096248 0.000000 0.000000 0.000000
1.071368 1.078963 2.645344 0.000000 0.000000 0.000000
0.691908 -0.277961 0.514323 0.000000 0.000000 0.000000
0.869754 0.516284 1.672074 0.000000 0.000000 0.000000
0.752289 0.268010 1.245599 0.000000 0.000000 0.000000
1.002846 0.966919 2.447570 0.000000 0.000000 0.000000
0.821712 0.413910 1.492252 0.000000 0.000000 0.000000
0.889546 0.609987 1.851056 0.000000 0.000000 0.000000
0.576299 0.475041 1.132381 0.000000 0.000000 0.000000
0.927453 0.730419 2.009562 0.000000 0.000000 0.000000
0.901344 0.633321 1.849640 0.000000 0.000000 0.000000
1.048600 1.113793 2.640306 0.000000 0.000000 0.000000
0.637803 -0.055513 0.713757 0.000000 0.000000 0.000000
1.044361 1.063481 2.559678 0.000000 0.000000 0.000000
0.628830 0.050600 0.948263 0.000000 0.000000 0.000000
1.044859 1.088094 2.588515 0.000000 0.000000 0.000000
1.053490 1.118265 2.639102 0.000000 0.000000 0.000000
1.007898 0.973886 2.462103 0.000000 0.000000 0.000000
0.599869 0.461246 1.163094 0.000000 0.000000 0.000000
1.051680 1.108024 2.639715 0.000000 0.000000 0.000000
1.058811 1.089214 2.611235 0.000000 0.000000 0.000000
0.852887 0.505336 1.678425 0.000000 0.000000 0.000000
0.801671 0.346177 1.398372 0.000000 0.000000 0.000000
0.473752 0.142252 0.607931 0.000000 0.000000 0.000000
1.001213 0.945182 2.370841 0.000000 0.000000 0.000000
0.841097 0.478996 1.608567 0.000000 0.000000 0.000000
0.754814 0.248870 1.246561 0.000000 0.000000 0.000000
0.787148 0.338113 1.376083 0.000000 0.000000 0.000000
0.840768 0.476381 1.621763 0.000000 0.000000 0.000000
0.671474 -0.208763 0.519433 0.000000 0.000000 0.000000
0.859616 0.527125 1.680395 0.000000 0.000000 0.000000
0.788820 0.331382 1.362979 0.000000 0.000000 0.000000
0.858268 0.488121 1.617943 0.000000 0.000000 0.000000
0.804909 0.395604 1.447204 0.000000 0.000000 0.000000
0.683022 -0.267625 0.527061 0.000000 0.000000 0.000000
0.677091 -0.181404 0.585161 0.000000 0.000000 0.000000
0.621836 -0.193138 0.601369 0.000000 0.000000 0.000000
0.693152 0.152119 1.071603 0.000000 0.000000 0.000000
0.650483 -0.055314 0.717009 0.000000 0.000000 0.000000
0.683581 0.153302 1.077577 0.000000 0.000000 0.000000
0.493747 0.133882 0.665638 0.000000 0.000000 0.000000
0.495698 0.122013 0.652243 0.000000 0.000000 0.000000
0.768079 0.292446 1.287925 0.000000 0.000000 0.000000
0.640249 -0.119281 0.676468 0.000000 0.000000 0.000000
0.780356 0.320495 1.349725 0.000000 0.000000 0.000000
0.802395 0.357439 1.377360 0.000000 0.000000 0.000000
0.807687 0.351806 1.407339 0.000000 0.000000 0.000000
0.963378 0.785690 2.169567 0.000000 0.000000 0.000000
0.885985 0.613299 1.841512 0.000000 0.000000 0.000000
0.643320 -0.083824 0.677726 0.000000 0.000000 0.000000
0.939078 0.697757 2.020238 0.000000 0.000000 0.000000
0.963130 0.784055 2.157580 0.000000 0.000000 0.000000
0.954958 0.791572 2.168599 0.000000 0.000000 0.000000
0.843385 0.472672 1.605480 0.000000 0.000000 0.000000
0.827902 0.435239 1.516468 0.000000 0.000000 0.000000
0.890310 0.612616 1.853134 0.000000 0.000000 0.000000
0.926432 0.733294 2.017336 0.000000 0.000000 0.000000
1.059281 1.129540 2.655179 0.000000 0.000000 0.000000
0.673813 0.095800 1.007275 0.000000 0.000000 0.000000
1.008439 0.973815 2.405622 0.000000 0.000000 0.000000
0.667710 0.434158 1.266680 0.000000 0.000000 0.000000
0.848120 0.487041 1.655103 0.000000 0.000000 0.000000
0.892096 0.619390 1.852187 0.000000 0.000000 0.000000
0.991987 0.949099 2.409827 0.000000 0.000000 0.000000
1.013402 0.959430 2.399116 0.000000 0.000000 0.000000
0.468400 0.146881 0.621880 0.000000 0.000000 0.000000
0.634900 0.056388 0.954827 0.000000 0.000000 0.000000
1.008904 0.964845 2.389102 0.000000 0.000000 0.000000
0.667208 -0.197367 0.562346 0.000000 0.000000 0.000000
1.007338 0.968953 2.450924 0.000000 0.000000 0.000000
0.647462 -0.045371 0.720460 0.000000 0.000000 0.000000
1.007805 0.966018 2.440735 0.000000 0.000000 0.000000
1.008905 0.972004 2.455500 0.000000 0.000000 0.000000
0.937286 0.899407 2.320049 0.000000 0.000000 0.000000
1.001809 0.973300 2.451991 0.000000 0.000000 0.000000
0.940266 0.887856 2.331341 0.000000 0.000000 0.000000
1.021718 1.001905 2.476325 0.000000 0.000000 0.000000
0.889353 0.619251 1.852598 0.000000 0.000000 0.000000
0.858666 0.514471 1.690370 0.000000 0.000000 0.000000
0.646938 -0.050795 0.718966 0.000000 0.000000 0.000000
0.856487 0.493283 1.632709 0.000000 0.000000 0.000000
0.830984 0.429177 1.526850 0.000000 0.000000 0.000000
0.493351 0.125905 0.645666 0.000000 0.000000 0.000000
1.017533 0.986178 2.463055 0.000000 0.000000 0.000000
0.792889 0.335892 1.371570 0.000000 0.000000 0.000000
0.658713 -0.167061 0.598913 0.000000 0.000000 0.000000
0.845245 0.467465 1.607471 0.000000 0.000000 0.000000
0.694223 -0.280303 0.513208 0.000000 0.000000 0.000000
0.869283 0.541648 1.690611 0.000000 0.000000 0.000000
0.891057 0.621072 1.841679 0.000000 0.000000 0.000000
0.682258 -0.270520 0.520749 0.000000 0.000000 0.000000
0.868387 0.511334 1.660629 0.000000 0.000000 0.000000
1.005590 0.971428 2.451701 0.000000 0.000000 0.000000
0.556625 0.484151 1.105492 0.000000 0.000000 0.000000
0.825455 0.416165 1.496296 0.000000 0.000000 0.000000
0.975207 0.851030 2.321119 0.000000 0.000000 0.000000
1.005461 0.958683 2.376913 0.000000 0.000000 0.000000
0.894490 0.624066 1.831614 0.000000 0.000000 0.000000
1.055462 1.130408 2.658942 0.000000 0.000000 0.000000
0.964925 0.838327 2.192795 0.000000 0.000000 0.000000
1.050607 1.093372 2.590071 0.000000 0.000000 0.000000
1.050253 1.064242 2.575637 0.000000 0.000000 0.000000
1.050359 1.108921 2.630769 0.000000 0.000000 0.000000
0.672450 0.433155 1.274559 0.000000 0.000000 0.000000
1.047787 1.099194 2.607330 0.000000 0.000000 0.000000
1.054997 1.121909 2.641529 0.000000 0.000000 0.000000
0.792520 0.343339 1.392709 0.000000 0.000000 0.000000
1.056104 1.114048 2.628526 0.000000 0.000000 0.000000
0.804147 0.358289 1.402123 0.000000 0.000000 0.000000
0.460819 0.132382 0.610776 0.000000 0.000000 0.000000
1.004517 0.947664 2.374541 0.000000 0.000000 0.000000
0.753533 0.247872 1.257814 0.000000 0.000000 0.000000
1.006796 0.975471 2.458722 0.000000 0.000000 0.000000
0.715318 0.209583 1.186377 0.000000 0.000000 0.000000
0.830686 0.467258 1.622815 0.000000 0.000000 0.000000
0.831414 0.462305 1.609607 0.000000 0.000000 0.000000
0.783068 0.282768 1.305082 0.000000 0.000000 0.000000
0.619497 -0.150525 0.595499 0.000000 0.000000 0.000000
0.619862 -0.142910 0.601859 0.000000 0.000000 0.000000
0.617180 -0.272203 0.552553 0.000000 0.000000 0.000000
0.755614 0.246654 1.258139 0.000000 0.000000 0.000000
0.620825 -0.242137 0.556910 0.000000 0.000000 0.000000
0.621020 -0.153996 0.597989 0.000000 0.000000 0.000000
0.636549 -0.125198 0.665547 0.000000 0.000000 0.000000
0.800641 0.349319 1.407021 0.000000 0.000000 0.000000
0.666089 0.105976 0.980536 0.000000 0.000000 0.000000
0.596146 0.068891 0.811725 0.000000 0.000000 0.000000
0.655602 -0.154724 0.620846 0.000000 0.000000 0.000000
0.644423 -0.017964 0.763283 0.000000 0.000000 0.000000
0.619380 -0.267982 0.557548 0.000000 0.000000 0.000000
0.646672 0.438955 1.238613 0.000000 0.000000 0.000000
0.803759 0.371170 1.391039 0.000000 0.000000 0.000000
1.083523 1.078987 2.654242 0.000000 0.000000 0.000000
0.636575 -0.057644 0.719253 0.000000 0.000000 0.000000
0.747222 0.237729 1.248023 0.000000 0.000000 0.000000
1.014701 0.590986 1.877074 0.000000 0.000000 0.000000
0.869419 0.549732 1.745251 0.000000 0.000000 0.000000
0.509372 0.120506 0.675530 0.000000 0.000000 0.000000
0.773097 0.265220 1.287809 0.000000 0.000000 0.000000
0.992656 0.982771 2.278010 0.000000 0.000000 0.000000
0.665950 -0.198961 0.524737 0.000000 0.000000 0.000000
