ply
format ascii 1.0
comment VCGLIB generated
obj_info Generated by SPFormer!
element vertex 868
property float x
property float y
property float z
property float nx
property float ny
property float nz
end_header
-0.152225 0.839438 3.288503 0.000000 0.000000 0.000000
-0.161658 1.003342 3.226979 0.000000 0.000000 0.000000
-0.090657 0.781401 3.345735 0.000000 0.000000 0.000000
-0.083753 1.002594 3.309667 0.000000 0.000000 0.000000
-0.122228 0.900328 3.315825 0.000000 0.000000 0.000000
-0.171877 0.964151 3.226608 0.000000 0.000000 0.000000
-0.071827 0.764873 3.395686 0.000000 0.000000 0.000000
-0.033510 0.853167 3.408273 0.000000 0.000000 0.000000
-0.062830 0.790963 3.401681 0.000000 0.000000 0.000000
-0.108617 0.847495 3.351529 0.000000 0.000000 0.000000
-0.116853 0.801122 3.337246 0.000000 0.000000 0.000000
-0.102372 0.797852 3.346749 0.000000 0.000000 0.000000
-0.050830 0.909773 3.378032 0.000000 0.000000 0.000000
-0.144435 0.867636 3.294017 0.000000 0.000000 0.000000
-0.045705 0.966181 3.342901 0.000000 0.000000 0.000000
-0.187839 0.924703 3.233444 0.000000 0.000000 0.000000
-0.090687 0.790718 3.350960 0.000000 0.000000 0.000000
-0.151309 0.918912 3.269220 0.000000 0.000000 0.000000
-0.169341 0.976916 3.232494 0.000000 0.000000 0.000000
-0.068265 0.894246 3.365916 0.000000 0.000000 0.000000
-0.040772 0.881051 3.405495 0.000000 0.000000 0.000000
-0.164351 1.004877 3.230480 0.000000 0.000000 0.000000
-0.168583 0.956375 3.233361 0.000000 0.000000 0.000000
-0.152441 1.034033 3.237985 0.000000 0.000000 0.000000
-0.069805 0.893420 3.370413 0.000000 0.000000 0.000000
-0.098091 1.032172 3.293523 0.000000 0.000000 0.000000
-0.162386 1.009756 3.220179 0.000000 0.000000 0.000000
-0.093299 1.031617 3.306748 0.000000 0.000000 0.000000
-0.158042 0.854928 3.285752 0.000000 0.000000 0.000000
-0.057520 0.809342 3.397581 0.000000 0.000000 0.000000
-0.052156 0.964327 3.362516 0.000000 0.000000 0.000000
-0.051905 0.803866 3.390172 0.000000 0.000000 0.000000
-0.037654 0.968346 3.368994 0.000000 0.000000 0.000000
-0.091357 1.028061 3.305826 0.000000 0.000000 0.000000
-0.052655 0.955058 3.379541 0.000000 0.000000 0.000000
-0.083157 0.987636 3.323110 0.000000 0.000000 0.000000
-0.076416 0.786138 3.389573 0.000000 0.000000 0.000000
-0.033303 0.847292 3.407979 0.000000 0.000000 0.000000
-0.083275 0.784433 3.368033 0.000000 0.000000 0.000000
-0.054991 0.995640 3.335369 0.000000 0.000000 0.000000
-0.081466 1.023280 3.300643 0.000000 0.000000 0.000000
-0.095114 0.913485 3.344860 0.000000 0.000000 0.000000
-0.029562 0.913223 3.395020 0.000000 0.000000 0.000000
-0.047665 0.901368 3.382503 0.000000 0.000000 0.000000
-0.031613 0.831358 3.419399 0.000000 0.000000 0.000000
-0.042291 0.814237 3.410696 0.000000 0.000000 0.000000
-0.161460 0.990302 3.233370 0.000000 0.000000 0.000000
-0.185281 0.897946 3.264950 0.000000 0.000000 0.000000
-0.052533 0.992522 3.349049 0.000000 0.000000 0.000000
-0.079855 0.863054 3.368567 0.000000 0.000000 0.000000
-0.073202 0.861771 3.374611 0.000000 0.000000 0.000000
-0.053617 0.944149 3.362910 0.000000 0.000000 0.000000
-0.080566 0.881371 3.381126 0.000000 0.000000 0.000000
-0.059743 0.901690 3.374336 0.000000 0.000000 0.000000
-0.103433 1.032871 3.289165 0.000000 0.000000 0.000000
-0.030966 0.819558 3.424707 0.000000 0.000000 0.000000
-0.068425 0.834846 3.385135 0.000000 0.000000 0.000000
-0.069241 0.822945 3.395446 0.000000 0.000000 0.000000
-0.110004 1.010258 3.297776 0.000000 0.000000 0.000000
-0.106692 0.906737 3.330220 0.000000 0.000000 0.000000
-0.101721 1.004389 3.300333 0.000000 0.000000 0.000000
-0.044225 0.975613 3.367220 0.000000 0.000000 0.000000
-0.128893 0.999770 3.272024 0.000000 0.000000 0.000000
-0.123859 0.939895 3.339401 0.000000 0.000000 0.000000
-0.100861 0.841326 3.327249 0.000000 0.000000 0.000000
-0.092806 0.996927 3.320367 0.000000 0.000000 0.000000
-0.104014 0.914651 3.325316 0.000000 0.000000 0.000000
-0.127682 0.964008 3.298048 0.000000 0.000000 0.000000
-0.146297 0.971376 3.302823 0.000000 0.000000 0.000000
-0.114564 0.814094 3.342720 0.000000 0.000000 0.000000
-0.080314 0.973548 3.324008 0.000000 0.000000 0.000000
-0.127452 0.815651 3.311685 0.000000 0.000000 0.000000
-0.113832 0.856687 3.327924 0.000000 0.000000 0.000000
-0.092262 1.014671 3.311923 0.000000 0.000000 0.000000
-0.110200 0.962669 3.310623 0.000000 0.000000 0.000000
-0.128470 0.814579 3.315463 0.000000 0.000000 0.000000
-0.043796 0.971454 3.372121 0.000000 0.000000 0.000000
-0.092567 0.931781 3.363670 0.000000 0.000000 0.000000
-0.063124 0.998376 3.326211 0.000000 0.000000 0.000000
-0.152439 0.961509 3.253641 0.000000 0.000000 0.000000
-0.112626 0.915804 3.320540 0.000000 0.000000 0.000000
-0.107779 1.009863 3.302016 0.000000 0.000000 0.000000
-0.162298 0.902609 3.259031 0.000000 0.000000 0.000000
-0.062706 0.849856 3.391674 0.000000 0.000000 0.000000
-0.113128 0.788966 3.316172 0.000000 0.000000 0.000000
-0.131237 0.825069 3.307576 0.000000 0.000000 0.000000
-0.128852 0.846649 3.312486 0.000000 0.000000 0.000000
-0.108787 0.942937 3.335319 0.000000 0.000000 0.000000
-0.129778 0.993121 3.268904 0.000000 0.000000 0.000000
-0.079519 0.790673 3.371587 0.000000 0.000000 0.000000
-0.178198 0.878724 3.249923 0.000000 0.000000 0.000000
-0.146548 0.895771 3.277869 0.000000 0.000000 0.000000
-0.084765 0.817003 3.381804 0.000000 0.000000 0.000000
-0.080360 0.828429 3.387188 0.000000 0.000000 0.000000
-0.072228 0.937330 3.369044 0.000000 0.000000 0.000000
-0.065150 0.811635 3.403177 0.000000 0.000000 0.000000
-0.185276 0.883558 3.237954 0.000000 0.000000 0.000000
-0.182459 0.961781 3.209747 0.000000 0.000000 0.000000
-0.109106 0.940529 3.313922 0.000000 0.000000 0.000000
-0.119624 0.790946 3.304016 0.000000 0.000000 0.000000
-0.140853 0.890127 3.282591 0.000000 0.000000 0.000000
-0.079468 0.795389 3.365506 0.000000 0.000000 0.000000
-0.134467 0.925733 3.290235 0.000000 0.000000 0.000000
-0.164356 0.875584 3.252995 0.000000 0.000000 0.000000
-0.064761 0.778738 3.382608 0.000000 0.000000 0.000000
-0.127691 0.830123 3.314345 0.000000 0.000000 0.000000
-0.089565 0.948951 3.336215 0.000000 0.000000 0.000000
-0.124794 0.844184 3.308930 0.000000 0.000000 0.000000
-0.110685 0.933050 3.317401 0.000000 0.000000 0.000000
-0.160660 1.031047 3.226399 0.000000 0.000000 0.000000
-0.098760 0.831197 3.361687 0.000000 0.000000 0.000000
-0.059122 0.797366 3.386458 0.000000 0.000000 0.000000
-0.120696 0.936385 3.310132 0.000000 0.000000 0.000000
-0.119918 0.886143 3.376327 0.000000 0.000000 0.000000
-0.037302 0.849101 3.428386 0.000000 0.000000 0.000000
-0.029584 0.885880 3.399528 0.000000 0.000000 0.000000
-0.088881 0.838767 3.365028 0.000000 0.000000 0.000000
-0.052427 0.801673 3.400996 0.000000 0.000000 0.000000
-0.047860 0.866521 3.402411 0.000000 0.000000 0.000000
-0.082443 0.824155 3.398656 0.000000 0.000000 0.000000
-0.170611 0.886829 3.247538 0.000000 0.000000 0.000000
-0.130190 0.940337 3.282810 0.000000 0.000000 0.000000
-0.076675 0.776601 3.382638 0.000000 0.000000 0.000000
-0.174554 0.936060 3.241241 0.000000 0.000000 0.000000
-0.112712 0.818680 3.344234 0.000000 0.000000 0.000000
-0.032467 0.890915 3.400964 0.000000 0.000000 0.000000
-0.063306 0.772127 3.384388 0.000000 0.000000 0.000000
-0.186757 0.889418 3.243908 0.000000 0.000000 0.000000
-0.052049 0.957771 3.358356 0.000000 0.000000 0.000000
-0.077009 0.855676 3.363290 0.000000 0.000000 0.000000
-0.174892 0.889304 3.233668 0.000000 0.000000 0.000000
-0.057084 0.822862 3.400777 0.000000 0.000000 0.000000
-0.067101 0.822597 3.388199 0.000000 0.000000 0.000000
-0.172921 0.872195 3.245433 0.000000 0.000000 0.000000
-0.071372 0.824057 3.382563 0.000000 0.000000 0.000000
-0.081257 0.772140 3.356453 0.000000 0.000000 0.000000
-0.177041 0.896213 3.244238 0.000000 0.000000 0.000000
-0.178980 0.887639 3.242126 0.000000 0.000000 0.000000
-0.035308 0.830193 3.413821 0.000000 0.000000 0.000000
-0.088355 0.822805 3.394818 0.000000 0.000000 0.000000
-0.062756 0.821742 3.390944 0.000000 0.000000 0.000000
-0.177866 0.857246 3.267034 0.000000 0.000000 0.000000
-0.177337 0.864779 3.275349 0.000000 0.000000 0.000000
-0.094673 0.877752 3.369577 0.000000 0.000000 0.000000
-0.087296 0.828489 3.368537 0.000000 0.000000 0.000000
-0.179862 0.952355 3.222341 0.000000 0.000000 0.000000
-0.105063 0.791672 3.332547 0.000000 0.000000 0.000000
-0.047336 0.840110 3.401144 0.000000 0.000000 0.000000
-0.095010 0.806457 3.372109 0.000000 0.000000 0.000000
-0.108622 0.821273 3.353613 0.000000 0.000000 0.000000
-0.184795 0.854507 3.260042 0.000000 0.000000 0.000000
-0.059056 0.929158 3.378344 0.000000 0.000000 0.000000
-0.187200 0.897377 3.260020 0.000000 0.000000 0.000000
-0.181597 0.944265 3.222420 0.000000 0.000000 0.000000
-0.115947 0.792153 3.310201 0.000000 0.000000 0.000000
-0.159518 1.039077 3.231575 0.000000 0.000000 0.000000
-0.154739 0.862825 3.279810 0.000000 0.000000 0.000000
-0.076170 0.783263 3.373488 0.000000 0.000000 0.000000
-0.146066 0.839993 3.300052 0.000000 0.000000 0.000000
-0.087844 0.893046 3.381131 0.000000 0.000000 0.000000
-0.104223 0.888669 3.335390 0.000000 0.000000 0.000000
-0.135327 0.815917 3.301661 0.000000 0.000000 0.000000
-0.111344 0.887316 3.323198 0.000000 0.000000 0.000000
-0.162105 0.942096 3.242393 0.000000 0.000000 0.000000
-0.165445 0.955985 3.241695 0.000000 0.000000 0.000000
-0.178389 0.959433 3.220550 0.000000 0.000000 0.000000
-0.168405 0.971079 3.222617 0.000000 0.000000 0.000000
-0.047072 0.809660 3.402586 0.000000 0.000000 0.000000
-0.050401 0.794198 3.394786 0.000000 0.000000 0.000000
-0.092419 0.892607 3.342522 0.000000 0.000000 0.000000
-0.156944 0.981916 3.266610 0.000000 0.000000 0.000000
-0.193981 0.896180 3.230465 0.000000 0.000000 0.000000
-0.118393 0.906788 3.331185 0.000000 0.000000 0.000000
-0.161885 0.957655 3.236053 0.000000 0.000000 0.000000
-0.154276 0.925978 3.255767 0.000000 0.000000 0.000000
-0.138870 0.911691 3.280953 0.000000 0.000000 0.000000
-0.162704 0.923833 3.255759 0.000000 0.000000 0.000000
-0.077601 0.866899 3.345382 0.000000 0.000000 0.000000
-0.168155 1.006070 3.216897 0.000000 0.000000 0.000000
-0.046300 0.800963 3.405857 0.000000 0.000000 0.000000
-0.090398 0.830987 3.396024 0.000000 0.000000 0.000000
-0.175926 0.935650 3.233560 0.000000 0.000000 0.000000
-0.051115 0.801731 3.405163 0.000000 0.000000 0.000000
-0.047098 0.826228 3.399932 0.000000 0.000000 0.000000
-0.171134 0.840842 3.269265 0.000000 0.000000 0.000000
-0.186322 0.897182 3.233118 0.000000 0.000000 0.000000
-0.059034 0.798173 3.384672 0.000000 0.000000 0.000000
-0.045844 0.816819 3.404354 0.000000 0.000000 0.000000
-0.040092 0.832399 3.406832 0.000000 0.000000 0.000000
-0.149834 1.032679 3.240854 0.000000 0.000000 0.000000
-0.040907 0.800494 3.409974 0.000000 0.000000 0.000000
-0.038415 0.811376 3.411400 0.000000 0.000000 0.000000
-0.166243 1.004679 3.214176 0.000000 0.000000 0.000000
-0.155408 0.990672 3.239506 0.000000 0.000000 0.000000
-0.116698 0.810939 3.334169 0.000000 0.000000 0.000000
-0.159425 1.015053 3.226572 0.000000 0.000000 0.000000
-0.165674 0.986802 3.229621 0.000000 0.000000 0.000000
-0.168921 0.989621 3.224000 0.000000 0.000000 0.000000
-0.180522 0.931052 3.226862 0.000000 0.000000 0.000000
-0.081760 0.778581 3.397030 0.000000 0.000000 0.000000
-0.173417 0.979138 3.221076 0.000000 0.000000 0.000000
-0.034215 0.838112 3.422900 0.000000 0.000000 0.000000
-0.192556 0.870832 3.249220 0.000000 0.000000 0.000000
-0.069371 0.775638 3.374746 0.000000 0.000000 0.000000
-0.178302 0.964716 3.213630 0.000000 0.000000 0.000000
-0.021980 0.848418 3.412402 0.000000 0.000000 0.000000
-0.166233 0.841472 3.258240 0.000000 0.000000 0.000000
-0.044101 0.801086 3.410857 0.000000 0.000000 0.000000
-0.047632 0.796809 3.409819 0.000000 0.000000 0.000000
-0.030821 0.919649 3.389430 0.000000 0.000000 0.000000
-0.116794 0.800690 3.315146 0.000000 0.000000 0.000000
-0.037129 0.815777 3.420990 0.000000 0.000000 0.000000
-0.034795 0.836307 3.418012 0.000000 0.000000 0.000000
-0.029451 0.861827 3.416966 0.000000 0.000000 0.000000
-0.036157 0.854806 3.408357 0.000000 0.000000 0.000000
-0.156958 0.939100 3.349880 0.000000 0.000000 0.000000
-0.170589 0.986854 3.222678 0.000000 0.000000 0.000000
-0.068626 0.782945 3.377380 0.000000 0.000000 0.000000
-0.181231 0.975267 3.207313 0.000000 0.000000 0.000000
-0.086960 0.777024 3.349274 0.000000 0.000000 0.000000
-0.160499 0.915438 3.374481 0.000000 0.000000 0.000000
-0.045885 0.935129 3.378468 0.000000 0.000000 0.000000
-0.035954 0.921641 3.383171 0.000000 0.000000 0.000000
-0.191541 0.859785 3.244493 0.000000 0.000000 0.000000
-0.166595 0.890844 3.371152 0.000000 0.000000 0.000000
-0.054804 0.783766 3.393542 0.000000 0.000000 0.000000
-0.097389 0.824853 3.369009 0.000000 0.000000 0.000000
-0.060089 0.782187 3.390493 0.000000 0.000000 0.000000
-0.071446 0.794087 3.377481 0.000000 0.000000 0.000000
-0.076658 0.802140 3.372453 0.000000 0.000000 0.000000
-0.061396 0.790012 3.384716 0.000000 0.000000 0.000000
-0.032209 0.883468 3.411816 0.000000 0.000000 0.000000
-0.163559 0.998169 3.222266 0.000000 0.000000 0.000000
-0.027577 0.866775 3.410148 0.000000 0.000000 0.000000
-0.032919 0.888145 3.404576 0.000000 0.000000 0.000000
-0.119540 0.806424 3.326204 0.000000 0.000000 0.000000
-0.127054 0.809432 3.307223 0.000000 0.000000 0.000000
-0.022645 0.897824 3.395095 0.000000 0.000000 0.000000
-0.172859 0.987718 3.220829 0.000000 0.000000 0.000000
-0.164524 0.922002 3.374873 0.000000 0.000000 0.000000
-0.024588 0.861772 3.422169 0.000000 0.000000 0.000000
-0.031034 0.930343 3.394381 0.000000 0.000000 0.000000
-0.065783 0.859395 3.401099 0.000000 0.000000 0.000000
-0.063782 0.790914 3.382030 0.000000 0.000000 0.000000
-0.180019 0.979951 3.253809 0.000000 0.000000 0.000000
-0.107037 0.853574 3.380895 0.000000 0.000000 0.000000
-0.105372 0.797143 3.330869 0.000000 0.000000 0.000000
-0.096205 0.784777 3.343800 0.000000 0.000000 0.000000
-0.174858 0.973866 3.234291 0.000000 0.000000 0.000000
-0.181989 0.882566 3.218722 0.000000 0.000000 0.000000
-0.189725 0.897949 3.218268 0.000000 0.000000 0.000000
-0.169926 0.902476 3.240480 0.000000 0.000000 0.000000
-0.175933 0.959247 3.220892 0.000000 0.000000 0.000000
-0.177135 0.913768 3.244306 0.000000 0.000000 0.000000
-0.179339 0.886796 3.241076 0.000000 0.000000 0.000000
-0.174552 0.883341 3.236401 0.000000 0.000000 0.000000
-0.206681 0.932138 3.213465 0.000000 0.000000 0.000000
-0.178969 0.871720 3.226173 0.000000 0.000000 0.000000
-0.067938 0.961296 3.308271 0.000000 0.000000 0.000000
-0.093459 0.813934 3.351059 0.000000 0.000000 0.000000
-0.155584 0.880858 3.281142 0.000000 0.000000 0.000000
-0.120336 0.832849 3.314910 0.000000 0.000000 0.000000
-0.129243 0.852543 3.292333 0.000000 0.000000 0.000000
-0.138550 1.017347 3.247370 0.000000 0.000000 0.000000
-0.089372 1.004790 3.316640 0.000000 0.000000 0.000000
-0.070535 0.988337 3.342758 0.000000 0.000000 0.000000
-0.139139 0.895938 3.288699 0.000000 0.000000 0.000000
-0.106952 1.013158 3.286982 0.000000 0.000000 0.000000
-0.098181 0.910233 3.355419 0.000000 0.000000 0.000000
-0.078350 0.997156 3.309820 0.000000 0.000000 0.000000
-0.118606 0.859826 3.337441 0.000000 0.000000 0.000000
-0.085321 0.784617 3.353579 0.000000 0.000000 0.000000
-0.076459 0.944317 3.361840 0.000000 0.000000 0.000000
-0.180323 0.957236 3.225095 0.000000 0.000000 0.000000
-0.052852 0.791387 3.406497 0.000000 0.000000 0.000000
-0.049737 0.945301 3.369207 0.000000 0.000000 0.000000
-0.175934 0.872250 3.238890 0.000000 0.000000 0.000000
-0.107044 0.976656 3.307872 0.000000 0.000000 0.000000
-0.109421 0.967058 3.281375 0.000000 0.000000 0.000000
-0.135983 0.839102 3.311245 0.000000 0.000000 0.000000
-0.161581 0.898220 3.257863 0.000000 0.000000 0.000000
-0.160809 0.843733 3.260150 0.000000 0.000000 0.000000
-0.130011 1.012519 3.270045 0.000000 0.000000 0.000000
-0.130347 0.924532 3.291587 0.000000 0.000000 0.000000
-0.085499 0.828292 3.391860 0.000000 0.000000 0.000000
-0.157339 0.927509 3.251684 0.000000 0.000000 0.000000
-0.044481 0.800947 3.401996 0.000000 0.000000 0.000000
-0.129321 0.822475 3.367455 0.000000 0.000000 0.000000
-0.096950 0.811030 3.359443 0.000000 0.000000 0.000000
-0.158188 0.851385 3.272612 0.000000 0.000000 0.000000
-0.125475 0.863544 3.313200 0.000000 0.000000 0.000000
-0.110781 0.851305 3.320602 0.000000 0.000000 0.000000
-0.169225 0.901953 3.291562 0.000000 0.000000 0.000000
-0.125139 1.018791 3.263154 0.000000 0.000000 0.000000
-0.066537 0.979427 3.351536 0.000000 0.000000 0.000000
-0.066076 0.960072 3.346693 0.000000 0.000000 0.000000
-0.151069 0.854538 3.273697 0.000000 0.000000 0.000000
-0.112636 0.988678 3.309381 0.000000 0.000000 0.000000
-0.064815 0.986090 3.323792 0.000000 0.000000 0.000000
-0.126748 0.988793 3.307689 0.000000 0.000000 0.000000
-0.123397 0.862976 3.318552 0.000000 0.000000 0.000000
-0.118254 0.814597 3.312845 0.000000 0.000000 0.000000
-0.068212 0.941965 3.359952 0.000000 0.000000 0.000000
-0.116684 0.835181 3.325511 0.000000 0.000000 0.000000
-0.120601 1.039439 3.281311 0.000000 0.000000 0.000000
-0.155597 0.868555 3.266777 0.000000 0.000000 0.000000
-0.123835 1.007536 3.278638 0.000000 0.000000 0.000000
-0.121803 0.888845 3.341529 0.000000 0.000000 0.000000
-0.164472 0.884284 3.251561 0.000000 0.000000 0.000000
-0.162651 0.863456 3.260786 0.000000 0.000000 0.000000
-0.136136 0.899571 3.320534 0.000000 0.000000 0.000000
-0.092301 0.926210 3.348159 0.000000 0.000000 0.000000
-0.132283 0.936916 3.293483 0.000000 0.000000 0.000000
-0.141535 1.028861 3.236861 0.000000 0.000000 0.000000
-0.036081 0.883765 3.410511 0.000000 0.000000 0.000000
-0.154095 0.861017 3.263786 0.000000 0.000000 0.000000
-0.175426 0.849279 3.248396 0.000000 0.000000 0.000000
-0.106886 0.855453 3.385934 0.000000 0.000000 0.000000
-0.177096 0.911051 3.229914 0.000000 0.000000 0.000000
-0.103466 0.911736 3.340631 0.000000 0.000000 0.000000
-0.050749 0.917547 3.373299 0.000000 0.000000 0.000000
-0.130734 0.959898 3.294255 0.000000 0.000000 0.000000
-0.133866 0.968840 3.280466 0.000000 0.000000 0.000000
-0.130398 0.975010 3.291781 0.000000 0.000000 0.000000
-0.115846 0.983280 3.294132 0.000000 0.000000 0.000000
-0.126550 0.908531 3.288378 0.000000 0.000000 0.000000
-0.119322 0.966304 3.348548 0.000000 0.000000 0.000000
-0.093256 0.982093 3.327494 0.000000 0.000000 0.000000
-0.082436 1.009412 3.298903 0.000000 0.000000 0.000000
-0.154899 1.030560 3.232714 0.000000 0.000000 0.000000
-0.143035 0.962186 3.290555 0.000000 0.000000 0.000000
-0.091018 0.930659 3.335699 0.000000 0.000000 0.000000
-0.131957 0.908894 3.298357 0.000000 0.000000 0.000000
-0.154168 0.881996 3.299591 0.000000 0.000000 0.000000
-0.099505 0.861893 3.355398 0.000000 0.000000 0.000000
-0.065002 0.920715 3.362747 0.000000 0.000000 0.000000
-0.142871 0.959086 3.275359 0.000000 0.000000 0.000000
-0.140864 0.940318 3.274812 0.000000 0.000000 0.000000
-0.131840 0.989446 3.286462 0.000000 0.000000 0.000000
-0.122268 0.985787 3.300447 0.000000 0.000000 0.000000
-0.128723 0.922450 3.308066 0.000000 0.000000 0.000000
-0.122386 0.968436 3.296217 0.000000 0.000000 0.000000
-0.115987 0.964574 3.297358 0.000000 0.000000 0.000000
-0.147546 1.032755 3.251967 0.000000 0.000000 0.000000
-0.106778 0.926579 3.328965 0.000000 0.000000 0.000000
-0.192031 0.933446 3.204142 0.000000 0.000000 0.000000
-0.139285 0.912204 3.298438 0.000000 0.000000 0.000000
-0.079778 0.921873 3.347685 0.000000 0.000000 0.000000
-0.130965 0.899252 3.302132 0.000000 0.000000 0.000000
-0.144405 1.034708 3.243968 0.000000 0.000000 0.000000
-0.033032 0.895337 3.392663 0.000000 0.000000 0.000000
-0.192655 0.868579 3.243686 0.000000 0.000000 0.000000
-0.184263 0.902517 3.226013 0.000000 0.000000 0.000000
-0.071158 0.860499 3.416693 0.000000 0.000000 0.000000
-0.151890 0.867378 3.293097 0.000000 0.000000 0.000000
-0.029624 0.899538 3.394203 0.000000 0.000000 0.000000
-0.026529 0.894363 3.400951 0.000000 0.000000 0.000000
-0.047240 0.923254 3.370554 0.000000 0.000000 0.000000
-0.041965 0.913484 3.385227 0.000000 0.000000 0.000000
-0.039212 0.835136 3.424186 0.000000 0.000000 0.000000
-0.117943 0.802394 3.323232 0.000000 0.000000 0.000000
-0.077209 0.849696 3.409379 0.000000 0.000000 0.000000
-0.184671 0.911883 3.294343 0.000000 0.000000 0.000000
-0.046256 0.908357 3.401291 0.000000 0.000000 0.000000
-0.064881 0.927607 3.369704 0.000000 0.000000 0.000000
-0.085572 0.860624 3.321306 0.000000 0.000000 0.000000
-0.155639 1.010131 3.240404 0.000000 0.000000 0.000000
-0.072173 0.770096 3.370350 0.000000 0.000000 0.000000
-0.097552 0.793986 3.349333 0.000000 0.000000 0.000000
-0.160110 0.998717 3.246113 0.000000 0.000000 0.000000
-0.165288 1.020774 3.213814 0.000000 0.000000 0.000000
-0.161756 1.004410 3.222300 0.000000 0.000000 0.000000
-0.159138 1.008870 3.230246 0.000000 0.000000 0.000000
-0.162612 1.006681 3.219587 0.000000 0.000000 0.000000
-0.153934 1.015457 3.225685 0.000000 0.000000 0.000000
-0.163642 1.017668 3.216818 0.000000 0.000000 0.000000
-0.179439 0.980618 3.208884 0.000000 0.000000 0.000000
-0.039579 0.970258 3.360647 0.000000 0.000000 0.000000
-0.167362 1.026634 3.215715 0.000000 0.000000 0.000000
-0.117789 0.789688 3.304502 0.000000 0.000000 0.000000
-0.149883 0.828485 3.279487 0.000000 0.000000 0.000000
-0.186494 0.900022 3.231720 0.000000 0.000000 0.000000
-0.119981 0.790339 3.307543 0.000000 0.000000 0.000000
-0.188927 0.901983 3.227722 0.000000 0.000000 0.000000
-0.159319 0.821071 3.275857 0.000000 0.000000 0.000000
-0.111994 0.788318 3.313106 0.000000 0.000000 0.000000
-0.186494 0.901847 3.210384 0.000000 0.000000 0.000000
-0.055724 0.971161 3.347852 0.000000 0.000000 0.000000
-0.081514 0.779979 3.357711 0.000000 0.000000 0.000000
-0.108173 0.789576 3.321160 0.000000 0.000000 0.000000
-0.093052 0.785885 3.348518 0.000000 0.000000 0.000000
-0.178929 0.958609 3.216535 0.000000 0.000000 0.000000
-0.085604 0.781413 3.354570 0.000000 0.000000 0.000000
-0.102362 0.788058 3.333803 0.000000 0.000000 0.000000
-0.122495 0.788287 3.303452 0.000000 0.000000 0.000000
-0.090758 1.022591 3.298490 0.000000 0.000000 0.000000
-0.161913 0.870626 3.289721 0.000000 0.000000 0.000000
-0.108109 0.783531 3.318482 0.000000 0.000000 0.000000
-0.144149 0.842116 3.306261 0.000000 0.000000 0.000000
-0.050130 0.790828 3.407160 0.000000 0.000000 0.000000
-0.052721 0.844284 3.408249 0.000000 0.000000 0.000000
-0.042441 0.820567 3.416761 0.000000 0.000000 0.000000
-0.071750 0.792960 3.401299 0.000000 0.000000 0.000000
-0.050235 0.801045 3.414602 0.000000 0.000000 0.000000
-0.050477 0.807516 3.410542 0.000000 0.000000 0.000000
-0.041043 0.805152 3.417672 0.000000 0.000000 0.000000
-0.081461 0.802320 3.392053 0.000000 0.000000 0.000000
-0.184341 0.954251 3.208448 0.000000 0.000000 0.000000
-0.070169 0.773726 3.383457 0.000000 0.000000 0.000000
-0.062377 0.777759 3.383610 0.000000 0.000000 0.000000
-0.053654 0.788288 3.399744 0.000000 0.000000 0.000000
-0.152148 1.039462 3.222702 0.000000 0.000000 0.000000
-0.067539 0.784038 3.394684 0.000000 0.000000 0.000000
-0.061315 0.779728 3.390234 0.000000 0.000000 0.000000
-0.170233 0.848456 3.252118 0.000000 0.000000 0.000000
-0.133219 1.026669 3.306058 0.000000 0.000000 0.000000
-0.052001 0.960124 3.374837 0.000000 0.000000 0.000000
-0.056249 0.858135 3.398103 0.000000 0.000000 0.000000
-0.041973 0.911085 3.381616 0.000000 0.000000 0.000000
-0.071195 0.880524 3.399995 0.000000 0.000000 0.000000
-0.073769 0.817838 3.431836 0.000000 0.000000 0.000000
-0.187795 0.920663 3.213825 0.000000 0.000000 0.000000
-0.118185 0.805328 3.330694 0.000000 0.000000 0.000000
-0.111409 0.787366 3.323387 0.000000 0.000000 0.000000
-0.190531 0.937931 3.226040 0.000000 0.000000 0.000000
-0.114397 0.789815 3.322487 0.000000 0.000000 0.000000
-0.032569 0.836100 3.414798 0.000000 0.000000 0.000000
-0.029276 0.841127 3.418485 0.000000 0.000000 0.000000
-0.035872 0.826758 3.421628 0.000000 0.000000 0.000000
-0.039210 0.932657 3.379557 0.000000 0.000000 0.000000
-0.148474 0.963301 3.247761 0.000000 0.000000 0.000000
-0.141358 0.980013 3.251380 0.000000 0.000000 0.000000
-0.157158 0.897752 3.268815 0.000000 0.000000 0.000000
-0.158897 0.955377 3.257705 0.000000 0.000000 0.000000
-0.164894 1.013700 3.217470 0.000000 0.000000 0.000000
-0.028782 0.908501 3.408505 0.000000 0.000000 0.000000
-0.104839 0.973428 3.340142 0.000000 0.000000 0.000000
-0.036183 0.817900 3.413201 0.000000 0.000000 0.000000
-0.160463 1.038678 3.221399 0.000000 0.000000 0.000000
-0.148280 1.019704 3.232493 0.000000 0.000000 0.000000
-0.049158 0.923771 3.376634 0.000000 0.000000 0.000000
-0.029402 0.931695 3.384360 0.000000 0.000000 0.000000
-0.136901 0.966868 3.266351 0.000000 0.000000 0.000000
-0.173780 0.987962 3.215698 0.000000 0.000000 0.000000
-0.128359 0.954474 3.287298 0.000000 0.000000 0.000000
-0.161113 0.929138 3.241959 0.000000 0.000000 0.000000
-0.153525 0.967626 3.281296 0.000000 0.000000 0.000000
-0.162430 1.017322 3.222622 0.000000 0.000000 0.000000
-0.038911 0.888903 3.392150 0.000000 0.000000 0.000000
-0.083297 0.942157 3.357462 0.000000 0.000000 0.000000
-0.088676 0.950158 3.372668 0.000000 0.000000 0.000000
-0.188593 0.983577 3.206186 0.000000 0.000000 0.000000
-0.035489 0.821116 3.421539 0.000000 0.000000 0.000000
-0.174889 0.859086 3.240384 0.000000 0.000000 0.000000
-0.021510 0.922182 3.393398 0.000000 0.000000 0.000000
-0.030406 0.835135 3.420561 0.000000 0.000000 0.000000
-0.079631 0.843960 3.393146 0.000000 0.000000 0.000000
-0.084129 0.865488 3.386212 0.000000 0.000000 0.000000
-0.080405 0.833945 3.376416 0.000000 0.000000 0.000000
-0.068075 0.840846 3.405663 0.000000 0.000000 0.000000
-0.109024 0.856770 3.374868 0.000000 0.000000 0.000000
-0.174731 0.990524 3.211247 0.000000 0.000000 0.000000
-0.165363 0.996098 3.229997 0.000000 0.000000 0.000000
-0.168332 1.021770 3.219680 0.000000 0.000000 0.000000
-0.154806 1.019422 3.227159 0.000000 0.000000 0.000000
-0.167678 0.994803 3.226316 0.000000 0.000000 0.000000
-0.184707 0.986369 3.211267 0.000000 0.000000 0.000000
-0.173064 0.959321 3.230610 0.000000 0.000000 0.000000
-0.161300 1.028712 3.219057 0.000000 0.000000 0.000000
-0.157253 1.008691 3.234712 0.000000 0.000000 0.000000
-0.171869 0.856271 3.253211 0.000000 0.000000 0.000000
-0.168728 0.853089 3.285279 0.000000 0.000000 0.000000
-0.183503 0.863523 3.243744 0.000000 0.000000 0.000000
-0.127013 0.796261 3.303540 0.000000 0.000000 0.000000
-0.165358 0.829381 3.275120 0.000000 0.000000 0.000000
-0.157714 0.826700 3.269695 0.000000 0.000000 0.000000
-0.135437 0.807643 3.297191 0.000000 0.000000 0.000000
-0.100492 1.018983 3.276885 0.000000 0.000000 0.000000
-0.173210 0.875651 3.228328 0.000000 0.000000 0.000000
-0.125146 0.800951 3.311204 0.000000 0.000000 0.000000
-0.167173 0.840402 3.281053 0.000000 0.000000 0.000000
-0.156697 0.821811 3.281380 0.000000 0.000000 0.000000
-0.035268 0.859534 3.417330 0.000000 0.000000 0.000000
-0.027688 0.853102 3.421408 0.000000 0.000000 0.000000
-0.040160 0.816314 3.413285 0.000000 0.000000 0.000000
-0.028646 0.850445 3.417069 0.000000 0.000000 0.000000
-0.030728 0.847406 3.413290 0.000000 0.000000 0.000000
-0.148818 0.819982 3.266010 0.000000 0.000000 0.000000
-0.027682 0.850181 3.416207 0.000000 0.000000 0.000000
-0.152789 0.817528 3.279727 0.000000 0.000000 0.000000
-0.051874 0.793362 3.402283 0.000000 0.000000 0.000000
-0.026692 0.854708 3.415947 0.000000 0.000000 0.000000
-0.039484 0.813847 3.415802 0.000000 0.000000 0.000000
-0.180048 0.981397 3.205987 0.000000 0.000000 0.000000
-0.176533 0.972153 3.219242 0.000000 0.000000 0.000000
-0.137687 1.016960 3.261755 0.000000 0.000000 0.000000
-0.178861 0.980033 3.213485 0.000000 0.000000 0.000000
-0.185355 0.958674 3.205978 0.000000 0.000000 0.000000
-0.175712 0.996790 3.209144 0.000000 0.000000 0.000000
-0.184292 0.964552 3.206632 0.000000 0.000000 0.000000
-0.083642 0.936008 3.378807 0.000000 0.000000 0.000000
-0.167371 0.839866 3.274894 0.000000 0.000000 0.000000
-0.149177 0.844286 3.274934 0.000000 0.000000 0.000000
-0.165301 0.836631 3.253666 0.000000 0.000000 0.000000
-0.162843 0.836436 3.261690 0.000000 0.000000 0.000000
-0.151044 0.814779 3.274887 0.000000 0.000000 0.000000
-0.048223 0.897949 3.404918 0.000000 0.000000 0.000000
-0.154158 0.831673 3.276111 0.000000 0.000000 0.000000
-0.149291 0.850322 3.282118 0.000000 0.000000 0.000000
-0.164409 0.834832 3.257921 0.000000 0.000000 0.000000
-0.163045 0.823703 3.267314 0.000000 0.000000 0.000000
-0.156982 0.831091 3.265633 0.000000 0.000000 0.000000
-0.158114 0.837272 3.267151 0.000000 0.000000 0.000000
-0.026683 0.899891 3.384503 0.000000 0.000000 0.000000
-0.034610 0.909249 3.388756 0.000000 0.000000 0.000000
-0.036075 0.899556 3.372800 0.000000 0.000000 0.000000
-0.183914 0.957830 3.215034 0.000000 0.000000 0.000000
-0.141670 0.807101 3.291487 0.000000 0.000000 0.000000
-0.186202 0.889232 3.220433 0.000000 0.000000 0.000000
-0.187035 0.891432 3.223051 0.000000 0.000000 0.000000
-0.131744 0.805158 3.293429 0.000000 0.000000 0.000000
-0.192225 0.893655 3.222736 0.000000 0.000000 0.000000
-0.131383 0.802435 3.303350 0.000000 0.000000 0.000000
-0.166602 0.829032 3.269821 0.000000 0.000000 0.000000
-0.075264 0.771897 3.364082 0.000000 0.000000 0.000000
-0.112555 0.775908 3.355613 0.000000 0.000000 0.000000
-0.178384 0.944527 3.233290 0.000000 0.000000 0.000000
-0.186361 0.939772 3.210045 0.000000 0.000000 0.000000
-0.080524 0.774118 3.361575 0.000000 0.000000 0.000000
-0.072204 0.778721 3.372230 0.000000 0.000000 0.000000
-0.075238 0.774846 3.369238 0.000000 0.000000 0.000000
-0.084400 0.792297 3.363843 0.000000 0.000000 0.000000
-0.167096 0.931899 3.236318 0.000000 0.000000 0.000000
-0.081300 0.775829 3.355804 0.000000 0.000000 0.000000
-0.171596 0.904705 3.238272 0.000000 0.000000 0.000000
-0.074091 0.769252 3.364505 0.000000 0.000000 0.000000
-0.158995 0.998347 3.237323 0.000000 0.000000 0.000000
-0.081212 0.772989 3.351040 0.000000 0.000000 0.000000
-0.079180 0.769221 3.359167 0.000000 0.000000 0.000000
-0.062754 0.785997 3.383380 0.000000 0.000000 0.000000
-0.077983 0.780009 3.364966 0.000000 0.000000 0.000000
-0.071989 0.776513 3.378598 0.000000 0.000000 0.000000
-0.167184 0.878334 3.245198 0.000000 0.000000 0.000000
-0.083412 0.782487 3.361754 0.000000 0.000000 0.000000
-0.166090 0.912747 3.243989 0.000000 0.000000 0.000000
-0.184932 0.976671 3.202211 0.000000 0.000000 0.000000
-0.184245 0.963795 3.210757 0.000000 0.000000 0.000000
-0.185328 0.963574 3.202423 0.000000 0.000000 0.000000
-0.181871 0.861887 3.240963 0.000000 0.000000 0.000000
-0.184877 0.949845 3.219339 0.000000 0.000000 0.000000
-0.024408 0.871211 3.418557 0.000000 0.000000 0.000000
-0.023843 0.854086 3.419474 0.000000 0.000000 0.000000
-0.163789 1.020246 3.215186 0.000000 0.000000 0.000000
-0.024976 0.876234 3.416041 0.000000 0.000000 0.000000
-0.165828 1.016383 3.213716 0.000000 0.000000 0.000000
-0.168918 0.992411 3.221175 0.000000 0.000000 0.000000
-0.189753 0.909897 3.212571 0.000000 0.000000 0.000000
-0.173123 0.989937 3.214617 0.000000 0.000000 0.000000
-0.026404 0.867004 3.421022 0.000000 0.000000 0.000000
-0.038847 0.877111 3.412758 0.000000 0.000000 0.000000
-0.025292 0.878315 3.411686 0.000000 0.000000 0.000000
-0.181572 0.932014 3.222210 0.000000 0.000000 0.000000
-0.164708 0.976423 3.233220 0.000000 0.000000 0.000000
-0.186567 0.904076 3.213470 0.000000 0.000000 0.000000
-0.025796 0.864999 3.421276 0.000000 0.000000 0.000000
-0.025789 0.868527 3.418818 0.000000 0.000000 0.000000
-0.048553 0.890986 3.403816 0.000000 0.000000 0.000000
-0.181089 0.887512 3.223734 0.000000 0.000000 0.000000
-0.166211 0.995860 3.226260 0.000000 0.000000 0.000000
-0.176061 1.012066 3.211919 0.000000 0.000000 0.000000
-0.050297 0.964974 3.380983 0.000000 0.000000 0.000000
-0.178218 0.988062 3.206939 0.000000 0.000000 0.000000
-0.073734 0.964832 3.370267 0.000000 0.000000 0.000000
-0.177099 0.978872 3.213781 0.000000 0.000000 0.000000
-0.173543 0.996065 3.212497 0.000000 0.000000 0.000000
-0.114961 0.789823 3.371891 0.000000 0.000000 0.000000
-0.057315 0.970635 3.371693 0.000000 0.000000 0.000000
-0.167562 1.001839 3.215266 0.000000 0.000000 0.000000
-0.172832 1.001321 3.214421 0.000000 0.000000 0.000000
-0.160615 1.018971 3.233853 0.000000 0.000000 0.000000
-0.166556 1.026545 3.213613 0.000000 0.000000 0.000000
-0.057290 0.976458 3.363329 0.000000 0.000000 0.000000
-0.188751 0.936195 3.329893 0.000000 0.000000 0.000000
-0.158568 1.024411 3.222000 0.000000 0.000000 0.000000
-0.152552 1.028379 3.229652 0.000000 0.000000 0.000000
-0.031473 0.930764 3.391989 0.000000 0.000000 0.000000
-0.050250 0.970450 3.365435 0.000000 0.000000 0.000000
-0.172996 0.980673 3.219214 0.000000 0.000000 0.000000
-0.157719 0.948541 3.331910 0.000000 0.000000 0.000000
-0.157391 1.022424 3.220068 0.000000 0.000000 0.000000
-0.159530 1.033073 3.218468 0.000000 0.000000 0.000000
-0.148887 0.954476 3.254092 0.000000 0.000000 0.000000
-0.137908 0.886665 3.289408 0.000000 0.000000 0.000000
-0.060731 0.838637 3.388923 0.000000 0.000000 0.000000
-0.110232 0.860438 3.332633 0.000000 0.000000 0.000000
-0.073064 0.903399 3.369549 0.000000 0.000000 0.000000
-0.113679 0.841224 3.372715 0.000000 0.000000 0.000000
-0.087250 0.819208 3.386927 0.000000 0.000000 0.000000
-0.036042 0.820896 3.417732 0.000000 0.000000 0.000000
-0.159500 0.930612 3.311747 0.000000 0.000000 0.000000
-0.137469 1.013118 3.246495 0.000000 0.000000 0.000000
-0.132417 1.021641 3.254099 0.000000 0.000000 0.000000
-0.113381 0.887310 3.352905 0.000000 0.000000 0.000000
-0.125569 0.888637 3.349474 0.000000 0.000000 0.000000
-0.117486 0.934044 3.314239 0.000000 0.000000 0.000000
-0.143242 0.993460 3.257643 0.000000 0.000000 0.000000
-0.140514 0.905339 3.274587 0.000000 0.000000 0.000000
-0.066115 0.858031 3.381604 0.000000 0.000000 0.000000
-0.111527 0.868297 3.335759 0.000000 0.000000 0.000000
-0.059176 0.840030 3.400596 0.000000 0.000000 0.000000
-0.070472 0.909531 3.359444 0.000000 0.000000 0.000000
-0.100153 0.861434 3.372231 0.000000 0.000000 0.000000
-0.058556 0.834937 3.394709 0.000000 0.000000 0.000000
-0.052819 0.899941 3.351467 0.000000 0.000000 0.000000
-0.086735 0.854959 3.368751 0.000000 0.000000 0.000000
-0.036426 0.817136 3.411412 0.000000 0.000000 0.000000
-0.165833 0.898119 3.322343 0.000000 0.000000 0.000000
-0.132101 1.039980 3.252892 0.000000 0.000000 0.000000
-0.136060 1.023776 3.256818 0.000000 0.000000 0.000000
-0.102756 0.886062 3.356133 0.000000 0.000000 0.000000
-0.112276 0.905389 3.350416 0.000000 0.000000 0.000000
-0.119939 0.897305 3.350447 0.000000 0.000000 0.000000
-0.124127 0.924110 3.335233 0.000000 0.000000 0.000000
-0.132930 0.939417 3.280415 0.000000 0.000000 0.000000
-0.129673 0.935542 3.285035 0.000000 0.000000 0.000000
-0.045261 0.848736 3.413229 0.000000 0.000000 0.000000
-0.068099 0.812289 3.425560 0.000000 0.000000 0.000000
-0.142722 0.915216 3.274992 0.000000 0.000000 0.000000
-0.126312 0.945754 3.299760 0.000000 0.000000 0.000000
-0.047820 0.855059 3.411982 0.000000 0.000000 0.000000
-0.070536 0.825704 3.428535 0.000000 0.000000 0.000000
-0.125245 0.865843 3.331669 0.000000 0.000000 0.000000
-0.134160 0.870765 3.302515 0.000000 0.000000 0.000000
-0.129254 0.898475 3.306605 0.000000 0.000000 0.000000
-0.043487 0.961867 3.370170 0.000000 0.000000 0.000000
-0.131402 0.845519 3.324615 0.000000 0.000000 0.000000
-0.138202 0.837315 3.322694 0.000000 0.000000 0.000000
-0.124882 0.811124 3.319322 0.000000 0.000000 0.000000
-0.125682 0.793996 3.326769 0.000000 0.000000 0.000000
-0.154071 0.829600 3.321055 0.000000 0.000000 0.000000
-0.136581 0.827688 3.318215 0.000000 0.000000 0.000000
-0.121706 0.806341 3.322324 0.000000 0.000000 0.000000
-0.115346 0.811582 3.301830 0.000000 0.000000 0.000000
-0.029261 0.916237 3.390132 0.000000 0.000000 0.000000
-0.181126 0.976708 3.205569 0.000000 0.000000 0.000000
-0.179491 0.991773 3.205377 0.000000 0.000000 0.000000
-0.170663 1.002627 3.213529 0.000000 0.000000 0.000000
-0.184284 0.969517 3.204687 0.000000 0.000000 0.000000
-0.171812 1.003071 3.210972 0.000000 0.000000 0.000000
-0.174328 0.978600 3.208646 0.000000 0.000000 0.000000
-0.177036 0.988488 3.208894 0.000000 0.000000 0.000000
-0.176329 1.001399 3.212893 0.000000 0.000000 0.000000
-0.172154 0.995585 3.212649 0.000000 0.000000 0.000000
-0.173707 0.980231 3.224386 0.000000 0.000000 0.000000
-0.177607 0.991004 3.216361 0.000000 0.000000 0.000000
-0.174987 0.991604 3.209895 0.000000 0.000000 0.000000
-0.184337 0.970571 3.206507 0.000000 0.000000 0.000000
-0.183302 0.983806 3.206098 0.000000 0.000000 0.000000
-0.171257 1.004360 3.210443 0.000000 0.000000 0.000000
-0.136050 0.800262 3.291187 0.000000 0.000000 0.000000
-0.038439 0.932336 3.394331 0.000000 0.000000 0.000000
-0.139450 0.822154 3.296152 0.000000 0.000000 0.000000
-0.142093 0.834108 3.301289 0.000000 0.000000 0.000000
-0.137050 0.804855 3.296242 0.000000 0.000000 0.000000
-0.138420 0.813825 3.342285 0.000000 0.000000 0.000000
-0.146507 0.826520 3.287992 0.000000 0.000000 0.000000
-0.033040 0.943911 3.386496 0.000000 0.000000 0.000000
-0.138925 0.818302 3.296465 0.000000 0.000000 0.000000
-0.146512 0.827574 3.273200 0.000000 0.000000 0.000000
-0.134780 0.813506 3.299961 0.000000 0.000000 0.000000
-0.132817 0.800573 3.296646 0.000000 0.000000 0.000000
-0.177332 0.991978 3.208338 0.000000 0.000000 0.000000
-0.185655 0.933898 3.219249 0.000000 0.000000 0.000000
-0.139256 0.819495 3.291236 0.000000 0.000000 0.000000
-0.186263 0.915990 3.220045 0.000000 0.000000 0.000000
-0.186797 0.913749 3.225209 0.000000 0.000000 0.000000
-0.185354 0.890145 3.235923 0.000000 0.000000 0.000000
-0.120991 1.013590 3.308406 0.000000 0.000000 0.000000
-0.186993 0.897517 3.219488 0.000000 0.000000 0.000000
-0.179526 0.914741 3.364936 0.000000 0.000000 0.000000
-0.143417 0.842214 3.304919 0.000000 0.000000 0.000000
-0.138643 0.831182 3.306252 0.000000 0.000000 0.000000
-0.159778 0.827848 3.285620 0.000000 0.000000 0.000000
-0.177654 0.933787 3.347865 0.000000 0.000000 0.000000
-0.188398 0.914185 3.216275 0.000000 0.000000 0.000000
-0.185788 0.918738 3.219229 0.000000 0.000000 0.000000
-0.121452 1.007522 3.288823 0.000000 0.000000 0.000000
-0.172345 0.979258 3.302213 0.000000 0.000000 0.000000
-0.178708 0.889134 3.375839 0.000000 0.000000 0.000000
-0.147074 0.816639 3.290897 0.000000 0.000000 0.000000
-0.150434 0.829376 3.291424 0.000000 0.000000 0.000000
-0.175015 0.937114 3.355531 0.000000 0.000000 0.000000
-0.203496 0.923039 3.211956 0.000000 0.000000 0.000000
-0.201878 0.910793 3.213865 0.000000 0.000000 0.000000
-0.191952 0.896115 3.221561 0.000000 0.000000 0.000000
-0.170863 0.921505 3.368703 0.000000 0.000000 0.000000
-0.188067 0.856462 3.239608 0.000000 0.000000 0.000000
-0.206725 0.919995 3.214289 0.000000 0.000000 0.000000
-0.203719 0.911161 3.211784 0.000000 0.000000 0.000000
-0.173027 0.930714 3.366302 0.000000 0.000000 0.000000
-0.025985 0.913896 3.395936 0.000000 0.000000 0.000000
-0.035550 0.922639 3.385459 0.000000 0.000000 0.000000
-0.196442 0.948130 3.205068 0.000000 0.000000 0.000000
-0.169660 0.923930 3.363641 0.000000 0.000000 0.000000
-0.187258 0.936477 3.213480 0.000000 0.000000 0.000000
-0.031813 0.901675 3.409454 0.000000 0.000000 0.000000
-0.028032 0.897841 3.412098 0.000000 0.000000 0.000000
-0.029966 0.908481 3.400819 0.000000 0.000000 0.000000
-0.025512 0.886773 3.416586 0.000000 0.000000 0.000000
-0.195970 0.895526 3.218065 0.000000 0.000000 0.000000
-0.186771 0.941249 3.202932 0.000000 0.000000 0.000000
-0.186141 0.932902 3.210672 0.000000 0.000000 0.000000
-0.183041 0.954680 3.211743 0.000000 0.000000 0.000000
-0.183739 0.922500 3.226005 0.000000 0.000000 0.000000
-0.180240 0.913707 3.206975 0.000000 0.000000 0.000000
-0.034621 0.938276 3.392466 0.000000 0.000000 0.000000
-0.089389 0.909931 3.368580 0.000000 0.000000 0.000000
-0.189608 0.923293 3.208294 0.000000 0.000000 0.000000
-0.185162 0.940824 3.214120 0.000000 0.000000 0.000000
-0.029886 0.894251 3.413055 0.000000 0.000000 0.000000
-0.022891 0.900233 3.407109 0.000000 0.000000 0.000000
-0.028738 0.911090 3.403586 0.000000 0.000000 0.000000
-0.193317 0.885869 3.219734 0.000000 0.000000 0.000000
-0.187980 0.953484 3.204694 0.000000 0.000000 0.000000
-0.184881 0.930875 3.218029 0.000000 0.000000 0.000000
-0.024290 0.861893 3.423316 0.000000 0.000000 0.000000
-0.175301 0.869161 3.234816 0.000000 0.000000 0.000000
-0.178489 0.910572 3.233067 0.000000 0.000000 0.000000
-0.115818 0.913956 3.315241 0.000000 0.000000 0.000000
-0.178967 0.853921 3.273105 0.000000 0.000000 0.000000
-0.021941 0.847655 3.426354 0.000000 0.000000 0.000000
-0.175586 0.846972 3.263617 0.000000 0.000000 0.000000
-0.174992 0.861585 3.240915 0.000000 0.000000 0.000000
-0.022864 0.868537 3.415815 0.000000 0.000000 0.000000
-0.146682 1.038941 3.236675 0.000000 0.000000 0.000000
-0.151893 0.949563 3.312530 0.000000 0.000000 0.000000
-0.027240 0.896154 3.404614 0.000000 0.000000 0.000000
-0.032872 0.896060 3.401553 0.000000 0.000000 0.000000
-0.140054 0.989257 3.277975 0.000000 0.000000 0.000000
-0.019106 0.876135 3.419570 0.000000 0.000000 0.000000
-0.021378 0.870203 3.419722 0.000000 0.000000 0.000000
-0.156971 1.016063 3.231536 0.000000 0.000000 0.000000
-0.021477 0.885284 3.409790 0.000000 0.000000 0.000000
-0.046976 0.902657 3.388666 0.000000 0.000000 0.000000
-0.149685 0.998860 3.294953 0.000000 0.000000 0.000000
-0.026007 0.869133 3.420539 0.000000 0.000000 0.000000
-0.023254 0.880501 3.416830 0.000000 0.000000 0.000000
-0.146660 0.810942 3.275404 0.000000 0.000000 0.000000
-0.138654 0.800396 3.287603 0.000000 0.000000 0.000000
-0.154562 0.833550 3.274514 0.000000 0.000000 0.000000
-0.141566 0.812468 3.280725 0.000000 0.000000 0.000000
-0.143524 0.821580 3.283465 0.000000 0.000000 0.000000
-0.141838 0.829544 3.291890 0.000000 0.000000 0.000000
-0.140192 0.805565 3.288337 0.000000 0.000000 0.000000
-0.140575 0.809434 3.287604 0.000000 0.000000 0.000000
-0.147130 0.815752 3.285870 0.000000 0.000000 0.000000
-0.143603 0.811564 3.289094 0.000000 0.000000 0.000000
-0.131535 0.800978 3.293206 0.000000 0.000000 0.000000
-0.136676 0.801923 3.289933 0.000000 0.000000 0.000000
-0.129815 0.794232 3.301230 0.000000 0.000000 0.000000
-0.074778 0.863597 3.420146 0.000000 0.000000 0.000000
-0.151931 0.912320 3.291237 0.000000 0.000000 0.000000
-0.169667 0.934195 3.292805 0.000000 0.000000 0.000000
-0.171671 0.984691 3.276861 0.000000 0.000000 0.000000
-0.163715 0.939928 3.290624 0.000000 0.000000 0.000000
-0.158006 0.903718 3.295503 0.000000 0.000000 0.000000
-0.018543 0.850883 3.421226 0.000000 0.000000 0.000000
-0.043756 0.929116 3.392205 0.000000 0.000000 0.000000
-0.033029 0.914681 3.405298 0.000000 0.000000 0.000000
-0.191195 0.944977 3.203474 0.000000 0.000000 0.000000
-0.027479 0.921193 3.400126 0.000000 0.000000 0.000000
-0.055103 0.830042 3.412088 0.000000 0.000000 0.000000
-0.039670 0.923212 3.391887 0.000000 0.000000 0.000000
-0.189037 0.927979 3.206227 0.000000 0.000000 0.000000
-0.189108 0.939166 3.206428 0.000000 0.000000 0.000000
-0.189342 0.924476 3.209236 0.000000 0.000000 0.000000
-0.056655 0.822199 3.410048 0.000000 0.000000 0.000000
-0.050685 0.906814 3.393056 0.000000 0.000000 0.000000
-0.187717 0.937001 3.208173 0.000000 0.000000 0.000000
-0.187267 0.940968 3.207876 0.000000 0.000000 0.000000
-0.112581 0.787853 3.328551 0.000000 0.000000 0.000000
-0.176926 0.860262 3.236679 0.000000 0.000000 0.000000
-0.184869 0.860680 3.237396 0.000000 0.000000 0.000000
-0.126594 0.796648 3.327194 0.000000 0.000000 0.000000
-0.105803 0.791116 3.337246 0.000000 0.000000 0.000000
-0.185731 0.853818 3.252684 0.000000 0.000000 0.000000
-0.121089 0.815164 3.353945 0.000000 0.000000 0.000000
-0.120673 0.805146 3.340675 0.000000 0.000000 0.000000
-0.119591 0.821322 3.334968 0.000000 0.000000 0.000000
-0.167464 0.853114 3.264099 0.000000 0.000000 0.000000
-0.175429 0.839996 3.260827 0.000000 0.000000 0.000000
-0.033923 0.846091 3.421361 0.000000 0.000000 0.000000
-0.129711 0.823355 3.313132 0.000000 0.000000 0.000000
-0.147953 0.830047 3.311870 0.000000 0.000000 0.000000
-0.113122 0.803150 3.341482 0.000000 0.000000 0.000000
-0.119713 0.794580 3.318481 0.000000 0.000000 0.000000
-0.093867 0.788804 3.352187 0.000000 0.000000 0.000000
-0.166440 0.838474 3.252637 0.000000 0.000000 0.000000
-0.172587 0.837476 3.255176 0.000000 0.000000 0.000000
-0.042370 0.820853 3.421235 0.000000 0.000000 0.000000
-0.111555 0.789518 3.334522 0.000000 0.000000 0.000000
-0.093573 0.779508 3.327313 0.000000 0.000000 0.000000
-0.129934 0.825640 3.347838 0.000000 0.000000 0.000000
-0.189599 0.857410 3.241001 0.000000 0.000000 0.000000
-0.173370 0.843062 3.245850 0.000000 0.000000 0.000000
-0.109335 0.804728 3.339451 0.000000 0.000000 0.000000
-0.185880 0.862682 3.255058 0.000000 0.000000 0.000000
-0.087501 0.853434 3.373559 0.000000 0.000000 0.000000
-0.118969 0.823982 3.325439 0.000000 0.000000 0.000000
-0.173896 0.847328 3.246349 0.000000 0.000000 0.000000
-0.179995 0.858503 3.253740 0.000000 0.000000 0.000000
-0.045763 0.833015 3.418971 0.000000 0.000000 0.000000
-0.129604 0.835453 3.327776 0.000000 0.000000 0.000000
-0.113706 0.794869 3.330846 0.000000 0.000000 0.000000
-0.122178 0.797262 3.316424 0.000000 0.000000 0.000000
-0.090950 0.787761 3.359797 0.000000 0.000000 0.000000
-0.170658 0.830584 3.261153 0.000000 0.000000 0.000000
-0.164795 0.824318 3.261420 0.000000 0.000000 0.000000
-0.045858 0.816481 3.417345 0.000000 0.000000 0.000000
-0.101098 0.785706 3.342703 0.000000 0.000000 0.000000
-0.186253 0.855478 3.243929 0.000000 0.000000 0.000000
-0.036131 0.902184 3.393765 0.000000 0.000000 0.000000
-0.046005 0.939145 3.373301 0.000000 0.000000 0.000000
-0.076837 0.952359 3.343272 0.000000 0.000000 0.000000
-0.026726 0.883210 3.404255 0.000000 0.000000 0.000000
-0.025683 0.879936 3.410813 0.000000 0.000000 0.000000
-0.168422 0.924829 3.380389 0.000000 0.000000 0.000000
-0.087455 0.775399 3.344538 0.000000 0.000000 0.000000
-0.044258 0.906583 3.383044 0.000000 0.000000 0.000000
-0.029451 0.888357 3.409667 0.000000 0.000000 0.000000
-0.034085 0.942266 3.379784 0.000000 0.000000 0.000000
-0.046308 0.948821 3.370629 0.000000 0.000000 0.000000
-0.059566 0.939554 3.356971 0.000000 0.000000 0.000000
-0.024158 0.888595 3.401819 0.000000 0.000000 0.000000
-0.025500 0.884096 3.412203 0.000000 0.000000 0.000000
-0.175477 0.929787 3.383841 0.000000 0.000000 0.000000
-0.041278 0.935609 3.375736 0.000000 0.000000 0.000000
-0.024066 0.891595 3.399045 0.000000 0.000000 0.000000
-0.037851 0.958978 3.374125 0.000000 0.000000 0.000000
-0.173165 0.916391 3.382186 0.000000 0.000000 0.000000
-0.169322 0.844402 3.253971 0.000000 0.000000 0.000000
-0.186556 0.952978 3.210822 0.000000 0.000000 0.000000
-0.171480 0.996922 3.209210 0.000000 0.000000 0.000000
-0.172866 0.847652 3.247164 0.000000 0.000000 0.000000
-0.178386 0.987470 3.210178 0.000000 0.000000 0.000000
-0.167548 0.860869 3.235926 0.000000 0.000000 0.000000
-0.169357 0.861279 3.246152 0.000000 0.000000 0.000000
-0.190784 0.901025 3.223355 0.000000 0.000000 0.000000
-0.183236 0.968200 3.210787 0.000000 0.000000 0.000000
-0.172863 0.852540 3.249978 0.000000 0.000000 0.000000
-0.178216 0.960019 3.224143 0.000000 0.000000 0.000000
-0.190228 0.927324 3.211730 0.000000 0.000000 0.000000
-0.183571 0.974440 3.206007 0.000000 0.000000 0.000000
-0.189017 0.958221 3.202987 0.000000 0.000000 0.000000
-0.170946 0.998082 3.214253 0.000000 0.000000 0.000000
-0.177175 0.995745 3.209720 0.000000 0.000000 0.000000
-0.184975 0.964131 3.204890 0.000000 0.000000 0.000000
-0.172459 0.999500 3.208698 0.000000 0.000000 0.000000
-0.173486 0.845625 3.257279 0.000000 0.000000 0.000000
-0.166161 0.841281 3.252725 0.000000 0.000000 0.000000
-0.185149 0.943466 3.217437 0.000000 0.000000 0.000000
-0.163631 0.847319 3.246036 0.000000 0.000000 0.000000
-0.158263 0.830261 3.263322 0.000000 0.000000 0.000000
-0.190083 0.903863 3.222261 0.000000 0.000000 0.000000
-0.180378 0.969750 3.209683 0.000000 0.000000 0.000000
-0.173068 0.845364 3.248723 0.000000 0.000000 0.000000
-0.184367 0.949430 3.208231 0.000000 0.000000 0.000000
-0.190284 0.921266 3.214220 0.000000 0.000000 0.000000
