ply
format ascii 1.0
comment VCGLIB generated
obj_info Generated by SPFormer!
element vertex 725
property float x
property float y
property float z
property float nx
property float ny
property float nz
end_header
-0.085732 -0.183514 0.715090 0.000000 0.000000 0.000000
-0.088352 -0.164931 0.694012 0.000000 0.000000 0.000000
-0.088505 -0.157665 0.709063 0.000000 0.000000 0.000000
-0.101374 -0.154800 0.686601 0.000000 0.000000 0.000000
-0.100075 -0.142114 0.719162 0.000000 0.000000 0.000000
-0.093067 -0.172455 0.698584 0.000000 0.000000 0.000000
-0.092601 -0.175923 0.713634 0.000000 0.000000 0.000000
-0.095615 -0.158383 0.686665 0.000000 0.000000 0.000000
-0.090424 -0.154914 0.710399 0.000000 0.000000 0.000000
-0.099254 -0.173646 0.714183 0.000000 0.000000 0.000000
-0.093650 -0.156076 0.711755 0.000000 0.000000 0.000000
-0.093011 -0.151377 0.718124 0.000000 0.000000 0.000000
-0.096470 -0.172697 0.699196 0.000000 0.000000 0.000000
-0.076025 -0.176999 0.709940 0.000000 0.000000 0.000000
-0.093703 -0.170266 0.684038 0.000000 0.000000 0.000000
-0.086393 -0.165907 0.685340 0.000000 0.000000 0.000000
-0.076813 -0.170605 0.680036 0.000000 0.000000 0.000000
-0.075469 -0.197303 0.691861 0.000000 0.000000 0.000000
-0.083615 -0.166081 0.682304 0.000000 0.000000 0.000000
-0.088018 -0.160589 0.719345 0.000000 0.000000 0.000000
-0.080543 -0.199468 0.688984 0.000000 0.000000 0.000000
-0.084545 -0.179469 0.712077 0.000000 0.000000 0.000000
-0.071944 -0.161436 0.656628 0.000000 0.000000 0.000000
-0.100927 -0.176163 0.702950 0.000000 0.000000 0.000000
-0.090262 -0.151800 0.712730 0.000000 0.000000 0.000000
-0.082966 -0.167745 0.681448 0.000000 0.000000 0.000000
-0.082210 -0.167902 0.684496 0.000000 0.000000 0.000000
-0.077636 -0.157022 0.660336 0.000000 0.000000 0.000000
-0.088398 -0.155161 0.716950 0.000000 0.000000 0.000000
-0.084047 -0.133745 0.696286 0.000000 0.000000 0.000000
-0.089334 -0.164197 0.683490 0.000000 0.000000 0.000000
-0.101554 -0.163579 0.688585 0.000000 0.000000 0.000000
-0.096092 -0.172108 0.716493 0.000000 0.000000 0.000000
-0.091104 -0.133771 0.716167 0.000000 0.000000 0.000000
-0.096917 -0.157833 0.713442 0.000000 0.000000 0.000000
-0.088225 -0.164218 0.695731 0.000000 0.000000 0.000000
-0.099319 -0.171884 0.703252 0.000000 0.000000 0.000000
-0.090385 -0.166985 0.697298 0.000000 0.000000 0.000000
-0.097222 -0.163672 0.716747 0.000000 0.000000 0.000000
-0.071324 -0.164987 0.694671 0.000000 0.000000 0.000000
-0.081316 -0.163476 0.690652 0.000000 0.000000 0.000000
-0.101163 -0.171401 0.713097 0.000000 0.000000 0.000000
-0.085480 -0.175517 0.698390 0.000000 0.000000 0.000000
-0.067679 -0.191635 0.676252 0.000000 0.000000 0.000000
-0.090084 -0.141592 0.713547 0.000000 0.000000 0.000000
-0.087463 -0.160106 0.684930 0.000000 0.000000 0.000000
-0.098204 -0.156417 0.682193 0.000000 0.000000 0.000000
-0.085973 -0.127130 0.706272 0.000000 0.000000 0.000000
-0.075020 -0.181520 0.687405 0.000000 0.000000 0.000000
-0.076299 -0.193295 0.699241 0.000000 0.000000 0.000000
-0.074834 -0.194711 0.709155 0.000000 0.000000 0.000000
-0.083478 -0.153664 0.665527 0.000000 0.000000 0.000000
-0.087876 -0.152569 0.675845 0.000000 0.000000 0.000000
-0.089983 -0.154560 0.673973 0.000000 0.000000 0.000000
-0.092188 -0.151526 0.710682 0.000000 0.000000 0.000000
-0.086940 -0.168131 0.685664 0.000000 0.000000 0.000000
-0.096278 -0.129987 0.716169 0.000000 0.000000 0.000000
-0.094508 -0.157284 0.679025 0.000000 0.000000 0.000000
-0.086416 -0.158659 0.675691 0.000000 0.000000 0.000000
-0.092959 -0.124659 0.718929 0.000000 0.000000 0.000000
-0.092739 -0.156378 0.679532 0.000000 0.000000 0.000000
-0.079008 -0.198378 0.693699 0.000000 0.000000 0.000000
-0.091729 -0.158812 0.678889 0.000000 0.000000 0.000000
-0.064204 -0.197332 0.685877 0.000000 0.000000 0.000000
-0.089460 -0.157163 0.711615 0.000000 0.000000 0.000000
-0.088689 -0.169036 0.674415 0.000000 0.000000 0.000000
-0.101551 -0.169671 0.715745 0.000000 0.000000 0.000000
-0.096073 -0.138359 0.717756 0.000000 0.000000 0.000000
-0.084341 -0.170982 0.719800 0.000000 0.000000 0.000000
-0.083556 -0.174691 0.697817 0.000000 0.000000 0.000000
-0.086244 -0.197644 0.700477 0.000000 0.000000 0.000000
-0.080688 -0.184771 0.708981 0.000000 0.000000 0.000000
-0.077481 -0.193495 0.703034 0.000000 0.000000 0.000000
-0.089859 -0.132774 0.719499 0.000000 0.000000 0.000000
-0.094222 -0.128685 0.715013 0.000000 0.000000 0.000000
-0.076494 -0.191801 0.700830 0.000000 0.000000 0.000000
-0.076908 -0.190721 0.713151 0.000000 0.000000 0.000000
-0.091720 -0.153847 0.672772 0.000000 0.000000 0.000000
-0.088645 -0.169666 0.710898 0.000000 0.000000 0.000000
-0.085766 -0.184210 0.717708 0.000000 0.000000 0.000000
-0.081924 -0.168577 0.715278 0.000000 0.000000 0.000000
-0.100099 -0.160332 0.699448 0.000000 0.000000 0.000000
-0.099279 -0.152971 0.713415 0.000000 0.000000 0.000000
-0.083513 -0.188208 0.714023 0.000000 0.000000 0.000000
-0.096228 -0.161999 0.708507 0.000000 0.000000 0.000000
-0.084216 -0.168243 0.673664 0.000000 0.000000 0.000000
-0.087484 -0.156834 0.684159 0.000000 0.000000 0.000000
-0.074931 -0.191458 0.715083 0.000000 0.000000 0.000000
-0.102766 -0.181254 0.708145 0.000000 0.000000 0.000000
-0.081043 -0.188671 0.712785 0.000000 0.000000 0.000000
-0.092915 -0.164555 0.717818 0.000000 0.000000 0.000000
-0.082488 -0.176442 0.718807 0.000000 0.000000 0.000000
-0.087350 -0.145756 0.719860 0.000000 0.000000 0.000000
-0.078144 -0.190238 0.713072 0.000000 0.000000 0.000000
-0.073653 -0.193500 0.715720 0.000000 0.000000 0.000000
-0.078078 -0.177314 0.688501 0.000000 0.000000 0.000000
-0.092507 -0.139452 0.715739 0.000000 0.000000 0.000000
-0.077309 -0.198798 0.700110 0.000000 0.000000 0.000000
-0.074343 -0.197165 0.717947 0.000000 0.000000 0.000000
-0.087553 -0.137980 0.716529 0.000000 0.000000 0.000000
-0.075729 -0.197943 0.711156 0.000000 0.000000 0.000000
-0.090535 -0.150805 0.709727 0.000000 0.000000 0.000000
-0.081490 -0.172382 0.688462 0.000000 0.000000 0.000000
-0.100787 -0.135208 0.718239 0.000000 0.000000 0.000000
-0.099755 -0.146863 0.713466 0.000000 0.000000 0.000000
-0.096703 -0.171574 0.718831 0.000000 0.000000 0.000000
-0.092232 -0.164562 0.708280 0.000000 0.000000 0.000000
-0.090567 -0.162677 0.687004 0.000000 0.000000 0.000000
-0.081153 -0.170112 0.684555 0.000000 0.000000 0.000000
-0.074653 -0.178514 0.681863 0.000000 0.000000 0.000000
-0.093965 -0.156008 0.690745 0.000000 0.000000 0.000000
-0.101375 -0.140004 0.719265 0.000000 0.000000 0.000000
-0.087590 -0.134572 0.716116 0.000000 0.000000 0.000000
-0.100910 -0.143043 0.709623 0.000000 0.000000 0.000000
-0.100014 -0.157142 0.719805 0.000000 0.000000 0.000000
-0.073664 -0.158895 0.659735 0.000000 0.000000 0.000000
-0.079803 -0.186837 0.713439 0.000000 0.000000 0.000000
-0.096232 -0.146093 0.718827 0.000000 0.000000 0.000000
-0.085312 -0.130790 0.711089 0.000000 0.000000 0.000000
-0.083011 -0.172123 0.692374 0.000000 0.000000 0.000000
-0.081776 -0.177413 0.700729 0.000000 0.000000 0.000000
-0.098181 -0.166578 0.683942 0.000000 0.000000 0.000000
-0.090416 -0.156773 0.676597 0.000000 0.000000 0.000000
-0.090834 -0.154776 0.675777 0.000000 0.000000 0.000000
-0.080757 -0.198119 0.703003 0.000000 0.000000 0.000000
-0.092596 -0.160662 0.712794 0.000000 0.000000 0.000000
-0.077891 -0.156440 0.665926 0.000000 0.000000 0.000000
-0.080262 -0.199732 0.687015 0.000000 0.000000 0.000000
-0.087874 -0.157340 0.675592 0.000000 0.000000 0.000000
-0.073108 -0.185207 0.685152 0.000000 0.000000 0.000000
-0.085115 -0.183761 0.719667 0.000000 0.000000 0.000000
-0.105188 -0.156496 0.695735 0.000000 0.000000 0.000000
-0.090724 -0.155363 0.676694 0.000000 0.000000 0.000000
-0.071038 -0.182955 0.683150 0.000000 0.000000 0.000000
-0.085462 -0.163174 0.683828 0.000000 0.000000 0.000000
-0.096073 -0.131655 0.717847 0.000000 0.000000 0.000000
-0.100860 -0.162033 0.684768 0.000000 0.000000 0.000000
-0.094410 -0.145234 0.702997 0.000000 0.000000 0.000000
-0.084252 -0.194394 0.716042 0.000000 0.000000 0.000000
-0.083300 -0.194269 0.717199 0.000000 0.000000 0.000000
-0.089859 -0.177882 0.694246 0.000000 0.000000 0.000000
-0.092830 -0.175134 0.704800 0.000000 0.000000 0.000000
-0.096624 -0.165719 0.707041 0.000000 0.000000 0.000000
-0.089962 -0.134525 0.719231 0.000000 0.000000 0.000000
-0.088469 -0.129821 0.714763 0.000000 0.000000 0.000000
-0.085401 -0.161041 0.678021 0.000000 0.000000 0.000000
-0.087402 -0.147304 0.710780 0.000000 0.000000 0.000000
-0.095489 -0.155247 0.677747 0.000000 0.000000 0.000000
-0.094989 -0.169716 0.700720 0.000000 0.000000 0.000000
-0.068707 -0.186675 0.683443 0.000000 0.000000 0.000000
-0.082359 -0.166158 0.671370 0.000000 0.000000 0.000000
-0.076704 -0.196872 0.710425 0.000000 0.000000 0.000000
-0.099760 -0.153064 0.719864 0.000000 0.000000 0.000000
-0.074508 -0.197129 0.691685 0.000000 0.000000 0.000000
-0.076409 -0.179627 0.683453 0.000000 0.000000 0.000000
-0.067869 -0.188273 0.675668 0.000000 0.000000 0.000000
-0.085116 -0.191457 0.719534 0.000000 0.000000 0.000000
-0.085397 -0.129706 0.710856 0.000000 0.000000 0.000000
-0.081520 -0.171541 0.683467 0.000000 0.000000 0.000000
-0.080982 -0.194922 0.702890 0.000000 0.000000 0.000000
-0.099612 -0.192399 0.719291 0.000000 0.000000 0.000000
-0.072847 -0.158408 0.661588 0.000000 0.000000 0.000000
-0.099459 -0.160205 0.697777 0.000000 0.000000 0.000000
-0.091665 -0.160470 0.679339 0.000000 0.000000 0.000000
-0.067430 -0.187546 0.677546 0.000000 0.000000 0.000000
-0.067572 -0.161049 0.679606 0.000000 0.000000 0.000000
-0.092537 -0.170390 0.677928 0.000000 0.000000 0.000000
-0.076276 -0.183340 0.685359 0.000000 0.000000 0.000000
-0.092740 -0.130802 0.718685 0.000000 0.000000 0.000000
-0.079087 -0.164214 0.666837 0.000000 0.000000 0.000000
-0.100132 -0.158839 0.689227 0.000000 0.000000 0.000000
-0.069483 -0.189922 0.675966 0.000000 0.000000 0.000000
-0.092542 -0.162941 0.696909 0.000000 0.000000 0.000000
-0.069649 -0.184783 0.677906 0.000000 0.000000 0.000000
-0.081071 -0.185014 0.705744 0.000000 0.000000 0.000000
-0.074540 -0.166321 0.689970 0.000000 0.000000 0.000000
-0.082373 -0.166393 0.679612 0.000000 0.000000 0.000000
-0.086883 -0.169518 0.693983 0.000000 0.000000 0.000000
-0.081415 -0.196338 0.706785 0.000000 0.000000 0.000000
-0.101145 -0.128951 0.715422 0.000000 0.000000 0.000000
-0.087886 -0.158105 0.677076 0.000000 0.000000 0.000000
-0.056833 -0.150778 0.651535 0.000000 0.000000 0.000000
-0.071198 -0.195272 0.702719 0.000000 0.000000 0.000000
-0.089266 -0.159262 0.678373 0.000000 0.000000 0.000000
-0.076318 -0.192127 0.702470 0.000000 0.000000 0.000000
-0.099743 -0.149822 0.682197 0.000000 0.000000 0.000000
-0.086562 -0.164370 0.685918 0.000000 0.000000 0.000000
-0.099538 -0.174186 0.692366 0.000000 0.000000 0.000000
-0.090392 -0.159872 0.696729 0.000000 0.000000 0.000000
-0.101255 -0.130557 0.717215 0.000000 0.000000 0.000000
-0.078171 -0.144949 0.668660 0.000000 0.000000 0.000000
-0.084955 -0.162000 0.713259 0.000000 0.000000 0.000000
-0.088892 -0.151247 0.712230 0.000000 0.000000 0.000000
-0.088568 -0.138025 0.713014 0.000000 0.000000 0.000000
-0.099072 -0.157078 0.691024 0.000000 0.000000 0.000000
-0.089497 -0.140537 0.712590 0.000000 0.000000 0.000000
-0.078850 -0.197272 0.691223 0.000000 0.000000 0.000000
-0.073759 -0.198234 0.679745 0.000000 0.000000 0.000000
-0.079798 -0.196201 0.699105 0.000000 0.000000 0.000000
-0.080542 -0.162097 0.658604 0.000000 0.000000 0.000000
-0.090218 -0.147064 0.715893 0.000000 0.000000 0.000000
-0.085858 -0.132176 0.712368 0.000000 0.000000 0.000000
-0.089394 -0.163444 0.684601 0.000000 0.000000 0.000000
-0.072208 -0.186297 0.679647 0.000000 0.000000 0.000000
-0.084283 -0.169407 0.674063 0.000000 0.000000 0.000000
-0.081802 -0.175131 0.686087 0.000000 0.000000 0.000000
-0.096922 -0.158941 0.695831 0.000000 0.000000 0.000000
-0.095251 -0.147861 0.710116 0.000000 0.000000 0.000000
-0.083050 -0.165114 0.678439 0.000000 0.000000 0.000000
-0.083591 -0.159998 0.662566 0.000000 0.000000 0.000000
-0.093094 -0.145975 0.710698 0.000000 0.000000 0.000000
-0.083829 -0.158719 0.669984 0.000000 0.000000 0.000000
-0.096533 -0.136296 0.715644 0.000000 0.000000 0.000000
-0.089887 -0.155884 0.673534 0.000000 0.000000 0.000000
-0.083418 -0.156011 0.674854 0.000000 0.000000 0.000000
-0.090113 -0.153658 0.674834 0.000000 0.000000 0.000000
-0.090250 -0.151688 0.674197 0.000000 0.000000 0.000000
-0.087356 -0.129704 0.715513 0.000000 0.000000 0.000000
-0.087008 -0.157780 0.687868 0.000000 0.000000 0.000000
-0.090089 -0.165598 0.716100 0.000000 0.000000 0.000000
-0.094841 -0.160945 0.694731 0.000000 0.000000 0.000000
-0.079555 -0.196562 0.707489 0.000000 0.000000 0.000000
-0.106440 -0.150269 0.676316 0.000000 0.000000 0.000000
-0.076851 -0.187563 0.719247 0.000000 0.000000 0.000000
-0.082978 -0.195864 0.696893 0.000000 0.000000 0.000000
-0.072823 -0.189491 0.686628 0.000000 0.000000 0.000000
-0.090048 -0.177417 0.709556 0.000000 0.000000 0.000000
-0.099348 -0.131408 0.715945 0.000000 0.000000 0.000000
-0.081839 -0.167621 0.678878 0.000000 0.000000 0.000000
-0.085277 -0.172819 0.677943 0.000000 0.000000 0.000000
-0.082270 -0.167218 0.681000 0.000000 0.000000 0.000000
-0.086899 -0.133762 0.713708 0.000000 0.000000 0.000000
-0.074372 -0.164680 0.665756 0.000000 0.000000 0.000000
-0.090428 -0.140068 0.714424 0.000000 0.000000 0.000000
-0.070465 -0.160165 0.652445 0.000000 0.000000 0.000000
-0.087177 -0.124931 0.708662 0.000000 0.000000 0.000000
-0.107323 -0.143176 0.715503 0.000000 0.000000 0.000000
-0.082613 -0.134164 0.711895 0.000000 0.000000 0.000000
-0.076994 -0.159198 0.657760 0.000000 0.000000 0.000000
-0.072186 -0.186549 0.692488 0.000000 0.000000 0.000000
-0.078284 -0.197558 0.699319 0.000000 0.000000 0.000000
-0.086468 -0.165443 0.708814 0.000000 0.000000 0.000000
-0.108204 -0.176847 0.715562 0.000000 0.000000 0.000000
-0.068326 -0.158311 0.654374 0.000000 0.000000 0.000000
-0.074758 -0.158081 0.653391 0.000000 0.000000 0.000000
-0.080883 -0.195479 0.690938 0.000000 0.000000 0.000000
-0.077536 -0.190493 0.710375 0.000000 0.000000 0.000000
-0.096355 -0.140444 0.718158 0.000000 0.000000 0.000000
-0.087930 -0.130343 0.716948 0.000000 0.000000 0.000000
-0.096223 -0.156555 0.691705 0.000000 0.000000 0.000000
-0.078306 -0.166542 0.671410 0.000000 0.000000 0.000000
-0.082493 -0.168646 0.660043 0.000000 0.000000 0.000000
-0.082922 -0.171458 0.685746 0.000000 0.000000 0.000000
-0.085638 -0.163370 0.690485 0.000000 0.000000 0.000000
-0.096398 -0.166196 0.681150 0.000000 0.000000 0.000000
-0.075389 -0.184387 0.683696 0.000000 0.000000 0.000000
-0.082430 -0.163879 0.674484 0.000000 0.000000 0.000000
-0.094578 -0.150296 0.707983 0.000000 0.000000 0.000000
-0.099339 -0.126635 0.714934 0.000000 0.000000 0.000000
-0.074900 -0.193380 0.715699 0.000000 0.000000 0.000000
-0.079774 -0.182441 0.686527 0.000000 0.000000 0.000000
-0.089407 -0.156021 0.710742 0.000000 0.000000 0.000000
-0.100716 -0.159032 0.683549 0.000000 0.000000 0.000000
-0.087768 -0.139368 0.716904 0.000000 0.000000 0.000000
-0.094142 -0.172064 0.681711 0.000000 0.000000 0.000000
-0.092908 -0.160960 0.717261 0.000000 0.000000 0.000000
-0.071437 -0.157627 0.654709 0.000000 0.000000 0.000000
-0.085836 -0.170830 0.681495 0.000000 0.000000 0.000000
-0.086869 -0.160773 0.680370 0.000000 0.000000 0.000000
-0.074382 -0.166336 0.669301 0.000000 0.000000 0.000000
-0.080144 -0.163292 0.667427 0.000000 0.000000 0.000000
-0.087532 -0.155913 0.670970 0.000000 0.000000 0.000000
-0.081249 -0.169905 0.682529 0.000000 0.000000 0.000000
-0.096549 -0.156680 0.680225 0.000000 0.000000 0.000000
-0.100632 -0.175859 0.719108 0.000000 0.000000 0.000000
-0.078661 -0.184203 0.691678 0.000000 0.000000 0.000000
-0.079457 -0.196545 0.704336 0.000000 0.000000 0.000000
-0.072471 -0.187873 0.677472 0.000000 0.000000 0.000000
-0.071875 -0.157792 0.655550 0.000000 0.000000 0.000000
-0.074246 -0.186368 0.693573 0.000000 0.000000 0.000000
-0.092639 -0.168549 0.717865 0.000000 0.000000 0.000000
-0.081906 -0.198029 0.709820 0.000000 0.000000 0.000000
-0.093026 -0.156079 0.677055 0.000000 0.000000 0.000000
-0.071013 -0.156873 0.646252 0.000000 0.000000 0.000000
-0.101407 -0.164790 0.701809 0.000000 0.000000 0.000000
-0.086306 -0.128890 0.710751 0.000000 0.000000 0.000000
-0.084886 -0.154035 0.666692 0.000000 0.000000 0.000000
-0.106361 -0.159385 0.717301 0.000000 0.000000 0.000000
-0.070718 -0.159998 0.651556 0.000000 0.000000 0.000000
-0.081244 -0.168190 0.667582 0.000000 0.000000 0.000000
-0.077473 -0.159395 0.668019 0.000000 0.000000 0.000000
-0.083157 -0.194360 0.718320 0.000000 0.000000 0.000000
-0.102712 -0.175062 0.699736 0.000000 0.000000 0.000000
-0.089713 -0.153802 0.671936 0.000000 0.000000 0.000000
-0.087432 -0.128411 0.718196 0.000000 0.000000 0.000000
-0.087684 -0.125247 0.707681 0.000000 0.000000 0.000000
-0.092668 -0.155427 0.677665 0.000000 0.000000 0.000000
-0.071266 -0.189358 0.680695 0.000000 0.000000 0.000000
-0.080758 -0.158294 0.680576 0.000000 0.000000 0.000000
-0.090299 -0.158362 0.681550 0.000000 0.000000 0.000000
-0.079442 -0.165089 0.663895 0.000000 0.000000 0.000000
-0.087930 -0.162077 0.684024 0.000000 0.000000 0.000000
-0.086801 -0.160830 0.688070 0.000000 0.000000 0.000000
-0.090892 -0.156040 0.680278 0.000000 0.000000 0.000000
-0.079781 -0.161334 0.676173 0.000000 0.000000 0.000000
-0.098359 -0.157953 0.683254 0.000000 0.000000 0.000000
-0.087565 -0.151114 0.666063 0.000000 0.000000 0.000000
-0.088099 -0.151787 0.670840 0.000000 0.000000 0.000000
-0.078589 -0.155858 0.667481 0.000000 0.000000 0.000000
-0.096492 -0.156604 0.715395 0.000000 0.000000 0.000000
-0.087469 -0.127784 0.715231 0.000000 0.000000 0.000000
-0.074553 -0.186336 0.687804 0.000000 0.000000 0.000000
-0.115430 -0.153859 0.682564 0.000000 0.000000 0.000000
-0.087053 -0.126681 0.717904 0.000000 0.000000 0.000000
-0.076336 -0.189060 0.698005 0.000000 0.000000 0.000000
-0.102875 -0.179378 0.716757 0.000000 0.000000 0.000000
-0.093302 -0.144875 0.716147 0.000000 0.000000 0.000000
-0.075596 -0.174492 0.683018 0.000000 0.000000 0.000000
-0.095798 -0.173369 0.687194 0.000000 0.000000 0.000000
-0.070865 -0.147458 0.642849 0.000000 0.000000 0.000000
-0.080657 -0.164298 0.653371 0.000000 0.000000 0.000000
-0.076306 -0.186215 0.683123 0.000000 0.000000 0.000000
-0.070160 -0.158491 0.651090 0.000000 0.000000 0.000000
-0.085995 -0.162145 0.686174 0.000000 0.000000 0.000000
-0.089288 -0.177169 0.703171 0.000000 0.000000 0.000000
-0.092636 -0.171172 0.700891 0.000000 0.000000 0.000000
-0.082812 -0.177460 0.690480 0.000000 0.000000 0.000000
-0.080981 -0.165161 0.663812 0.000000 0.000000 0.000000
-0.079249 -0.166333 0.665775 0.000000 0.000000 0.000000
-0.088014 -0.175259 0.696088 0.000000 0.000000 0.000000
-0.088056 -0.181031 0.719137 0.000000 0.000000 0.000000
-0.084349 -0.174763 0.696354 0.000000 0.000000 0.000000
-0.077550 -0.185771 0.697925 0.000000 0.000000 0.000000
-0.069620 -0.158487 0.650919 0.000000 0.000000 0.000000
-0.106208 -0.174522 0.710662 0.000000 0.000000 0.000000
-0.062806 -0.187943 0.664185 0.000000 0.000000 0.000000
-0.076372 -0.187012 0.683033 0.000000 0.000000 0.000000
-0.090601 -0.178751 0.710732 0.000000 0.000000 0.000000
-0.069449 -0.191506 0.675679 0.000000 0.000000 0.000000
-0.066927 -0.191583 0.662439 0.000000 0.000000 0.000000
-0.070626 -0.161476 0.695318 0.000000 0.000000 0.000000
-0.098878 -0.147912 0.681762 0.000000 0.000000 0.000000
-0.087719 -0.131896 0.714980 0.000000 0.000000 0.000000
-0.067494 -0.192808 0.673735 0.000000 0.000000 0.000000
-0.065412 -0.190865 0.675173 0.000000 0.000000 0.000000
-0.083329 -0.183969 0.709859 0.000000 0.000000 0.000000
-0.077830 -0.194411 0.700446 0.000000 0.000000 0.000000
-0.079284 -0.198487 0.716422 0.000000 0.000000 0.000000
-0.086296 -0.175748 0.696185 0.000000 0.000000 0.000000
-0.101203 -0.175603 0.696430 0.000000 0.000000 0.000000
-0.092785 -0.177430 0.715505 0.000000 0.000000 0.000000
-0.078753 -0.190578 0.716845 0.000000 0.000000 0.000000
-0.068808 -0.190968 0.674158 0.000000 0.000000 0.000000
-0.081052 -0.159514 0.651177 0.000000 0.000000 0.000000
-0.087833 -0.126602 0.709575 0.000000 0.000000 0.000000
-0.085893 -0.137624 0.713001 0.000000 0.000000 0.000000
-0.084923 -0.186264 0.705477 0.000000 0.000000 0.000000
-0.070259 -0.187399 0.677902 0.000000 0.000000 0.000000
-0.085420 -0.135267 0.704658 0.000000 0.000000 0.000000
-0.088494 -0.130268 0.716753 0.000000 0.000000 0.000000
-0.091773 -0.131573 0.719886 0.000000 0.000000 0.000000
-0.067873 -0.184534 0.679128 0.000000 0.000000 0.000000
-0.075917 -0.179957 0.691939 0.000000 0.000000 0.000000
-0.097201 -0.154165 0.718199 0.000000 0.000000 0.000000
-0.071681 -0.159590 0.652235 0.000000 0.000000 0.000000
-0.073428 -0.189642 0.668961 0.000000 0.000000 0.000000
-0.085262 -0.162405 0.681388 0.000000 0.000000 0.000000
-0.066525 -0.187399 0.676332 0.000000 0.000000 0.000000
-0.064680 -0.189390 0.674600 0.000000 0.000000 0.000000
-0.089102 -0.180056 0.713482 0.000000 0.000000 0.000000
-0.068444 -0.188432 0.680544 0.000000 0.000000 0.000000
-0.079200 -0.195373 0.694514 0.000000 0.000000 0.000000
-0.084586 -0.182402 0.713512 0.000000 0.000000 0.000000
-0.076595 -0.196736 0.707418 0.000000 0.000000 0.000000
-0.101657 -0.157796 0.693794 0.000000 0.000000 0.000000
-0.102543 -0.163556 0.705891 0.000000 0.000000 0.000000
-0.081164 -0.155319 0.663415 0.000000 0.000000 0.000000
-0.070859 -0.159119 0.650160 0.000000 0.000000 0.000000
-0.064050 -0.162051 0.657001 0.000000 0.000000 0.000000
-0.081646 -0.159256 0.665950 0.000000 0.000000 0.000000
-0.081138 -0.158881 0.667728 0.000000 0.000000 0.000000
-0.064859 -0.151842 0.651225 0.000000 0.000000 0.000000
-0.077064 -0.198692 0.708041 0.000000 0.000000 0.000000
-0.078760 -0.158692 0.662442 0.000000 0.000000 0.000000
-0.081842 -0.175510 0.688192 0.000000 0.000000 0.000000
-0.079621 -0.161873 0.662632 0.000000 0.000000 0.000000
-0.088440 -0.164470 0.655188 0.000000 0.000000 0.000000
-0.087009 -0.129775 0.713928 0.000000 0.000000 0.000000
-0.102124 -0.143114 0.715276 0.000000 0.000000 0.000000
-0.088211 -0.134718 0.714953 0.000000 0.000000 0.000000
-0.096062 -0.129973 0.719814 0.000000 0.000000 0.000000
-0.076455 -0.150259 0.653719 0.000000 0.000000 0.000000
-0.079938 -0.169927 0.672426 0.000000 0.000000 0.000000
-0.079024 -0.169527 0.677423 0.000000 0.000000 0.000000
-0.079911 -0.166821 0.670320 0.000000 0.000000 0.000000
-0.075621 -0.197419 0.689882 0.000000 0.000000 0.000000
-0.073333 -0.190861 0.670557 0.000000 0.000000 0.000000
-0.078882 -0.199640 0.709789 0.000000 0.000000 0.000000
-0.090929 -0.157601 0.710833 0.000000 0.000000 0.000000
-0.093856 -0.197167 0.717920 0.000000 0.000000 0.000000
-0.079277 -0.193677 0.712424 0.000000 0.000000 0.000000
-0.076330 -0.198936 0.714201 0.000000 0.000000 0.000000
-0.086970 -0.157082 0.710844 0.000000 0.000000 0.000000
-0.077896 -0.197677 0.710393 0.000000 0.000000 0.000000
-0.090157 -0.150442 0.708967 0.000000 0.000000 0.000000
-0.099775 -0.163526 0.698790 0.000000 0.000000 0.000000
-0.089559 -0.137940 0.716909 0.000000 0.000000 0.000000
-0.105248 -0.148759 0.679072 0.000000 0.000000 0.000000
-0.069835 -0.185496 0.678806 0.000000 0.000000 0.000000
-0.069292 -0.182166 0.678124 0.000000 0.000000 0.000000
-0.077686 -0.197556 0.688675 0.000000 0.000000 0.000000
-0.087608 -0.150891 0.668434 0.000000 0.000000 0.000000
-0.089725 -0.157241 0.691678 0.000000 0.000000 0.000000
-0.085381 -0.147400 0.667818 0.000000 0.000000 0.000000
-0.099182 -0.151573 0.680356 0.000000 0.000000 0.000000
-0.075188 -0.168432 0.673030 0.000000 0.000000 0.000000
-0.086245 -0.154221 0.662641 0.000000 0.000000 0.000000
-0.095422 -0.151381 0.688574 0.000000 0.000000 0.000000
-0.067744 -0.185319 0.676845 0.000000 0.000000 0.000000
-0.075458 -0.195056 0.683029 0.000000 0.000000 0.000000
-0.075530 -0.195679 0.677423 0.000000 0.000000 0.000000
-0.094066 -0.154448 0.690052 0.000000 0.000000 0.000000
-0.101622 -0.153823 0.685126 0.000000 0.000000 0.000000
-0.070179 -0.158495 0.653317 0.000000 0.000000 0.000000
-0.068550 -0.169141 0.669914 0.000000 0.000000 0.000000
-0.073256 -0.160566 0.660683 0.000000 0.000000 0.000000
-0.081864 -0.160350 0.654145 0.000000 0.000000 0.000000
-0.078300 -0.159765 0.659905 0.000000 0.000000 0.000000
-0.068157 -0.157722 0.642941 0.000000 0.000000 0.000000
-0.067153 -0.158024 0.650660 0.000000 0.000000 0.000000
-0.068509 -0.156595 0.642739 0.000000 0.000000 0.000000
-0.088529 -0.124935 0.705336 0.000000 0.000000 0.000000
-0.097309 -0.125559 0.715049 0.000000 0.000000 0.000000
-0.075042 -0.145480 0.663178 0.000000 0.000000 0.000000
-0.068001 -0.187593 0.682514 0.000000 0.000000 0.000000
-0.103190 -0.149361 0.716228 0.000000 0.000000 0.000000
-0.100580 -0.126111 0.712630 0.000000 0.000000 0.000000
-0.093595 -0.138311 0.713270 0.000000 0.000000 0.000000
-0.108523 -0.180277 0.714978 0.000000 0.000000 0.000000
-0.070298 -0.184798 0.678131 0.000000 0.000000 0.000000
-0.064972 -0.189903 0.670776 0.000000 0.000000 0.000000
-0.063362 -0.189674 0.675565 0.000000 0.000000 0.000000
-0.087202 -0.189476 0.719968 0.000000 0.000000 0.000000
-0.096286 -0.172535 0.701393 0.000000 0.000000 0.000000
-0.088044 -0.181283 0.719853 0.000000 0.000000 0.000000
-0.079973 -0.195875 0.711182 0.000000 0.000000 0.000000
-0.064292 -0.186353 0.672489 0.000000 0.000000 0.000000
-0.095305 -0.137126 0.715445 0.000000 0.000000 0.000000
-0.089707 -0.150831 0.665748 0.000000 0.000000 0.000000
-0.070939 -0.187833 0.682213 0.000000 0.000000 0.000000
-0.102771 -0.129686 0.717743 0.000000 0.000000 0.000000
-0.106295 -0.171528 0.711626 0.000000 0.000000 0.000000
-0.076489 -0.199770 0.712853 0.000000 0.000000 0.000000
-0.081005 -0.194347 0.719120 0.000000 0.000000 0.000000
-0.076891 -0.194769 0.702823 0.000000 0.000000 0.000000
-0.090573 -0.152006 0.664128 0.000000 0.000000 0.000000
-0.065958 -0.154967 0.638395 0.000000 0.000000 0.000000
-0.105795 -0.161626 0.700485 0.000000 0.000000 0.000000
-0.091407 -0.157626 0.689434 0.000000 0.000000 0.000000
-0.066931 -0.154351 0.659077 0.000000 0.000000 0.000000
-0.078917 -0.155357 0.658007 0.000000 0.000000 0.000000
-0.100109 -0.162693 0.700596 0.000000 0.000000 0.000000
-0.105040 -0.168974 0.711376 0.000000 0.000000 0.000000
-0.077952 -0.199729 0.715822 0.000000 0.000000 0.000000
-0.074008 -0.158619 0.660589 0.000000 0.000000 0.000000
-0.103613 -0.162933 0.699696 0.000000 0.000000 0.000000
-0.086563 -0.154389 0.708398 0.000000 0.000000 0.000000
-0.096269 -0.161153 0.696069 0.000000 0.000000 0.000000
-0.073030 -0.183407 0.680211 0.000000 0.000000 0.000000
-0.066091 -0.183729 0.683009 0.000000 0.000000 0.000000
-0.074233 -0.185764 0.680466 0.000000 0.000000 0.000000
-0.065172 -0.189554 0.674541 0.000000 0.000000 0.000000
-0.065221 -0.187845 0.675181 0.000000 0.000000 0.000000
-0.066022 -0.187233 0.677007 0.000000 0.000000 0.000000
-0.085825 -0.168256 0.703335 0.000000 0.000000 0.000000
-0.082803 -0.170464 0.697531 0.000000 0.000000 0.000000
-0.097847 -0.168498 0.704665 0.000000 0.000000 0.000000
-0.094140 -0.158415 0.694937 0.000000 0.000000 0.000000
-0.086391 -0.168884 0.693499 0.000000 0.000000 0.000000
-0.094995 -0.161097 0.706417 0.000000 0.000000 0.000000
-0.088962 -0.160546 0.694352 0.000000 0.000000 0.000000
-0.101499 -0.165162 0.708168 0.000000 0.000000 0.000000
-0.084339 -0.171108 0.703234 0.000000 0.000000 0.000000
-0.097480 -0.155785 0.679300 0.000000 0.000000 0.000000
-0.083622 -0.180020 0.696812 0.000000 0.000000 0.000000
-0.101365 -0.160213 0.702950 0.000000 0.000000 0.000000
-0.091728 -0.153662 0.672435 0.000000 0.000000 0.000000
-0.085779 -0.160344 0.668854 0.000000 0.000000 0.000000
-0.065680 -0.191476 0.664235 0.000000 0.000000 0.000000
-0.095699 -0.148367 0.677228 0.000000 0.000000 0.000000
-0.086074 -0.155319 0.669447 0.000000 0.000000 0.000000
-0.090339 -0.155579 0.664607 0.000000 0.000000 0.000000
-0.064661 -0.187711 0.674989 0.000000 0.000000 0.000000
-0.089037 -0.150393 0.708533 0.000000 0.000000 0.000000
-0.086762 -0.152873 0.668931 0.000000 0.000000 0.000000
-0.092756 -0.150990 0.669071 0.000000 0.000000 0.000000
-0.071801 -0.146247 0.638266 0.000000 0.000000 0.000000
-0.098745 -0.154056 0.683206 0.000000 0.000000 0.000000
-0.069787 -0.155667 0.661599 0.000000 0.000000 0.000000
-0.092423 -0.147710 0.699351 0.000000 0.000000 0.000000
-0.093623 -0.160410 0.686942 0.000000 0.000000 0.000000
-0.106010 -0.170291 0.710570 0.000000 0.000000 0.000000
-0.079565 -0.157356 0.672585 0.000000 0.000000 0.000000
-0.081810 -0.157921 0.659567 0.000000 0.000000 0.000000
-0.065581 -0.158032 0.650351 0.000000 0.000000 0.000000
-0.070785 -0.190656 0.675909 0.000000 0.000000 0.000000
-0.108353 -0.175731 0.717122 0.000000 0.000000 0.000000
-0.067473 -0.189888 0.665525 0.000000 0.000000 0.000000
-0.067209 -0.191723 0.663419 0.000000 0.000000 0.000000
-0.089801 -0.142058 0.690612 0.000000 0.000000 0.000000
-0.077168 -0.197745 0.711985 0.000000 0.000000 0.000000
-0.072191 -0.188350 0.682621 0.000000 0.000000 0.000000
-0.078032 -0.193801 0.696380 0.000000 0.000000 0.000000
-0.082945 -0.172483 0.686293 0.000000 0.000000 0.000000
-0.067792 -0.196771 0.694523 0.000000 0.000000 0.000000
-0.105805 -0.172647 0.700579 0.000000 0.000000 0.000000
-0.074310 -0.181191 0.682372 0.000000 0.000000 0.000000
-0.088457 -0.191547 0.710655 0.000000 0.000000 0.000000
-0.066756 -0.187947 0.684369 0.000000 0.000000 0.000000
-0.078689 -0.183642 0.683881 0.000000 0.000000 0.000000
-0.071135 -0.180459 0.685643 0.000000 0.000000 0.000000
-0.069127 -0.187629 0.678716 0.000000 0.000000 0.000000
-0.087719 -0.193411 0.714724 0.000000 0.000000 0.000000
-0.067859 -0.183237 0.689575 0.000000 0.000000 0.000000
-0.080760 -0.182985 0.690325 0.000000 0.000000 0.000000
-0.066208 -0.188082 0.676917 0.000000 0.000000 0.000000
-0.083629 -0.158648 0.672702 0.000000 0.000000 0.000000
-0.096044 -0.157026 0.698088 0.000000 0.000000 0.000000
-0.066838 -0.192111 0.669236 0.000000 0.000000 0.000000
-0.072780 -0.189116 0.686261 0.000000 0.000000 0.000000
-0.068133 -0.193504 0.674050 0.000000 0.000000 0.000000
-0.068401 -0.187542 0.676641 0.000000 0.000000 0.000000
-0.070574 -0.184302 0.678346 0.000000 0.000000 0.000000
-0.098018 -0.127832 0.713774 0.000000 0.000000 0.000000
-0.071724 -0.186723 0.679332 0.000000 0.000000 0.000000
-0.074727 -0.182142 0.684863 0.000000 0.000000 0.000000
-0.083873 -0.195078 0.719560 0.000000 0.000000 0.000000
-0.072335 -0.178624 0.682548 0.000000 0.000000 0.000000
-0.070406 -0.190263 0.662290 0.000000 0.000000 0.000000
-0.073371 -0.183238 0.679542 0.000000 0.000000 0.000000
-0.078136 -0.169850 0.678856 0.000000 0.000000 0.000000
-0.068080 -0.185911 0.675446 0.000000 0.000000 0.000000
-0.069865 -0.186255 0.678631 0.000000 0.000000 0.000000
-0.065214 -0.182201 0.669491 0.000000 0.000000 0.000000
-0.067558 -0.192440 0.663379 0.000000 0.000000 0.000000
-0.072504 -0.183630 0.680387 0.000000 0.000000 0.000000
-0.067937 -0.191297 0.663031 0.000000 0.000000 0.000000
-0.065125 -0.192594 0.669143 0.000000 0.000000 0.000000
-0.103430 -0.172967 0.702584 0.000000 0.000000 0.000000
-0.081878 -0.164854 0.680538 0.000000 0.000000 0.000000
-0.077193 -0.179201 0.696043 0.000000 0.000000 0.000000
-0.082284 -0.181961 0.709059 0.000000 0.000000 0.000000
-0.081121 -0.168283 0.679416 0.000000 0.000000 0.000000
-0.070168 -0.163015 0.675770 0.000000 0.000000 0.000000
-0.081958 -0.199211 0.710823 0.000000 0.000000 0.000000
-0.096019 -0.166407 0.703775 0.000000 0.000000 0.000000
-0.107782 -0.173754 0.718179 0.000000 0.000000 0.000000
-0.102894 -0.166640 0.712885 0.000000 0.000000 0.000000
-0.081202 -0.181326 0.702306 0.000000 0.000000 0.000000
-0.081524 -0.177324 0.691368 0.000000 0.000000 0.000000
-0.079089 -0.169076 0.677000 0.000000 0.000000 0.000000
-0.070565 -0.158802 0.652216 0.000000 0.000000 0.000000
-0.079197 -0.171987 0.678784 0.000000 0.000000 0.000000
-0.083525 -0.195382 0.717981 0.000000 0.000000 0.000000
-0.078425 -0.187100 0.704371 0.000000 0.000000 0.000000
-0.087844 -0.145028 0.711409 0.000000 0.000000 0.000000
-0.070695 -0.154226 0.647705 0.000000 0.000000 0.000000
-0.094391 -0.144204 0.712993 0.000000 0.000000 0.000000
-0.073194 -0.161767 0.646205 0.000000 0.000000 0.000000
-0.072642 -0.151188 0.652999 0.000000 0.000000 0.000000
-0.094210 -0.155482 0.679763 0.000000 0.000000 0.000000
-0.095555 -0.135796 0.719295 0.000000 0.000000 0.000000
-0.079988 -0.160120 0.654999 0.000000 0.000000 0.000000
-0.090368 -0.145317 0.713200 0.000000 0.000000 0.000000
-0.079450 -0.165806 0.656341 0.000000 0.000000 0.000000
-0.088516 -0.145785 0.709167 0.000000 0.000000 0.000000
-0.066640 -0.156292 0.652681 0.000000 0.000000 0.000000
-0.066962 -0.192399 0.667013 0.000000 0.000000 0.000000
-0.098440 -0.152840 0.678427 0.000000 0.000000 0.000000
-0.085497 -0.136845 0.712121 0.000000 0.000000 0.000000
-0.083134 -0.155960 0.667135 0.000000 0.000000 0.000000
-0.085971 -0.139359 0.710255 0.000000 0.000000 0.000000
-0.083627 -0.156930 0.680049 0.000000 0.000000 0.000000
-0.071386 -0.157720 0.643460 0.000000 0.000000 0.000000
-0.068341 -0.147776 0.638863 0.000000 0.000000 0.000000
-0.063621 -0.192087 0.661946 0.000000 0.000000 0.000000
-0.093001 -0.125606 0.711244 0.000000 0.000000 0.000000
-0.105591 -0.175893 0.716809 0.000000 0.000000 0.000000
-0.109509 -0.163387 0.698105 0.000000 0.000000 0.000000
-0.107793 -0.164633 0.696513 0.000000 0.000000 0.000000
-0.097217 -0.123751 0.713034 0.000000 0.000000 0.000000
-0.092488 -0.123007 0.713004 0.000000 0.000000 0.000000
-0.081263 -0.131853 0.708805 0.000000 0.000000 0.000000
-0.086749 -0.132408 0.716117 0.000000 0.000000 0.000000
-0.086175 -0.124801 0.714891 0.000000 0.000000 0.000000
-0.064530 -0.187309 0.678274 0.000000 0.000000 0.000000
-0.068778 -0.191273 0.675005 0.000000 0.000000 0.000000
-0.073903 -0.185844 0.670703 0.000000 0.000000 0.000000
-0.095699 -0.123250 0.714448 0.000000 0.000000 0.000000
-0.084927 -0.166605 0.669187 0.000000 0.000000 0.000000
-0.074054 -0.191892 0.681505 0.000000 0.000000 0.000000
-0.083996 -0.171144 0.672170 0.000000 0.000000 0.000000
-0.073419 -0.157815 0.646749 0.000000 0.000000 0.000000
-0.079139 -0.167912 0.659908 0.000000 0.000000 0.000000
-0.066087 -0.194879 0.674847 0.000000 0.000000 0.000000
-0.069009 -0.157630 0.643002 0.000000 0.000000 0.000000
-0.066136 -0.192486 0.671739 0.000000 0.000000 0.000000
-0.097353 -0.154371 0.681714 0.000000 0.000000 0.000000
-0.077665 -0.165028 0.653155 0.000000 0.000000 0.000000
-0.067784 -0.193854 0.677690 0.000000 0.000000 0.000000
-0.072860 -0.165177 0.663175 0.000000 0.000000 0.000000
-0.072028 -0.159614 0.654933 0.000000 0.000000 0.000000
-0.071620 -0.193272 0.677116 0.000000 0.000000 0.000000
-0.072579 -0.166781 0.663272 0.000000 0.000000 0.000000
-0.072986 -0.160090 0.660574 0.000000 0.000000 0.000000
-0.100202 -0.155659 0.683529 0.000000 0.000000 0.000000
-0.078919 -0.164080 0.652693 0.000000 0.000000 0.000000
-0.100198 -0.169745 0.707524 0.000000 0.000000 0.000000
-0.070470 -0.157646 0.649197 0.000000 0.000000 0.000000
-0.100692 -0.156999 0.689040 0.000000 0.000000 0.000000
-0.088395 -0.166054 0.710959 0.000000 0.000000 0.000000
-0.064182 -0.194849 0.668826 0.000000 0.000000 0.000000
-0.066590 -0.193474 0.667914 0.000000 0.000000 0.000000
-0.077625 -0.163651 0.657748 0.000000 0.000000 0.000000
-0.105233 -0.163529 0.690117 0.000000 0.000000 0.000000
-0.069926 -0.161751 0.651806 0.000000 0.000000 0.000000
-0.073228 -0.189585 0.668734 0.000000 0.000000 0.000000
-0.072342 -0.159062 0.659055 0.000000 0.000000 0.000000
-0.080838 -0.196829 0.690310 0.000000 0.000000 0.000000
-0.070217 -0.194183 0.682074 0.000000 0.000000 0.000000
-0.101573 -0.122922 0.717554 0.000000 0.000000 0.000000
-0.072064 -0.183546 0.666584 0.000000 0.000000 0.000000
-0.074812 -0.192940 0.686948 0.000000 0.000000 0.000000
-0.086272 -0.151087 0.707977 0.000000 0.000000 0.000000
-0.070716 -0.178695 0.669004 0.000000 0.000000 0.000000
-0.078076 -0.190588 0.693369 0.000000 0.000000 0.000000
-0.091910 -0.146153 0.706014 0.000000 0.000000 0.000000
-0.093348 -0.127413 0.717669 0.000000 0.000000 0.000000
-0.073991 -0.190294 0.688632 0.000000 0.000000 0.000000
-0.077360 -0.188392 0.683029 0.000000 0.000000 0.000000
-0.079743 -0.197615 0.684503 0.000000 0.000000 0.000000
-0.075327 -0.196933 0.687830 0.000000 0.000000 0.000000
-0.076142 -0.193837 0.691673 0.000000 0.000000 0.000000
-0.089937 -0.129219 0.717141 0.000000 0.000000 0.000000
-0.090567 -0.126124 0.711913 0.000000 0.000000 0.000000
-0.086576 -0.132596 0.713898 0.000000 0.000000 0.000000
-0.105725 -0.152110 0.672895 0.000000 0.000000 0.000000
-0.097476 -0.150764 0.684191 0.000000 0.000000 0.000000
-0.066184 -0.191872 0.661743 0.000000 0.000000 0.000000
-0.086519 -0.137835 0.713614 0.000000 0.000000 0.000000
-0.085438 -0.134205 0.711981 0.000000 0.000000 0.000000
-0.069983 -0.158114 0.652929 0.000000 0.000000 0.000000
-0.061837 -0.147663 0.647672 0.000000 0.000000 0.000000
-0.072805 -0.150087 0.648508 0.000000 0.000000 0.000000
-0.069909 -0.158671 0.653711 0.000000 0.000000 0.000000
-0.067339 -0.154864 0.642250 0.000000 0.000000 0.000000
-0.069026 -0.157338 0.648361 0.000000 0.000000 0.000000
-0.087343 -0.128209 0.701913 0.000000 0.000000 0.000000
-0.079942 -0.148963 0.659690 0.000000 0.000000 0.000000
-0.068289 -0.154879 0.645673 0.000000 0.000000 0.000000
-0.075527 -0.166653 0.664655 0.000000 0.000000 0.000000
-0.101412 -0.154696 0.679073 0.000000 0.000000 0.000000
-0.086364 -0.138961 0.713928 0.000000 0.000000 0.000000
-0.065838 -0.191362 0.670881 0.000000 0.000000 0.000000
-0.092360 -0.153557 0.690701 0.000000 0.000000 0.000000
-0.084573 -0.123334 0.703222 0.000000 0.000000 0.000000
-0.077752 -0.159420 0.649633 0.000000 0.000000 0.000000
-0.073802 -0.162485 0.649876 0.000000 0.000000 0.000000
-0.077070 -0.164369 0.651711 0.000000 0.000000 0.000000
-0.084419 -0.135250 0.710951 0.000000 0.000000 0.000000
-0.085506 -0.135871 0.710868 0.000000 0.000000 0.000000
-0.067205 -0.155271 0.641015 0.000000 0.000000 0.000000
-0.074435 -0.165231 0.661897 0.000000 0.000000 0.000000
-0.072689 -0.163791 0.651711 0.000000 0.000000 0.000000
-0.074238 -0.163996 0.657903 0.000000 0.000000 0.000000
-0.065290 -0.192223 0.673208 0.000000 0.000000 0.000000
-0.076286 -0.193348 0.679270 0.000000 0.000000 0.000000
-0.115762 -0.130457 0.682531 0.000000 0.000000 0.000000
-0.098498 -0.136599 0.671835 0.000000 0.000000 0.000000
-0.100442 -0.128960 0.685987 0.000000 0.000000 0.000000
-0.116369 -0.141744 0.675306 0.000000 0.000000 0.000000
-0.104340 -0.130915 0.683679 0.000000 0.000000 0.000000
-0.109797 -0.129944 0.685336 0.000000 0.000000 0.000000
-0.115913 -0.134594 0.676377 0.000000 0.000000 0.000000
-0.114573 -0.120737 0.685048 0.000000 0.000000 0.000000
-0.103062 -0.140615 0.684122 0.000000 0.000000 0.000000
-0.118052 -0.130939 0.684632 0.000000 0.000000 0.000000
-0.116620 -0.138083 0.681528 0.000000 0.000000 0.000000
-0.118442 -0.132735 0.681583 0.000000 0.000000 0.000000
-0.117764 -0.122527 0.684719 0.000000 0.000000 0.000000
-0.118017 -0.141242 0.681341 0.000000 0.000000 0.000000
-0.103814 -0.123860 0.686949 0.000000 0.000000 0.000000
-0.094828 -0.124700 0.692817 0.000000 0.000000 0.000000
-0.118945 -0.123481 0.683241 0.000000 0.000000 0.000000
-0.118425 -0.142570 0.682989 0.000000 0.000000 0.000000
-0.108148 -0.133523 0.686033 0.000000 0.000000 0.000000
-0.099148 -0.121351 0.688752 0.000000 0.000000 0.000000
-0.119133 -0.123880 0.685344 0.000000 0.000000 0.000000
-0.108990 -0.134152 0.685391 0.000000 0.000000 0.000000
-0.109339 -0.130285 0.687488 0.000000 0.000000 0.000000
-0.111669 -0.134115 0.679969 0.000000 0.000000 0.000000
-0.111683 -0.130192 0.686974 0.000000 0.000000 0.000000
-0.115571 -0.138747 0.686229 0.000000 0.000000 0.000000
-0.115937 -0.132840 0.687216 0.000000 0.000000 0.000000
-0.103594 -0.137802 0.682042 0.000000 0.000000 0.000000
-0.116408 -0.141890 0.686479 0.000000 0.000000 0.000000
-0.107442 -0.129266 0.690735 0.000000 0.000000 0.000000
-0.112976 -0.134431 0.679395 0.000000 0.000000 0.000000
-0.116685 -0.143895 0.678973 0.000000 0.000000 0.000000
-0.102465 -0.125451 0.684928 0.000000 0.000000 0.000000
-0.107883 -0.130042 0.680581 0.000000 0.000000 0.000000
-0.105690 -0.129922 0.683476 0.000000 0.000000 0.000000
-0.119494 -0.145084 0.672620 0.000000 0.000000 0.000000
-0.110331 -0.131317 0.690401 0.000000 0.000000 0.000000
-0.113979 -0.139622 0.682449 0.000000 0.000000 0.000000
-0.111041 -0.142570 0.683000 0.000000 0.000000 0.000000
-0.112969 -0.134850 0.682360 0.000000 0.000000 0.000000
-0.114245 -0.131715 0.687514 0.000000 0.000000 0.000000
-0.103780 -0.127011 0.690281 0.000000 0.000000 0.000000
-0.105467 -0.124600 0.683984 0.000000 0.000000 0.000000
-0.119027 -0.130264 0.685091 0.000000 0.000000 0.000000
-0.109167 -0.130941 0.687840 0.000000 0.000000 0.000000
-0.113265 -0.137273 0.686255 0.000000 0.000000 0.000000
-0.107674 -0.127188 0.687526 0.000000 0.000000 0.000000
-0.110907 -0.127040 0.688363 0.000000 0.000000 0.000000
