ply
format ascii 1.0
comment VCGLIB generated
obj_info Generated by SPFormer!
element vertex 853
property float x
property float y
property float z
property float nx
property float ny
property float nz
end_header
-0.072284 -0.072863 0.676938 0.000000 0.000000 0.000000
-0.070176 -0.072847 0.679809 0.000000 0.000000 0.000000
-0.069041 -0.075721 0.675724 0.000000 0.000000 0.000000
-0.073833 -0.068676 0.668679 0.000000 0.000000 0.000000
-0.073673 -0.068646 0.674481 0.000000 0.000000 0.000000
-0.074514 -0.068897 0.672790 0.000000 0.000000 0.000000
-0.071034 -0.074339 0.675125 0.000000 0.000000 0.000000
-0.075183 -0.066199 0.668548 0.000000 0.000000 0.000000
-0.073482 -0.061822 0.665775 0.000000 0.000000 0.000000
-0.075280 -0.071747 0.665615 0.000000 0.000000 0.000000
-0.070815 -0.068043 0.674603 0.000000 0.000000 0.000000
-0.074678 -0.069253 0.671275 0.000000 0.000000 0.000000
-0.071610 -0.064016 0.667071 0.000000 0.000000 0.000000
-0.071025 -0.078585 0.678960 0.000000 0.000000 0.000000
-0.072383 -0.067371 0.666238 0.000000 0.000000 0.000000
-0.074104 -0.067703 0.670983 0.000000 0.000000 0.000000
-0.073144 -0.073828 0.679204 0.000000 0.000000 0.000000
-0.072182 -0.066078 0.670909 0.000000 0.000000 0.000000
-0.072971 -0.070741 0.677853 0.000000 0.000000 0.000000
-0.074975 -0.065847 0.670779 0.000000 0.000000 0.000000
-0.076916 -0.064443 0.663861 0.000000 0.000000 0.000000
-0.074627 -0.072065 0.677664 0.000000 0.000000 0.000000
-0.074035 -0.066123 0.670818 0.000000 0.000000 0.000000
-0.069755 -0.070923 0.679059 0.000000 0.000000 0.000000
-0.074976 -0.075914 0.676579 0.000000 0.000000 0.000000
-0.071135 -0.069876 0.662735 0.000000 0.000000 0.000000
-0.075755 -0.066065 0.662064 0.000000 0.000000 0.000000
-0.074971 -0.071793 0.673198 0.000000 0.000000 0.000000
-0.072202 -0.064480 0.662674 0.000000 0.000000 0.000000
-0.072682 -0.063876 0.660644 0.000000 0.000000 0.000000
-0.073022 -0.074164 0.679799 0.000000 0.000000 0.000000
-0.074134 -0.073698 0.679586 0.000000 0.000000 0.000000
-0.073270 -0.072329 0.676491 0.000000 0.000000 0.000000
-0.071892 -0.069307 0.672857 0.000000 0.000000 0.000000
-0.070310 -0.071585 0.671383 0.000000 0.000000 0.000000
-0.071322 -0.071524 0.674303 0.000000 0.000000 0.000000
-0.074358 -0.069500 0.666279 0.000000 0.000000 0.000000
-0.072603 -0.072948 0.672543 0.000000 0.000000 0.000000
-0.074926 -0.067673 0.664836 0.000000 0.000000 0.000000
-0.040229 -0.065386 0.676787 0.000000 0.000000 0.000000
-0.043156 -0.056293 0.674872 0.000000 0.000000 0.000000
-0.047726 -0.062477 0.677556 0.000000 0.000000 0.000000
-0.040953 -0.064981 0.679128 0.000000 0.000000 0.000000
-0.042796 -0.053972 0.676547 0.000000 0.000000 0.000000
-0.048542 -0.061115 0.674702 0.000000 0.000000 0.000000
-0.098178 -0.060886 0.530463 0.000000 0.000000 0.000000
-0.096032 -0.058149 0.448669 0.000000 0.000000 0.000000
-0.081777 -0.080858 0.597037 0.000000 0.000000 0.000000
-0.071329 -0.052449 0.585929 0.000000 0.000000 0.000000
-0.069610 -0.056252 0.604722 0.000000 0.000000 0.000000
-0.099312 -0.057940 0.509617 0.000000 0.000000 0.000000
-0.088063 -0.059811 0.530443 0.000000 0.000000 0.000000
-0.085942 -0.063167 0.466251 0.000000 0.000000 0.000000
-0.087143 -0.059741 0.499978 0.000000 0.000000 0.000000
-0.089261 -0.053947 0.505915 0.000000 0.000000 0.000000
-0.100942 -0.060720 0.502729 0.000000 0.000000 0.000000
-0.111030 -0.074872 0.498011 0.000000 0.000000 0.000000
-0.058545 -0.049962 0.592867 0.000000 0.000000 0.000000
-0.093760 -0.066981 0.566569 0.000000 0.000000 0.000000
-0.072729 -0.057493 0.505654 0.000000 0.000000 0.000000
-0.067873 -0.051475 0.537876 0.000000 0.000000 0.000000
-0.097867 -0.061780 0.498130 0.000000 0.000000 0.000000
-0.084559 -0.047003 0.463611 0.000000 0.000000 0.000000
-0.091471 -0.049865 0.452585 0.000000 0.000000 0.000000
-0.094487 -0.049824 0.444617 0.000000 0.000000 0.000000
-0.091804 -0.053785 0.493966 0.000000 0.000000 0.000000
-0.079973 -0.066482 0.523522 0.000000 0.000000 0.000000
-0.090656 -0.051182 0.466704 0.000000 0.000000 0.000000
-0.078688 -0.059635 0.470924 0.000000 0.000000 0.000000
-0.089535 -0.049829 0.455530 0.000000 0.000000 0.000000
-0.091883 -0.070610 0.516326 0.000000 0.000000 0.000000
-0.097226 -0.052080 0.422089 0.000000 0.000000 0.000000
-0.054770 -0.044933 0.575846 0.000000 0.000000 0.000000
-0.094407 -0.064588 0.560064 0.000000 0.000000 0.000000
-0.082961 -0.057898 0.514461 0.000000 0.000000 0.000000
-0.086222 -0.062421 0.483794 0.000000 0.000000 0.000000
-0.070058 -0.062409 0.613987 0.000000 0.000000 0.000000
-0.100169 -0.063391 0.448709 0.000000 0.000000 0.000000
-0.107548 -0.080061 0.558562 0.000000 0.000000 0.000000
-0.090814 -0.052243 0.450475 0.000000 0.000000 0.000000
-0.088751 -0.048568 0.464618 0.000000 0.000000 0.000000
-0.086248 -0.071931 0.559419 0.000000 0.000000 0.000000
-0.095568 -0.050904 0.484870 0.000000 0.000000 0.000000
-0.094416 -0.056147 0.501468 0.000000 0.000000 0.000000
-0.107481 -0.060253 0.447129 0.000000 0.000000 0.000000
-0.054629 -0.041290 0.534380 0.000000 0.000000 0.000000
-0.093722 -0.050035 0.473473 0.000000 0.000000 0.000000
-0.102099 -0.063975 0.439992 0.000000 0.000000 0.000000
-0.101542 -0.063011 0.497387 0.000000 0.000000 0.000000
-0.072064 -0.062627 0.631132 0.000000 0.000000 0.000000
-0.075391 -0.061216 0.602010 0.000000 0.000000 0.000000
-0.080441 -0.076416 0.545794 0.000000 0.000000 0.000000
-0.074612 -0.051754 0.504778 0.000000 0.000000 0.000000
-0.081034 -0.052682 0.522198 0.000000 0.000000 0.000000
-0.072866 -0.052293 0.583314 0.000000 0.000000 0.000000
-0.070267 -0.059610 0.628389 0.000000 0.000000 0.000000
-0.071209 -0.058518 0.566188 0.000000 0.000000 0.000000
-0.096229 -0.051473 0.427811 0.000000 0.000000 0.000000
-0.095648 -0.061031 0.461011 0.000000 0.000000 0.000000
-0.103855 -0.067528 0.455948 0.000000 0.000000 0.000000
-0.106153 -0.067380 0.458864 0.000000 0.000000 0.000000
-0.060658 -0.045547 0.556512 0.000000 0.000000 0.000000
-0.099878 -0.057847 0.456855 0.000000 0.000000 0.000000
-0.104776 -0.063175 0.477972 0.000000 0.000000 0.000000
-0.103080 -0.064239 0.463340 0.000000 0.000000 0.000000
-0.082279 -0.062381 0.475397 0.000000 0.000000 0.000000
-0.101206 -0.061427 0.469428 0.000000 0.000000 0.000000
-0.102859 -0.063029 0.504247 0.000000 0.000000 0.000000
-0.061585 -0.052918 0.587031 0.000000 0.000000 0.000000
-0.069235 -0.049773 0.568211 0.000000 0.000000 0.000000
-0.065681 -0.053085 0.607322 0.000000 0.000000 0.000000
-0.088093 -0.047992 0.495822 0.000000 0.000000 0.000000
-0.068354 -0.060686 0.627631 0.000000 0.000000 0.000000
-0.073190 -0.069412 0.627799 0.000000 0.000000 0.000000
-0.058726 -0.056139 0.620338 0.000000 0.000000 0.000000
-0.070523 -0.053083 0.579388 0.000000 0.000000 0.000000
-0.090487 -0.050184 0.451417 0.000000 0.000000 0.000000
-0.060489 -0.048779 0.536412 0.000000 0.000000 0.000000
-0.094124 -0.074573 0.609342 0.000000 0.000000 0.000000
-0.075964 -0.063932 0.581300 0.000000 0.000000 0.000000
-0.055690 -0.055430 0.632444 0.000000 0.000000 0.000000
-0.069074 -0.047344 0.512388 0.000000 0.000000 0.000000
-0.056364 -0.058465 0.638878 0.000000 0.000000 0.000000
-0.070831 -0.042322 0.477667 0.000000 0.000000 0.000000
-0.109120 -0.071544 0.454235 0.000000 0.000000 0.000000
-0.093408 -0.049933 0.455042 0.000000 0.000000 0.000000
-0.104709 -0.052617 0.414932 0.000000 0.000000 0.000000
-0.088004 -0.049386 0.454225 0.000000 0.000000 0.000000
-0.086757 -0.052753 0.535329 0.000000 0.000000 0.000000
-0.096381 -0.061710 0.526191 0.000000 0.000000 0.000000
-0.092632 -0.061604 0.526072 0.000000 0.000000 0.000000
-0.078067 -0.051849 0.536431 0.000000 0.000000 0.000000
-0.071735 -0.056172 0.591711 0.000000 0.000000 0.000000
-0.087180 -0.070084 0.594386 0.000000 0.000000 0.000000
-0.100145 -0.060064 0.512491 0.000000 0.000000 0.000000
-0.068029 -0.053827 0.551177 0.000000 0.000000 0.000000
-0.086509 -0.049694 0.511604 0.000000 0.000000 0.000000
-0.081811 -0.048800 0.515716 0.000000 0.000000 0.000000
-0.065022 -0.050389 0.583861 0.000000 0.000000 0.000000
-0.113315 -0.070696 0.478297 0.000000 0.000000 0.000000
-0.104894 -0.063217 0.443996 0.000000 0.000000 0.000000
-0.087942 -0.047600 0.433354 0.000000 0.000000 0.000000
-0.073201 -0.051070 0.570271 0.000000 0.000000 0.000000
-0.101748 -0.063589 0.437196 0.000000 0.000000 0.000000
-0.092675 -0.056580 0.473742 0.000000 0.000000 0.000000
-0.086905 -0.048222 0.468398 0.000000 0.000000 0.000000
-0.091871 -0.056065 0.489582 0.000000 0.000000 0.000000
-0.101011 -0.067572 0.508188 0.000000 0.000000 0.000000
-0.096668 -0.063697 0.465127 0.000000 0.000000 0.000000
-0.051837 -0.039667 0.541290 0.000000 0.000000 0.000000
-0.074629 -0.046293 0.522376 0.000000 0.000000 0.000000
-0.099226 -0.058117 0.470666 0.000000 0.000000 0.000000
-0.086303 -0.046059 0.462837 0.000000 0.000000 0.000000
-0.082275 -0.065115 0.596198 0.000000 0.000000 0.000000
-0.053773 -0.054302 0.588582 0.000000 0.000000 0.000000
-0.060431 -0.044997 0.553847 0.000000 0.000000 0.000000
-0.084489 -0.070739 0.507912 0.000000 0.000000 0.000000
-0.100772 -0.059048 0.465427 0.000000 0.000000 0.000000
-0.096359 -0.057978 0.517380 0.000000 0.000000 0.000000
-0.100260 -0.065786 0.498864 0.000000 0.000000 0.000000
-0.091516 -0.049301 0.475828 0.000000 0.000000 0.000000
-0.096602 -0.056378 0.431450 0.000000 0.000000 0.000000
-0.092612 -0.075303 0.617306 0.000000 0.000000 0.000000
-0.091441 -0.051582 0.440211 0.000000 0.000000 0.000000
-0.105550 -0.067439 0.461158 0.000000 0.000000 0.000000
-0.102692 -0.060909 0.484607 0.000000 0.000000 0.000000
-0.083955 -0.073181 0.628278 0.000000 0.000000 0.000000
-0.088562 -0.050994 0.435352 0.000000 0.000000 0.000000
-0.100860 -0.061175 0.440228 0.000000 0.000000 0.000000
-0.054889 -0.048608 0.600385 0.000000 0.000000 0.000000
-0.095115 -0.061266 0.475650 0.000000 0.000000 0.000000
-0.104965 -0.065096 0.506965 0.000000 0.000000 0.000000
-0.073153 -0.049724 0.532181 0.000000 0.000000 0.000000
-0.081174 -0.052860 0.505190 0.000000 0.000000 0.000000
-0.056658 -0.053346 0.611399 0.000000 0.000000 0.000000
-0.070982 -0.061745 0.629990 0.000000 0.000000 0.000000
-0.074412 -0.075133 0.602238 0.000000 0.000000 0.000000
-0.100430 -0.062890 0.468125 0.000000 0.000000 0.000000
-0.071380 -0.060932 0.607568 0.000000 0.000000 0.000000
-0.072886 -0.045652 0.536074 0.000000 0.000000 0.000000
-0.079415 -0.056650 0.563569 0.000000 0.000000 0.000000
-0.096592 -0.051336 0.423297 0.000000 0.000000 0.000000
-0.100959 -0.049491 0.426265 0.000000 0.000000 0.000000
-0.099081 -0.060739 0.495430 0.000000 0.000000 0.000000
-0.104544 -0.066932 0.490283 0.000000 0.000000 0.000000
-0.082022 -0.048432 0.492943 0.000000 0.000000 0.000000
-0.071380 -0.056938 0.617326 0.000000 0.000000 0.000000
-0.075294 -0.060801 0.603247 0.000000 0.000000 0.000000
-0.098653 -0.057164 0.456841 0.000000 0.000000 0.000000
-0.104871 -0.070231 0.448499 0.000000 0.000000 0.000000
-0.100804 -0.057115 0.456325 0.000000 0.000000 0.000000
-0.097132 -0.060124 0.524194 0.000000 0.000000 0.000000
-0.077979 -0.055670 0.513945 0.000000 0.000000 0.000000
-0.083615 -0.062585 0.581320 0.000000 0.000000 0.000000
-0.040624 -0.043132 0.565591 0.000000 0.000000 0.000000
-0.062209 -0.047573 0.567518 0.000000 0.000000 0.000000
-0.074943 -0.059198 0.603306 0.000000 0.000000 0.000000
-0.098658 -0.051316 0.445959 0.000000 0.000000 0.000000
-0.062121 -0.051385 0.577781 0.000000 0.000000 0.000000
-0.105127 -0.070341 0.534795 0.000000 0.000000 0.000000
-0.069783 -0.057129 0.569959 0.000000 0.000000 0.000000
-0.083359 -0.060397 0.609052 0.000000 0.000000 0.000000
-0.082771 -0.050071 0.525949 0.000000 0.000000 0.000000
-0.084747 -0.066235 0.560635 0.000000 0.000000 0.000000
-0.107104 -0.068965 0.477885 0.000000 0.000000 0.000000
-0.048653 -0.038784 0.536964 0.000000 0.000000 0.000000
-0.071056 -0.062689 0.618861 0.000000 0.000000 0.000000
-0.091751 -0.052287 0.502805 0.000000 0.000000 0.000000
-0.086896 -0.071326 0.609900 0.000000 0.000000 0.000000
-0.080159 -0.044810 0.471253 0.000000 0.000000 0.000000
-0.083102 -0.065142 0.590277 0.000000 0.000000 0.000000
-0.098913 -0.055980 0.494815 0.000000 0.000000 0.000000
-0.070416 -0.046799 0.533651 0.000000 0.000000 0.000000
-0.097862 -0.059359 0.438567 0.000000 0.000000 0.000000
-0.089111 -0.049114 0.426598 0.000000 0.000000 0.000000
-0.068217 -0.049566 0.583401 0.000000 0.000000 0.000000
-0.103496 -0.066669 0.450101 0.000000 0.000000 0.000000
-0.096991 -0.057728 0.458940 0.000000 0.000000 0.000000
-0.103259 -0.066322 0.452813 0.000000 0.000000 0.000000
-0.093654 -0.054032 0.481210 0.000000 0.000000 0.000000
-0.102290 -0.069909 0.477112 0.000000 0.000000 0.000000
-0.062542 -0.040554 0.518072 0.000000 0.000000 0.000000
-0.086472 -0.058166 0.477756 0.000000 0.000000 0.000000
-0.088675 -0.085079 0.601809 0.000000 0.000000 0.000000
-0.104052 -0.065711 0.459787 0.000000 0.000000 0.000000
-0.068962 -0.061258 0.631737 0.000000 0.000000 0.000000
-0.067663 -0.048831 0.507264 0.000000 0.000000 0.000000
-0.063729 -0.056318 0.617274 0.000000 0.000000 0.000000
-0.083931 -0.047518 0.457952 0.000000 0.000000 0.000000
-0.056890 -0.049197 0.598788 0.000000 0.000000 0.000000
-0.102265 -0.084113 0.613850 0.000000 0.000000 0.000000
-0.062464 -0.040494 0.531716 0.000000 0.000000 0.000000
-0.112713 -0.074893 0.504918 0.000000 0.000000 0.000000
-0.050019 -0.045141 0.587015 0.000000 0.000000 0.000000
-0.073587 -0.065858 0.629483 0.000000 0.000000 0.000000
-0.064533 -0.049523 0.592630 0.000000 0.000000 0.000000
-0.078849 -0.064673 0.594921 0.000000 0.000000 0.000000
-0.074581 -0.054286 0.542389 0.000000 0.000000 0.000000
-0.103747 -0.062845 0.464258 0.000000 0.000000 0.000000
-0.102249 -0.058507 0.463328 0.000000 0.000000 0.000000
-0.055312 -0.044234 0.556887 0.000000 0.000000 0.000000
-0.089283 -0.053229 0.466112 0.000000 0.000000 0.000000
-0.076713 -0.061091 0.605184 0.000000 0.000000 0.000000
-0.104867 -0.071101 0.555431 0.000000 0.000000 0.000000
-0.103523 -0.080688 0.585692 0.000000 0.000000 0.000000
-0.102707 -0.064724 0.435414 0.000000 0.000000 0.000000
-0.100758 -0.060092 0.461086 0.000000 0.000000 0.000000
-0.103645 -0.067458 0.446852 0.000000 0.000000 0.000000
-0.103151 -0.061468 0.443012 0.000000 0.000000 0.000000
-0.078133 -0.064330 0.589429 0.000000 0.000000 0.000000
-0.104517 -0.074995 0.569613 0.000000 0.000000 0.000000
-0.083607 -0.050533 0.502041 0.000000 0.000000 0.000000
-0.079628 -0.042335 0.457150 0.000000 0.000000 0.000000
-0.084063 -0.046153 0.462814 0.000000 0.000000 0.000000
-0.112654 -0.071935 0.475767 0.000000 0.000000 0.000000
-0.079293 -0.069363 0.572566 0.000000 0.000000 0.000000
-0.064495 -0.051057 0.574528 0.000000 0.000000 0.000000
-0.091092 -0.075141 0.613173 0.000000 0.000000 0.000000
-0.069999 -0.046952 0.544181 0.000000 0.000000 0.000000
-0.106055 -0.065281 0.509775 0.000000 0.000000 0.000000
-0.080458 -0.053192 0.566765 0.000000 0.000000 0.000000
-0.089114 -0.073612 0.572808 0.000000 0.000000 0.000000
-0.097797 -0.057193 0.494529 0.000000 0.000000 0.000000
-0.061364 -0.050230 0.586050 0.000000 0.000000 0.000000
-0.074341 -0.066370 0.608080 0.000000 0.000000 0.000000
-0.095218 -0.061062 0.537714 0.000000 0.000000 0.000000
-0.069348 -0.041253 0.485138 0.000000 0.000000 0.000000
-0.086549 -0.048621 0.480019 0.000000 0.000000 0.000000
-0.094637 -0.085589 0.582232 0.000000 0.000000 0.000000
-0.104634 -0.064669 0.473128 0.000000 0.000000 0.000000
-0.112148 -0.074074 0.515263 0.000000 0.000000 0.000000
-0.091082 -0.064423 0.509707 0.000000 0.000000 0.000000
-0.073782 -0.054106 0.553973 0.000000 0.000000 0.000000
-0.068347 -0.055456 0.605785 0.000000 0.000000 0.000000
-0.104125 -0.062053 0.520857 0.000000 0.000000 0.000000
-0.095587 -0.077008 0.594348 0.000000 0.000000 0.000000
-0.066611 -0.046067 0.549158 0.000000 0.000000 0.000000
-0.083254 -0.069073 0.615868 0.000000 0.000000 0.000000
-0.073257 -0.054236 0.535146 0.000000 0.000000 0.000000
-0.088878 -0.049870 0.496518 0.000000 0.000000 0.000000
-0.074002 -0.047243 0.516293 0.000000 0.000000 0.000000
-0.088474 -0.076592 0.622971 0.000000 0.000000 0.000000
-0.100209 -0.065191 0.544639 0.000000 0.000000 0.000000
-0.041669 -0.039248 0.578314 0.000000 0.000000 0.000000
-0.102568 -0.063905 0.465664 0.000000 0.000000 0.000000
-0.099777 -0.058751 0.439609 0.000000 0.000000 0.000000
-0.090090 -0.050546 0.469471 0.000000 0.000000 0.000000
-0.081871 -0.055234 0.509984 0.000000 0.000000 0.000000
-0.059761 -0.041906 0.526587 0.000000 0.000000 0.000000
-0.103809 -0.062687 0.490657 0.000000 0.000000 0.000000
-0.067355 -0.051132 0.567225 0.000000 0.000000 0.000000
-0.097437 -0.078119 0.598438 0.000000 0.000000 0.000000
-0.053763 -0.049502 0.581829 0.000000 0.000000 0.000000
-0.110711 -0.082121 0.585313 0.000000 0.000000 0.000000
-0.066421 -0.057514 0.604029 0.000000 0.000000 0.000000
-0.061342 -0.051556 0.617973 0.000000 0.000000 0.000000
-0.087712 -0.074521 0.609668 0.000000 0.000000 0.000000
-0.086305 -0.067613 0.587881 0.000000 0.000000 0.000000
-0.099571 -0.057685 0.470365 0.000000 0.000000 0.000000
-0.067002 -0.042513 0.522194 0.000000 0.000000 0.000000
-0.043905 -0.045536 0.568860 0.000000 0.000000 0.000000
-0.079084 -0.075624 0.602964 0.000000 0.000000 0.000000
-0.088998 -0.071980 0.601717 0.000000 0.000000 0.000000
-0.088856 -0.079437 0.592939 0.000000 0.000000 0.000000
-0.068983 -0.051106 0.567801 0.000000 0.000000 0.000000
-0.062967 -0.047939 0.557466 0.000000 0.000000 0.000000
-0.070798 -0.043745 0.512867 0.000000 0.000000 0.000000
-0.078996 -0.064969 0.563857 0.000000 0.000000 0.000000
-0.091015 -0.073526 0.595836 0.000000 0.000000 0.000000
-0.087095 -0.064649 0.530986 0.000000 0.000000 0.000000
-0.097373 -0.054005 0.424173 0.000000 0.000000 0.000000
-0.063722 -0.055147 0.596388 0.000000 0.000000 0.000000
-0.109798 -0.078985 0.593214 0.000000 0.000000 0.000000
-0.052622 -0.043076 0.567484 0.000000 0.000000 0.000000
-0.057018 -0.056802 0.585033 0.000000 0.000000 0.000000
-0.109936 -0.073167 0.510683 0.000000 0.000000 0.000000
-0.093006 -0.065902 0.559355 0.000000 0.000000 0.000000
-0.087719 -0.068491 0.543039 0.000000 0.000000 0.000000
-0.062286 -0.056663 0.623265 0.000000 0.000000 0.000000
-0.066487 -0.050681 0.577857 0.000000 0.000000 0.000000
-0.089385 -0.053260 0.479551 0.000000 0.000000 0.000000
-0.038758 -0.045192 0.591660 0.000000 0.000000 0.000000
-0.070015 -0.061839 0.622075 0.000000 0.000000 0.000000
-0.043059 -0.042328 0.576517 0.000000 0.000000 0.000000
-0.080109 -0.048212 0.487829 0.000000 0.000000 0.000000
-0.049258 -0.042065 0.563642 0.000000 0.000000 0.000000
-0.100816 -0.060325 0.437304 0.000000 0.000000 0.000000
-0.102266 -0.064341 0.495427 0.000000 0.000000 0.000000
-0.076769 -0.051646 0.519416 0.000000 0.000000 0.000000
-0.083875 -0.048838 0.478800 0.000000 0.000000 0.000000
-0.054450 -0.057261 0.588358 0.000000 0.000000 0.000000
-0.044961 -0.037107 0.536187 0.000000 0.000000 0.000000
-0.090551 -0.059174 0.521578 0.000000 0.000000 0.000000
-0.079907 -0.050709 0.528881 0.000000 0.000000 0.000000
-0.114357 -0.080871 0.527191 0.000000 0.000000 0.000000
-0.068987 -0.046741 0.538409 0.000000 0.000000 0.000000
-0.044314 -0.042928 0.574806 0.000000 0.000000 0.000000
-0.108967 -0.081976 0.559493 0.000000 0.000000 0.000000
-0.100329 -0.073639 0.538745 0.000000 0.000000 0.000000
-0.101978 -0.068783 0.541170 0.000000 0.000000 0.000000
-0.099037 -0.060034 0.472710 0.000000 0.000000 0.000000
-0.090415 -0.061830 0.446717 0.000000 0.000000 0.000000
-0.094905 -0.053811 0.473562 0.000000 0.000000 0.000000
-0.097041 -0.058202 0.472247 0.000000 0.000000 0.000000
-0.059353 -0.055449 0.626587 0.000000 0.000000 0.000000
-0.109674 -0.073908 0.532946 0.000000 0.000000 0.000000
-0.041115 -0.044009 0.572690 0.000000 0.000000 0.000000
-0.086253 -0.076642 0.599275 0.000000 0.000000 0.000000
-0.107777 -0.070396 0.481247 0.000000 0.000000 0.000000
-0.064543 -0.058911 0.614468 0.000000 0.000000 0.000000
-0.068674 -0.049652 0.534161 0.000000 0.000000 0.000000
-0.081514 -0.046500 0.479414 0.000000 0.000000 0.000000
-0.097303 -0.063190 0.535290 0.000000 0.000000 0.000000
-0.068966 -0.060866 0.595267 0.000000 0.000000 0.000000
-0.100706 -0.061538 0.429947 0.000000 0.000000 0.000000
-0.097333 -0.081285 0.598427 0.000000 0.000000 0.000000
-0.082767 -0.052077 0.469104 0.000000 0.000000 0.000000
-0.078170 -0.073293 0.585245 0.000000 0.000000 0.000000
-0.085282 -0.081277 0.600996 0.000000 0.000000 0.000000
-0.063608 -0.046010 0.552193 0.000000 0.000000 0.000000
-0.084505 -0.048663 0.491252 0.000000 0.000000 0.000000
-0.098385 -0.076504 0.610309 0.000000 0.000000 0.000000
-0.057751 -0.043216 0.555114 0.000000 0.000000 0.000000
-0.053056 -0.048269 0.572362 0.000000 0.000000 0.000000
-0.050449 -0.044124 0.576101 0.000000 0.000000 0.000000
-0.101857 -0.059168 0.447347 0.000000 0.000000 0.000000
-0.102266 -0.064763 0.444945 0.000000 0.000000 0.000000
-0.095814 -0.067367 0.570272 0.000000 0.000000 0.000000
-0.093807 -0.073247 0.603226 0.000000 0.000000 0.000000
-0.111758 -0.075593 0.536977 0.000000 0.000000 0.000000
-0.066497 -0.051556 0.565944 0.000000 0.000000 0.000000
-0.096656 -0.063449 0.534124 0.000000 0.000000 0.000000
-0.060132 -0.047984 0.563772 0.000000 0.000000 0.000000
-0.062695 -0.044127 0.529309 0.000000 0.000000 0.000000
-0.112429 -0.074287 0.504225 0.000000 0.000000 0.000000
-0.055318 -0.045316 0.563279 0.000000 0.000000 0.000000
-0.062435 -0.064356 0.610564 0.000000 0.000000 0.000000
-0.094943 -0.053527 0.492818 0.000000 0.000000 0.000000
-0.056741 -0.051837 0.580281 0.000000 0.000000 0.000000
-0.094734 -0.060206 0.501828 0.000000 0.000000 0.000000
-0.036726 -0.039898 0.580727 0.000000 0.000000 0.000000
-0.087818 -0.080397 0.625011 0.000000 0.000000 0.000000
-0.055080 -0.061444 0.582653 0.000000 0.000000 0.000000
-0.086361 -0.062886 0.541795 0.000000 0.000000 0.000000
-0.102340 -0.064407 0.450462 0.000000 0.000000 0.000000
-0.114014 -0.068419 0.479063 0.000000 0.000000 0.000000
-0.098845 -0.062882 0.431800 0.000000 0.000000 0.000000
-0.058428 -0.056154 0.606071 0.000000 0.000000 0.000000
-0.074408 -0.049928 0.527285 0.000000 0.000000 0.000000
-0.086628 -0.078691 0.614999 0.000000 0.000000 0.000000
-0.079807 -0.082137 0.621359 0.000000 0.000000 0.000000
-0.062368 -0.049816 0.560276 0.000000 0.000000 0.000000
-0.074471 -0.046925 0.496507 0.000000 0.000000 0.000000
-0.058335 -0.051364 0.588762 0.000000 0.000000 0.000000
-0.114589 -0.078389 0.507800 0.000000 0.000000 0.000000
-0.079390 -0.062093 0.554080 0.000000 0.000000 0.000000
-0.080963 -0.069193 0.561319 0.000000 0.000000 0.000000
-0.048852 -0.042367 0.571367 0.000000 0.000000 0.000000
-0.076718 -0.045559 0.530119 0.000000 0.000000 0.000000
-0.053838 -0.049764 0.608606 0.000000 0.000000 0.000000
-0.079924 -0.065326 0.618345 0.000000 0.000000 0.000000
-0.079411 -0.069152 0.598943 0.000000 0.000000 0.000000
-0.072667 -0.055736 0.607490 0.000000 0.000000 0.000000
-0.093437 -0.046136 0.465979 0.000000 0.000000 0.000000
-0.042800 -0.044591 0.559705 0.000000 0.000000 0.000000
-0.108271 -0.069328 0.491134 0.000000 0.000000 0.000000
-0.097621 -0.055223 0.448265 0.000000 0.000000 0.000000
-0.098767 -0.059347 0.479874 0.000000 0.000000 0.000000
-0.088430 -0.081022 0.585577 0.000000 0.000000 0.000000
-0.093880 -0.061209 0.552897 0.000000 0.000000 0.000000
-0.086181 -0.055320 0.539453 0.000000 0.000000 0.000000
-0.085273 -0.076542 0.592673 0.000000 0.000000 0.000000
-0.075418 -0.048734 0.532989 0.000000 0.000000 0.000000
-0.095770 -0.074631 0.612808 0.000000 0.000000 0.000000
-0.088721 -0.079554 0.579681 0.000000 0.000000 0.000000
-0.081282 -0.074653 0.609636 0.000000 0.000000 0.000000
-0.094821 -0.058595 0.533977 0.000000 0.000000 0.000000
-0.111813 -0.070621 0.481706 0.000000 0.000000 0.000000
-0.096153 -0.071082 0.540778 0.000000 0.000000 0.000000
-0.101672 -0.060851 0.487207 0.000000 0.000000 0.000000
-0.105447 -0.071762 0.539637 0.000000 0.000000 0.000000
-0.092744 -0.078623 0.607926 0.000000 0.000000 0.000000
-0.082284 -0.076275 0.620424 0.000000 0.000000 0.000000
-0.048611 -0.043454 0.573066 0.000000 0.000000 0.000000
-0.059339 -0.044913 0.581481 0.000000 0.000000 0.000000
-0.049053 -0.058076 0.611895 0.000000 0.000000 0.000000
-0.063847 -0.052693 0.572168 0.000000 0.000000 0.000000
-0.061930 -0.056996 0.599347 0.000000 0.000000 0.000000
-0.084985 -0.081107 0.604565 0.000000 0.000000 0.000000
-0.102575 -0.065711 0.476494 0.000000 0.000000 0.000000
-0.074606 -0.049846 0.474951 0.000000 0.000000 0.000000
-0.093267 -0.052930 0.439167 0.000000 0.000000 0.000000
-0.111880 -0.086004 0.590585 0.000000 0.000000 0.000000
-0.098783 -0.056968 0.468284 0.000000 0.000000 0.000000
-0.080037 -0.062464 0.597858 0.000000 0.000000 0.000000
-0.086970 -0.055259 0.541354 0.000000 0.000000 0.000000
-0.067327 -0.042574 0.512653 0.000000 0.000000 0.000000
-0.060804 -0.057658 0.602920 0.000000 0.000000 0.000000
-0.094592 -0.061585 0.533167 0.000000 0.000000 0.000000
-0.097942 -0.083968 0.578427 0.000000 0.000000 0.000000
-0.071830 -0.056038 0.598745 0.000000 0.000000 0.000000
-0.064526 -0.055716 0.614825 0.000000 0.000000 0.000000
-0.100641 -0.068572 0.541753 0.000000 0.000000 0.000000
-0.083674 -0.071707 0.625873 0.000000 0.000000 0.000000
-0.058440 -0.039565 0.516235 0.000000 0.000000 0.000000
-0.100826 -0.063622 0.443419 0.000000 0.000000 0.000000
-0.091961 -0.061233 0.500014 0.000000 0.000000 0.000000
-0.045523 -0.043968 0.595717 0.000000 0.000000 0.000000
-0.056402 -0.039681 0.569319 0.000000 0.000000 0.000000
-0.077681 -0.065192 0.610218 0.000000 0.000000 0.000000
-0.059803 -0.053720 0.597677 0.000000 0.000000 0.000000
-0.044736 -0.040738 0.563150 0.000000 0.000000 0.000000
-0.101439 -0.056669 0.419711 0.000000 0.000000 0.000000
-0.064957 -0.043619 0.547621 0.000000 0.000000 0.000000
-0.071329 -0.053306 0.594177 0.000000 0.000000 0.000000
-0.053755 -0.046066 0.602203 0.000000 0.000000 0.000000
-0.063152 -0.054365 0.557519 0.000000 0.000000 0.000000
-0.075250 -0.044547 0.490960 0.000000 0.000000 0.000000
-0.059811 -0.050687 0.584441 0.000000 0.000000 0.000000
-0.068581 -0.042338 0.503459 0.000000 0.000000 0.000000
-0.085874 -0.046434 0.507638 0.000000 0.000000 0.000000
-0.055146 -0.052855 0.570549 0.000000 0.000000 0.000000
-0.093682 -0.053429 0.479214 0.000000 0.000000 0.000000
-0.101840 -0.062330 0.440999 0.000000 0.000000 0.000000
-0.058430 -0.042354 0.543657 0.000000 0.000000 0.000000
-0.067329 -0.053870 0.565070 0.000000 0.000000 0.000000
-0.054943 -0.046362 0.551582 0.000000 0.000000 0.000000
-0.075140 -0.067231 0.625682 0.000000 0.000000 0.000000
-0.083990 -0.048917 0.513372 0.000000 0.000000 0.000000
-0.087619 -0.081803 0.609377 0.000000 0.000000 0.000000
-0.073037 -0.054229 0.594251 0.000000 0.000000 0.000000
-0.074042 -0.042455 0.493180 0.000000 0.000000 0.000000
-0.071318 -0.047277 0.530875 0.000000 0.000000 0.000000
-0.102852 -0.085838 0.616511 0.000000 0.000000 0.000000
-0.061394 -0.040280 0.494191 0.000000 0.000000 0.000000
-0.036525 -0.045244 0.539479 0.000000 0.000000 0.000000
-0.083241 -0.047503 0.484382 0.000000 0.000000 0.000000
-0.067460 -0.052997 0.586044 0.000000 0.000000 0.000000
-0.070444 -0.060274 0.559712 0.000000 0.000000 0.000000
-0.089454 -0.050064 0.460345 0.000000 0.000000 0.000000
-0.043953 -0.036681 0.551829 0.000000 0.000000 0.000000
-0.068069 -0.041982 0.492222 0.000000 0.000000 0.000000
-0.062727 -0.041293 0.505201 0.000000 0.000000 0.000000
-0.060005 -0.049158 0.593534 0.000000 0.000000 0.000000
-0.095049 -0.053850 0.453206 0.000000 0.000000 0.000000
-0.085336 -0.059798 0.541618 0.000000 0.000000 0.000000
-0.038833 -0.037605 0.561084 0.000000 0.000000 0.000000
-0.087831 -0.053904 0.500579 0.000000 0.000000 0.000000
-0.044851 -0.045385 0.564480 0.000000 0.000000 0.000000
-0.053033 -0.057766 0.583947 0.000000 0.000000 0.000000
-0.081727 -0.052952 0.468525 0.000000 0.000000 0.000000
-0.100093 -0.054383 0.459213 0.000000 0.000000 0.000000
-0.084720 -0.048730 0.453816 0.000000 0.000000 0.000000
-0.103127 -0.063186 0.467411 0.000000 0.000000 0.000000
-0.103175 -0.060938 0.453845 0.000000 0.000000 0.000000
-0.086792 -0.047643 0.478520 0.000000 0.000000 0.000000
-0.091967 -0.072683 0.570996 0.000000 0.000000 0.000000
-0.103234 -0.079357 0.588269 0.000000 0.000000 0.000000
-0.040123 -0.040902 0.570469 0.000000 0.000000 0.000000
-0.085782 -0.072118 0.602303 0.000000 0.000000 0.000000
-0.078024 -0.046186 0.495695 0.000000 0.000000 0.000000
-0.074074 -0.062399 0.648608 0.000000 0.000000 0.000000
-0.040739 -0.040631 0.572235 0.000000 0.000000 0.000000
-0.096900 -0.060067 0.525313 0.000000 0.000000 0.000000
-0.105524 -0.063823 0.457209 0.000000 0.000000 0.000000
-0.099793 -0.070763 0.502616 0.000000 0.000000 0.000000
-0.087094 -0.048507 0.445432 0.000000 0.000000 0.000000
-0.050632 -0.034236 0.563412 0.000000 0.000000 0.000000
-0.037770 -0.036803 0.553443 0.000000 0.000000 0.000000
-0.082721 -0.070995 0.581907 0.000000 0.000000 0.000000
-0.075280 -0.054535 0.592629 0.000000 0.000000 0.000000
-0.049734 -0.042914 0.561548 0.000000 0.000000 0.000000
-0.056156 -0.043478 0.565024 0.000000 0.000000 0.000000
-0.072092 -0.055852 0.577618 0.000000 0.000000 0.000000
-0.091522 -0.060215 0.437583 0.000000 0.000000 0.000000
-0.100975 -0.055613 0.425031 0.000000 0.000000 0.000000
-0.110300 -0.067386 0.499329 0.000000 0.000000 0.000000
-0.045379 -0.041534 0.551417 0.000000 0.000000 0.000000
-0.086527 -0.053007 0.457389 0.000000 0.000000 0.000000
-0.058519 -0.051188 0.587876 0.000000 0.000000 0.000000
-0.085030 -0.074811 0.639216 0.000000 0.000000 0.000000
-0.040774 -0.041070 0.569658 0.000000 0.000000 0.000000
-0.099746 -0.060916 0.488959 0.000000 0.000000 0.000000
-0.077367 -0.047383 0.466098 0.000000 0.000000 0.000000
-0.089314 -0.045135 0.459704 0.000000 0.000000 0.000000
-0.090645 -0.066147 0.576106 0.000000 0.000000 0.000000
-0.092794 -0.074285 0.591646 0.000000 0.000000 0.000000
-0.094514 -0.079128 0.576672 0.000000 0.000000 0.000000
-0.098021 -0.060957 0.437675 0.000000 0.000000 0.000000
-0.092906 -0.075384 0.618518 0.000000 0.000000 0.000000
-0.047664 -0.048219 0.586809 0.000000 0.000000 0.000000
-0.075084 -0.068121 0.635831 0.000000 0.000000 0.000000
-0.049716 -0.052039 0.601103 0.000000 0.000000 0.000000
-0.056362 -0.045929 0.536438 0.000000 0.000000 0.000000
-0.090849 -0.049802 0.444222 0.000000 0.000000 0.000000
-0.112245 -0.072946 0.479990 0.000000 0.000000 0.000000
-0.090174 -0.071454 0.542397 0.000000 0.000000 0.000000
-0.098121 -0.063505 0.490346 0.000000 0.000000 0.000000
-0.056489 -0.038159 0.540617 0.000000 0.000000 0.000000
-0.041470 -0.034738 0.556272 0.000000 0.000000 0.000000
-0.062109 -0.062056 0.618899 0.000000 0.000000 0.000000
-0.057536 -0.046503 0.538043 0.000000 0.000000 0.000000
-0.099587 -0.055246 0.421381 0.000000 0.000000 0.000000
-0.109052 -0.072969 0.487958 0.000000 0.000000 0.000000
-0.058106 -0.051308 0.570788 0.000000 0.000000 0.000000
-0.058138 -0.056739 0.619361 0.000000 0.000000 0.000000
-0.042663 -0.038835 0.578633 0.000000 0.000000 0.000000
-0.072200 -0.045861 0.503784 0.000000 0.000000 0.000000
-0.055521 -0.047399 0.575162 0.000000 0.000000 0.000000
-0.063691 -0.059463 0.620344 0.000000 0.000000 0.000000
-0.091281 -0.072475 0.585458 0.000000 0.000000 0.000000
-0.058018 -0.047929 0.555997 0.000000 0.000000 0.000000
-0.045795 -0.052130 0.596356 0.000000 0.000000 0.000000
-0.039658 -0.043033 0.590429 0.000000 0.000000 0.000000
-0.045689 -0.050802 0.605771 0.000000 0.000000 0.000000
-0.098759 -0.065374 0.502996 0.000000 0.000000 0.000000
-0.100833 -0.057687 0.444053 0.000000 0.000000 0.000000
-0.108406 -0.071963 0.493202 0.000000 0.000000 0.000000
-0.097525 -0.061531 0.437764 0.000000 0.000000 0.000000
-0.086398 -0.045164 0.454674 0.000000 0.000000 0.000000
-0.088295 -0.047348 0.482759 0.000000 0.000000 0.000000
-0.098103 -0.073275 0.542653 0.000000 0.000000 0.000000
-0.095159 -0.077066 0.588721 0.000000 0.000000 0.000000
-0.070156 -0.046196 0.501120 0.000000 0.000000 0.000000
-0.054467 -0.046061 0.565910 0.000000 0.000000 0.000000
-0.076928 -0.075619 0.620792 0.000000 0.000000 0.000000
-0.082521 -0.052987 0.555527 0.000000 0.000000 0.000000
-0.091247 -0.055718 0.426889 0.000000 0.000000 0.000000
-0.052027 -0.038409 0.528705 0.000000 0.000000 0.000000
-0.066726 -0.052103 0.525529 0.000000 0.000000 0.000000
-0.089183 -0.076903 0.606279 0.000000 0.000000 0.000000
-0.077128 -0.042151 0.459870 0.000000 0.000000 0.000000
-0.095245 -0.070954 0.578681 0.000000 0.000000 0.000000
-0.079495 -0.042908 0.461333 0.000000 0.000000 0.000000
-0.073605 -0.043219 0.495883 0.000000 0.000000 0.000000
-0.056563 -0.053359 0.617571 0.000000 0.000000 0.000000
-0.043713 -0.041783 0.598572 0.000000 0.000000 0.000000
-0.054578 -0.046331 0.580692 0.000000 0.000000 0.000000
-0.056415 -0.039188 0.532397 0.000000 0.000000 0.000000
-0.102915 -0.063095 0.492674 0.000000 0.000000 0.000000
-0.082380 -0.049173 0.526078 0.000000 0.000000 0.000000
-0.076967 -0.050616 0.516848 0.000000 0.000000 0.000000
-0.051075 -0.044947 0.554557 0.000000 0.000000 0.000000
-0.075306 -0.057739 0.547638 0.000000 0.000000 0.000000
-0.099167 -0.061293 0.538107 0.000000 0.000000 0.000000
-0.078930 -0.063341 0.613701 0.000000 0.000000 0.000000
-0.072990 -0.064028 0.655169 0.000000 0.000000 0.000000
-0.100089 -0.062608 0.481775 0.000000 0.000000 0.000000
-0.100622 -0.060859 0.455310 0.000000 0.000000 0.000000
-0.107513 -0.068249 0.456240 0.000000 0.000000 0.000000
-0.115661 -0.078353 0.534635 0.000000 0.000000 0.000000
-0.083580 -0.046184 0.479440 0.000000 0.000000 0.000000
-0.053174 -0.040530 0.558473 0.000000 0.000000 0.000000
-0.070141 -0.045570 0.526653 0.000000 0.000000 0.000000
-0.095985 -0.058752 0.523470 0.000000 0.000000 0.000000
-0.103916 -0.064775 0.442963 0.000000 0.000000 0.000000
-0.099500 -0.059475 0.442102 0.000000 0.000000 0.000000
-0.100954 -0.060155 0.489377 0.000000 0.000000 0.000000
-0.095277 -0.051979 0.446895 0.000000 0.000000 0.000000
-0.051974 -0.045200 0.582849 0.000000 0.000000 0.000000
-0.089485 -0.070781 0.578687 0.000000 0.000000 0.000000
-0.097275 -0.055151 0.438145 0.000000 0.000000 0.000000
-0.041753 -0.036761 0.546328 0.000000 0.000000 0.000000
-0.066402 -0.043706 0.507323 0.000000 0.000000 0.000000
-0.062267 -0.055447 0.624001 0.000000 0.000000 0.000000
-0.036743 -0.037418 0.565756 0.000000 0.000000 0.000000
-0.115203 -0.082672 0.534446 0.000000 0.000000 0.000000
-0.099378 -0.064154 0.475409 0.000000 0.000000 0.000000
-0.106790 -0.067278 0.478649 0.000000 0.000000 0.000000
-0.104340 -0.065040 0.446349 0.000000 0.000000 0.000000
-0.043264 -0.039846 0.554688 0.000000 0.000000 0.000000
-0.075868 -0.089231 0.624669 0.000000 0.000000 0.000000
-0.064838 -0.055393 0.563895 0.000000 0.000000 0.000000
-0.093485 -0.064622 0.534981 0.000000 0.000000 0.000000
-0.076267 -0.052901 0.560705 0.000000 0.000000 0.000000
-0.101753 -0.065008 0.460727 0.000000 0.000000 0.000000
-0.085509 -0.073076 0.598451 0.000000 0.000000 0.000000
-0.058229 -0.047332 0.581648 0.000000 0.000000 0.000000
-0.049177 -0.038082 0.529520 0.000000 0.000000 0.000000
-0.105032 -0.067017 0.484383 0.000000 0.000000 0.000000
-0.041700 -0.040540 0.574444 0.000000 0.000000 0.000000
-0.077013 -0.050237 0.529474 0.000000 0.000000 0.000000
-0.058869 -0.042509 0.536121 0.000000 0.000000 0.000000
-0.104799 -0.065485 0.465970 0.000000 0.000000 0.000000
-0.107949 -0.065037 0.446103 0.000000 0.000000 0.000000
-0.080268 -0.044891 0.443620 0.000000 0.000000 0.000000
-0.079973 -0.044513 0.473238 0.000000 0.000000 0.000000
-0.093163 -0.083854 0.596730 0.000000 0.000000 0.000000
-0.069951 -0.044684 0.504513 0.000000 0.000000 0.000000
-0.072239 -0.058046 0.553993 0.000000 0.000000 0.000000
-0.067122 -0.058922 0.617370 0.000000 0.000000 0.000000
-0.103900 -0.064769 0.455510 0.000000 0.000000 0.000000
-0.108227 -0.072433 0.493724 0.000000 0.000000 0.000000
-0.105776 -0.058375 0.482163 0.000000 0.000000 0.000000
-0.067073 -0.043786 0.505744 0.000000 0.000000 0.000000
-0.094913 -0.053311 0.464674 0.000000 0.000000 0.000000
-0.055236 -0.039481 0.518969 0.000000 0.000000 0.000000
-0.095835 -0.052662 0.441178 0.000000 0.000000 0.000000
-0.072763 -0.070655 0.615796 0.000000 0.000000 0.000000
-0.103669 -0.065835 0.457874 0.000000 0.000000 0.000000
-0.098238 -0.053419 0.452151 0.000000 0.000000 0.000000
-0.095761 -0.055663 0.430176 0.000000 0.000000 0.000000
-0.088879 -0.048038 0.457886 0.000000 0.000000 0.000000
-0.085070 -0.044935 0.503428 0.000000 0.000000 0.000000
-0.046070 -0.045701 0.608939 0.000000 0.000000 0.000000
-0.046890 -0.038248 0.557864 0.000000 0.000000 0.000000
-0.046226 -0.046910 0.563385 0.000000 0.000000 0.000000
-0.039455 -0.038591 0.593307 0.000000 0.000000 0.000000
-0.100788 -0.060211 0.474052 0.000000 0.000000 0.000000
-0.085436 -0.048845 0.442632 0.000000 0.000000 0.000000
-0.099591 -0.054886 0.445360 0.000000 0.000000 0.000000
-0.093673 -0.064783 0.561470 0.000000 0.000000 0.000000
-0.048579 -0.041718 0.554835 0.000000 0.000000 0.000000
-0.057977 -0.057890 0.593254 0.000000 0.000000 0.000000
-0.085139 -0.045234 0.446973 0.000000 0.000000 0.000000
-0.100040 -0.059917 0.446884 0.000000 0.000000 0.000000
-0.072546 -0.051127 0.534410 0.000000 0.000000 0.000000
-0.057322 -0.049111 0.617942 0.000000 0.000000 0.000000
-0.094115 -0.061765 0.535954 0.000000 0.000000 0.000000
-0.099797 -0.061029 0.433405 0.000000 0.000000 0.000000
-0.106527 -0.071031 0.493414 0.000000 0.000000 0.000000
-0.065457 -0.042884 0.531721 0.000000 0.000000 0.000000
-0.056753 -0.046130 0.564256 0.000000 0.000000 0.000000
-0.079262 -0.050114 0.476928 0.000000 0.000000 0.000000
-0.069877 -0.042260 0.516557 0.000000 0.000000 0.000000
-0.075206 -0.059375 0.565563 0.000000 0.000000 0.000000
-0.106279 -0.065522 0.482796 0.000000 0.000000 0.000000
-0.069943 -0.041676 0.474045 0.000000 0.000000 0.000000
-0.048961 -0.048638 0.565980 0.000000 0.000000 0.000000
-0.063667 -0.051332 0.586734 0.000000 0.000000 0.000000
-0.103032 -0.067445 0.459238 0.000000 0.000000 0.000000
-0.080043 -0.045241 0.489044 0.000000 0.000000 0.000000
-0.059014 -0.042014 0.547988 0.000000 0.000000 0.000000
-0.062618 -0.041036 0.491698 0.000000 0.000000 0.000000
-0.083021 -0.069976 0.620410 0.000000 0.000000 0.000000
-0.062958 -0.038188 0.507081 0.000000 0.000000 0.000000
-0.048292 -0.047838 0.614026 0.000000 0.000000 0.000000
-0.107892 -0.060431 0.463170 0.000000 0.000000 0.000000
-0.102188 -0.063582 0.449151 0.000000 0.000000 0.000000
-0.101210 -0.065309 0.466786 0.000000 0.000000 0.000000
-0.093954 -0.062830 0.556950 0.000000 0.000000 0.000000
-0.086735 -0.044393 0.446353 0.000000 0.000000 0.000000
-0.077668 -0.045097 0.479663 0.000000 0.000000 0.000000
-0.055090 -0.039210 0.535101 0.000000 0.000000 0.000000
-0.046997 -0.041804 0.578201 0.000000 0.000000 0.000000
-0.038842 -0.038786 0.573335 0.000000 0.000000 0.000000
-0.059473 -0.043203 0.520822 0.000000 0.000000 0.000000
-0.064139 -0.042233 0.539672 0.000000 0.000000 0.000000
-0.055957 -0.044788 0.554568 0.000000 0.000000 0.000000
-0.095107 -0.052407 0.436308 0.000000 0.000000 0.000000
-0.100831 -0.059326 0.425729 0.000000 0.000000 0.000000
-0.091400 -0.054606 0.423544 0.000000 0.000000 0.000000
-0.036747 -0.038359 0.561538 0.000000 0.000000 0.000000
-0.093112 -0.053317 0.442550 0.000000 0.000000 0.000000
-0.101458 -0.071560 0.482162 0.000000 0.000000 0.000000
-0.086219 -0.070321 0.597540 0.000000 0.000000 0.000000
-0.097627 -0.056891 0.435787 0.000000 0.000000 0.000000
-0.099501 -0.062972 0.435073 0.000000 0.000000 0.000000
-0.092097 -0.061761 0.494831 0.000000 0.000000 0.000000
-0.099884 -0.066737 0.546075 0.000000 0.000000 0.000000
-0.086435 -0.045366 0.445353 0.000000 0.000000 0.000000
-0.057914 -0.041744 0.525317 0.000000 0.000000 0.000000
-0.112950 -0.073411 0.483315 0.000000 0.000000 0.000000
-0.111468 -0.068946 0.472560 0.000000 0.000000 0.000000
-0.111855 -0.071202 0.483610 0.000000 0.000000 0.000000
-0.074983 -0.049568 0.558477 0.000000 0.000000 0.000000
-0.058437 -0.041192 0.543405 0.000000 0.000000 0.000000
-0.108450 -0.070087 0.500579 0.000000 0.000000 0.000000
-0.048289 -0.036789 0.529659 0.000000 0.000000 0.000000
-0.081799 -0.069390 0.627221 0.000000 0.000000 0.000000
-0.079815 -0.072027 0.621634 0.000000 0.000000 0.000000
-0.081458 -0.044157 0.440456 0.000000 0.000000 0.000000
-0.067464 -0.064445 0.644398 0.000000 0.000000 0.000000
-0.064433 -0.044763 0.529876 0.000000 0.000000 0.000000
-0.056496 -0.038777 0.518901 0.000000 0.000000 0.000000
-0.039291 -0.046934 0.588796 0.000000 0.000000 0.000000
-0.104605 -0.087088 0.540731 0.000000 0.000000 0.000000
-0.045994 -0.036247 0.539752 0.000000 0.000000 0.000000
-0.083755 -0.076113 0.574955 0.000000 0.000000 0.000000
-0.108763 -0.066713 0.478989 0.000000 0.000000 0.000000
-0.078175 -0.052722 0.571762 0.000000 0.000000 0.000000
-0.065000 -0.043861 0.537763 0.000000 0.000000 0.000000
-0.092533 -0.066883 0.511960 0.000000 0.000000 0.000000
-0.086805 -0.071712 0.631447 0.000000 0.000000 0.000000
-0.105412 -0.064750 0.512189 0.000000 0.000000 0.000000
-0.092463 -0.070091 0.576333 0.000000 0.000000 0.000000
-0.107282 -0.072118 0.540684 0.000000 0.000000 0.000000
-0.096190 -0.065767 0.559987 0.000000 0.000000 0.000000
-0.101314 -0.060252 0.495100 0.000000 0.000000 0.000000
-0.077374 -0.055769 0.605752 0.000000 0.000000 0.000000
-0.100444 -0.070256 0.535688 0.000000 0.000000 0.000000
-0.088075 -0.079004 0.578470 0.000000 0.000000 0.000000
-0.097747 -0.064197 0.534852 0.000000 0.000000 0.000000
-0.077180 -0.061619 0.596806 0.000000 0.000000 0.000000
-0.108868 -0.072279 0.545665 0.000000 0.000000 0.000000
-0.088783 -0.063817 0.549631 0.000000 0.000000 0.000000
-0.059475 -0.045766 0.574670 0.000000 0.000000 0.000000
-0.099826 -0.054361 0.422298 0.000000 0.000000 0.000000
-0.065054 -0.045050 0.546680 0.000000 0.000000 0.000000
-0.039996 -0.037996 0.584756 0.000000 0.000000 0.000000
-0.089727 -0.059778 0.516361 0.000000 0.000000 0.000000
-0.069300 -0.051542 0.564512 0.000000 0.000000 0.000000
-0.101455 -0.054855 0.444527 0.000000 0.000000 0.000000
-0.075739 -0.045672 0.498156 0.000000 0.000000 0.000000
-0.100287 -0.057700 0.495151 0.000000 0.000000 0.000000
-0.068826 -0.046573 0.566364 0.000000 0.000000 0.000000
-0.077779 -0.054362 0.581869 0.000000 0.000000 0.000000
-0.095668 -0.047523 0.477385 0.000000 0.000000 0.000000
-0.046098 -0.047025 0.573822 0.000000 0.000000 0.000000
-0.088873 -0.057297 0.551164 0.000000 0.000000 0.000000
-0.107170 -0.066276 0.504398 0.000000 0.000000 0.000000
-0.073659 -0.059078 0.599439 0.000000 0.000000 0.000000
-0.098625 -0.055148 0.462791 0.000000 0.000000 0.000000
-0.068643 -0.048493 0.495868 0.000000 0.000000 0.000000
-0.092686 -0.065873 0.559886 0.000000 0.000000 0.000000
-0.047895 -0.036891 0.530399 0.000000 0.000000 0.000000
-0.059568 -0.051781 0.558681 0.000000 0.000000 0.000000
-0.041603 -0.040671 0.572377 0.000000 0.000000 0.000000
-0.102803 -0.064357 0.475280 0.000000 0.000000 0.000000
-0.090182 -0.053364 0.526338 0.000000 0.000000 0.000000
-0.105792 -0.068625 0.504873 0.000000 0.000000 0.000000
-0.061401 -0.054931 0.616715 0.000000 0.000000 0.000000
-0.102843 -0.064569 0.450425 0.000000 0.000000 0.000000
-0.064484 -0.055647 0.631529 0.000000 0.000000 0.000000
-0.058649 -0.053734 0.608505 0.000000 0.000000 0.000000
-0.073771 -0.064924 0.659161 0.000000 0.000000 0.000000
-0.112899 -0.088744 0.600151 0.000000 0.000000 0.000000
-0.066770 -0.051425 0.600408 0.000000 0.000000 0.000000
-0.063250 -0.043765 0.539992 0.000000 0.000000 0.000000
-0.049066 -0.043369 0.590552 0.000000 0.000000 0.000000
-0.045803 -0.044188 0.586985 0.000000 0.000000 0.000000
-0.102050 -0.083294 0.572121 0.000000 0.000000 0.000000
-0.099470 -0.071184 0.531000 0.000000 0.000000 0.000000
-0.072566 -0.049810 0.549269 0.000000 0.000000 0.000000
-0.095000 -0.066101 0.514987 0.000000 0.000000 0.000000
-0.074445 -0.049793 0.479274 0.000000 0.000000 0.000000
-0.078790 -0.069707 0.642618 0.000000 0.000000 0.000000
-0.089863 -0.074263 0.621688 0.000000 0.000000 0.000000
-0.059683 -0.049046 0.574797 0.000000 0.000000 0.000000
-0.105729 -0.065773 0.477389 0.000000 0.000000 0.000000
-0.091308 -0.076025 0.572634 0.000000 0.000000 0.000000
-0.091506 -0.054669 0.512893 0.000000 0.000000 0.000000
-0.082612 -0.075427 0.574652 0.000000 0.000000 0.000000
-0.073443 -0.064588 0.567559 0.000000 0.000000 0.000000
-0.101266 -0.063749 0.499733 0.000000 0.000000 0.000000
-0.068729 -0.048949 0.562392 0.000000 0.000000 0.000000
-0.074485 -0.062997 0.618430 0.000000 0.000000 0.000000
-0.091606 -0.070548 0.528453 0.000000 0.000000 0.000000
-0.098626 -0.060975 0.531014 0.000000 0.000000 0.000000
-0.076692 -0.068555 0.595385 0.000000 0.000000 0.000000
-0.068417 -0.051309 0.523185 0.000000 0.000000 0.000000
-0.037238 -0.038328 0.577093 0.000000 0.000000 0.000000
-0.085915 -0.073345 0.572231 0.000000 0.000000 0.000000
-0.097330 -0.074980 0.527379 0.000000 0.000000 0.000000
-0.100154 -0.065180 0.497092 0.000000 0.000000 0.000000
-0.070793 -0.050373 0.550198 0.000000 0.000000 0.000000
-0.081655 -0.067292 0.563403 0.000000 0.000000 0.000000
-0.047055 -0.044919 0.579081 0.000000 0.000000 0.000000
-0.077784 -0.045846 0.482908 0.000000 0.000000 0.000000
-0.096535 -0.066694 0.460064 0.000000 0.000000 0.000000
-0.106278 -0.077891 0.577494 0.000000 0.000000 0.000000
-0.099597 -0.070701 0.570265 0.000000 0.000000 0.000000
-0.101504 -0.062962 0.478166 0.000000 0.000000 0.000000
-0.101768 -0.067130 0.547392 0.000000 0.000000 0.000000
-0.059178 -0.054116 0.604675 0.000000 0.000000 0.000000
-0.100786 -0.065943 0.494458 0.000000 0.000000 0.000000
-0.043469 -0.037406 0.565370 0.000000 0.000000 0.000000
-0.064887 -0.051026 0.575379 0.000000 0.000000 0.000000
-0.070684 -0.050699 0.504459 0.000000 0.000000 0.000000
-0.103929 -0.069112 0.533227 0.000000 0.000000 0.000000
-0.101475 -0.087612 0.575318 0.000000 0.000000 0.000000
-0.071495 -0.063952 0.611807 0.000000 0.000000 0.000000
-0.093816 -0.072568 0.595312 0.000000 0.000000 0.000000
-0.106088 -0.067269 0.481985 0.000000 0.000000 0.000000
-0.095296 -0.066943 0.562403 0.000000 0.000000 0.000000
-0.101729 -0.074150 0.577293 0.000000 0.000000 0.000000
-0.047775 -0.054588 0.592097 0.000000 0.000000 0.000000
-0.113392 -0.087013 0.596619 0.000000 0.000000 0.000000
-0.058394 -0.055639 0.628142 0.000000 0.000000 0.000000
-0.069167 -0.063686 0.647151 0.000000 0.000000 0.000000
-0.071588 -0.042247 0.542605 0.000000 0.000000 0.000000
-0.067392 -0.053110 0.564009 0.000000 0.000000 0.000000
-0.051140 -0.046561 0.561064 0.000000 0.000000 0.000000
-0.064858 -0.061093 0.637858 0.000000 0.000000 0.000000
-0.106149 -0.084692 0.608736 0.000000 0.000000 0.000000
-0.067488 -0.082989 0.636510 0.000000 0.000000 0.000000
-0.068117 -0.061293 0.625633 0.000000 0.000000 0.000000
-0.057059 -0.057302 0.630447 0.000000 0.000000 0.000000
-0.093259 -0.053556 0.477798 0.000000 0.000000 0.000000
-0.041053 -0.048407 0.591604 0.000000 0.000000 0.000000
-0.092101 -0.078160 0.632763 0.000000 0.000000 0.000000
-0.057188 -0.039003 0.498370 0.000000 0.000000 0.000000
-0.059847 -0.039290 0.495625 0.000000 0.000000 0.000000
-0.100788 -0.061486 0.450621 0.000000 0.000000 0.000000
-0.068607 -0.047061 0.541786 0.000000 0.000000 0.000000
-0.089152 -0.045468 0.472766 0.000000 0.000000 0.000000
-0.113722 -0.080650 0.558549 0.000000 0.000000 0.000000
-0.097446 -0.078821 0.561819 0.000000 0.000000 0.000000
-0.087315 -0.051282 0.464209 0.000000 0.000000 0.000000
-0.107473 -0.070630 0.464165 0.000000 0.000000 0.000000
-0.095739 -0.060836 0.504613 0.000000 0.000000 0.000000
-0.107776 -0.086515 0.567416 0.000000 0.000000 0.000000
-0.060544 -0.049501 0.559435 0.000000 0.000000 0.000000
-0.042673 -0.036894 0.547883 0.000000 0.000000 0.000000
-0.039602 -0.041560 0.573339 0.000000 0.000000 0.000000
-0.075860 -0.075074 0.612618 0.000000 0.000000 0.000000
-0.110878 -0.071999 0.482071 0.000000 0.000000 0.000000
-0.089025 -0.048678 0.473113 0.000000 0.000000 0.000000
-0.061264 -0.042493 0.544798 0.000000 0.000000 0.000000
-0.072279 -0.047014 0.510470 0.000000 0.000000 0.000000
-0.100704 -0.065387 0.531751 0.000000 0.000000 0.000000
-0.100762 -0.090181 0.613341 0.000000 0.000000 0.000000
-0.093685 -0.074920 0.605590 0.000000 0.000000 0.000000
