ply
format ascii 1.0
comment VCGLIB generated
obj_info Generated by SPFormer!
element vertex 868
property float x
property float y
property float z
property float nx
property float ny
property float nz
end_header
-0.844543 0.406745 1.665355 0.000000 0.000000 0.000000
-0.912639 0.238679 1.865546 0.000000 0.000000 0.000000
-0.801513 0.245664 1.667025 0.000000 0.000000 0.000000
-0.841346 0.374889 1.969074 0.000000 0.000000 0.000000
-0.847437 0.342872 1.736539 0.000000 0.000000 0.000000
-0.861811 0.353015 1.769265 0.000000 0.000000 0.000000
-0.867491 0.444534 1.701031 0.000000 0.000000 0.000000
-0.890958 0.466982 1.824580 0.000000 0.000000 0.000000
-0.869758 0.375520 1.805634 0.000000 0.000000 0.000000
-0.867285 0.383710 1.769388 0.000000 0.000000 0.000000
-0.850407 0.328936 1.745571 0.000000 0.000000 0.000000
-0.838477 0.396314 1.654565 0.000000 0.000000 0.000000
-0.876404 0.453388 1.722701 0.000000 0.000000 0.000000
-0.767534 0.306356 1.644970 0.000000 0.000000 0.000000
-0.882100 0.457752 1.858510 0.000000 0.000000 0.000000
-0.862107 0.429395 1.933883 0.000000 0.000000 0.000000
-0.882685 0.449203 1.893485 0.000000 0.000000 0.000000
-0.818701 0.220859 1.693138 0.000000 0.000000 0.000000
-0.876851 0.327739 1.959165 0.000000 0.000000 0.000000
-0.908909 0.251969 1.885606 0.000000 0.000000 0.000000
-0.869633 0.345322 1.952005 0.000000 0.000000 0.000000
-0.887208 0.316951 1.819539 0.000000 0.000000 0.000000
-0.886281 0.324355 1.883258 0.000000 0.000000 0.000000
-0.905200 0.262444 1.871212 0.000000 0.000000 0.000000
-0.889215 0.316151 1.894953 0.000000 0.000000 0.000000
-0.881040 0.331599 1.825571 0.000000 0.000000 0.000000
-0.880079 0.340610 1.870055 0.000000 0.000000 0.000000
-0.864493 0.274750 1.741484 0.000000 0.000000 0.000000
-0.836273 0.332460 1.721502 0.000000 0.000000 0.000000
-0.891155 0.224581 1.785586 0.000000 0.000000 0.000000
-0.896988 0.310423 1.852353 0.000000 0.000000 0.000000
-0.871746 0.409063 1.755508 0.000000 0.000000 0.000000
-0.876348 0.221390 1.776607 0.000000 0.000000 0.000000
-0.884926 0.220674 1.773817 0.000000 0.000000 0.000000
-0.869631 0.379923 1.792123 0.000000 0.000000 0.000000
-0.889881 0.322002 1.849798 0.000000 0.000000 0.000000
-0.872444 0.392146 1.785224 0.000000 0.000000 0.000000
-0.875582 0.326061 1.803335 0.000000 0.000000 0.000000
-0.867381 0.248623 1.743438 0.000000 0.000000 0.000000
-0.859288 0.413847 1.707475 0.000000 0.000000 0.000000
-0.878118 0.435204 1.847317 0.000000 0.000000 0.000000
-0.850831 0.342103 1.743088 0.000000 0.000000 0.000000
-0.861196 0.276645 1.737677 0.000000 0.000000 0.000000
-0.864655 0.373686 1.759521 0.000000 0.000000 0.000000
-0.868455 0.383850 1.782520 0.000000 0.000000 0.000000
-0.898218 0.277195 1.867854 0.000000 0.000000 0.000000
-0.860290 0.431817 1.942741 0.000000 0.000000 0.000000
-0.855297 0.416639 1.703350 0.000000 0.000000 0.000000
-0.870174 0.336161 1.960626 0.000000 0.000000 0.000000
-0.847578 0.257582 1.726626 0.000000 0.000000 0.000000
-0.875375 0.331827 1.950532 0.000000 0.000000 0.000000
-0.873832 0.283891 1.764085 0.000000 0.000000 0.000000
-0.863466 0.417707 1.910368 0.000000 0.000000 0.000000
-0.876893 0.353078 1.888983 0.000000 0.000000 0.000000
-0.853016 0.418150 1.946428 0.000000 0.000000 0.000000
-0.874460 0.399714 1.783126 0.000000 0.000000 0.000000
-0.854663 0.361858 1.739173 0.000000 0.000000 0.000000
-0.883070 0.308657 1.800390 0.000000 0.000000 0.000000
-0.868363 0.397935 1.876089 0.000000 0.000000 0.000000
-0.875535 0.452375 1.723127 0.000000 0.000000 0.000000
-0.881736 0.459554 1.743571 0.000000 0.000000 0.000000
-0.770949 0.290537 1.665650 0.000000 0.000000 0.000000
-0.812443 0.249667 1.686281 0.000000 0.000000 0.000000
-0.868342 0.354937 1.893606 0.000000 0.000000 0.000000
-0.891054 0.469712 1.791802 0.000000 0.000000 0.000000
-0.885985 0.458487 1.862435 0.000000 0.000000 0.000000
-0.887144 0.234207 1.778396 0.000000 0.000000 0.000000
-0.852159 0.423468 1.666500 0.000000 0.000000 0.000000
-0.885436 0.464900 1.855657 0.000000 0.000000 0.000000
-0.879689 0.342573 1.844362 0.000000 0.000000 0.000000
-0.897866 0.298389 1.884957 0.000000 0.000000 0.000000
-0.909269 0.258211 1.891646 0.000000 0.000000 0.000000
-0.889101 0.318068 1.887569 0.000000 0.000000 0.000000
-0.891853 0.320551 1.852189 0.000000 0.000000 0.000000
-0.894878 0.308198 1.884650 0.000000 0.000000 0.000000
-0.876413 0.267230 1.755768 0.000000 0.000000 0.000000
-0.879895 0.231855 1.767394 0.000000 0.000000 0.000000
-0.874860 0.315729 1.787085 0.000000 0.000000 0.000000
-0.875571 0.422960 1.753731 0.000000 0.000000 0.000000
-0.882113 0.221797 1.787258 0.000000 0.000000 0.000000
-0.892033 0.196851 1.774261 0.000000 0.000000 0.000000
-0.873382 0.398083 1.791941 0.000000 0.000000 0.000000
-0.879987 0.335840 1.834549 0.000000 0.000000 0.000000
-0.868165 0.405946 1.740009 0.000000 0.000000 0.000000
-0.881820 0.330500 1.826931 0.000000 0.000000 0.000000
-0.846962 0.266036 1.723948 0.000000 0.000000 0.000000
-0.830651 0.374517 1.678788 0.000000 0.000000 0.000000
-0.868049 0.390693 1.874350 0.000000 0.000000 0.000000
-0.863999 0.387039 1.744220 0.000000 0.000000 0.000000
-0.861770 0.278952 1.743075 0.000000 0.000000 0.000000
-0.864741 0.398758 1.733032 0.000000 0.000000 0.000000
-0.874396 0.414921 1.762961 0.000000 0.000000 0.000000
-0.888945 0.324342 1.838194 0.000000 0.000000 0.000000
-0.856628 0.432544 1.946890 0.000000 0.000000 0.000000
-0.838627 0.390905 1.688373 0.000000 0.000000 0.000000
-0.872515 0.334037 1.959751 0.000000 0.000000 0.000000
-0.871273 0.337743 1.956377 0.000000 0.000000 0.000000
-0.880349 0.266965 1.774361 0.000000 0.000000 0.000000
-0.866003 0.431414 1.912532 0.000000 0.000000 0.000000
-0.887769 0.312831 1.910477 0.000000 0.000000 0.000000
-0.862917 0.428626 1.924538 0.000000 0.000000 0.000000
-0.867700 0.378191 1.772220 0.000000 0.000000 0.000000
-0.832466 0.336810 1.708461 0.000000 0.000000 0.000000
-0.884153 0.315982 1.806143 0.000000 0.000000 0.000000
-0.887023 0.262284 1.786368 0.000000 0.000000 0.000000
-0.871339 0.421078 1.870988 0.000000 0.000000 0.000000
-0.877059 0.455867 1.723364 0.000000 0.000000 0.000000
-0.878585 0.460082 1.728486 0.000000 0.000000 0.000000
-0.907295 0.259202 1.887771 0.000000 0.000000 0.000000
-0.774787 0.283391 1.666156 0.000000 0.000000 0.000000
-0.812830 0.240270 1.689253 0.000000 0.000000 0.000000
-0.885177 0.327885 1.872661 0.000000 0.000000 0.000000
-0.886781 0.448639 1.798136 0.000000 0.000000 0.000000
-0.890402 0.466289 1.799132 0.000000 0.000000 0.000000
-0.884688 0.208521 1.765251 0.000000 0.000000 0.000000
-0.845550 0.410756 1.660084 0.000000 0.000000 0.000000
-0.890077 0.464643 1.833230 0.000000 0.000000 0.000000
-0.845869 0.414318 1.955366 0.000000 0.000000 0.000000
-0.881231 0.452600 1.892328 0.000000 0.000000 0.000000
-0.846906 0.421361 1.956292 0.000000 0.000000 0.000000
-0.793049 0.262212 1.671390 0.000000 0.000000 0.000000
-0.907582 0.264299 1.891106 0.000000 0.000000 0.000000
-0.848728 0.423448 1.959264 0.000000 0.000000 0.000000
-0.882930 0.463422 1.862612 0.000000 0.000000 0.000000
-0.852488 0.429394 1.951578 0.000000 0.000000 0.000000
-0.835464 0.345655 1.709365 0.000000 0.000000 0.000000
-0.888539 0.278318 1.799956 0.000000 0.000000 0.000000
-0.912362 0.229260 1.841234 0.000000 0.000000 0.000000
-0.866921 0.434723 1.710548 0.000000 0.000000 0.000000
-0.882435 0.450605 1.877406 0.000000 0.000000 0.000000
-0.871205 0.433758 1.723599 0.000000 0.000000 0.000000
-0.841486 0.417476 1.956471 0.000000 0.000000 0.000000
-0.838833 0.386040 1.692091 0.000000 0.000000 0.000000
-0.854073 0.202767 1.729372 0.000000 0.000000 0.000000
-0.867427 0.416475 1.892773 0.000000 0.000000 0.000000
-0.908813 0.260909 1.890559 0.000000 0.000000 0.000000
-0.911732 0.248779 1.882657 0.000000 0.000000 0.000000
-0.773944 0.322370 1.644376 0.000000 0.000000 0.000000
-0.873860 0.450519 1.906970 0.000000 0.000000 0.000000
-0.881945 0.455059 1.736270 0.000000 0.000000 0.000000
-0.776428 0.314274 1.649799 0.000000 0.000000 0.000000
-0.877293 0.458995 1.718887 0.000000 0.000000 0.000000
-0.883300 0.453263 1.872372 0.000000 0.000000 0.000000
-0.903779 0.278784 1.893717 0.000000 0.000000 0.000000
-0.891861 0.465431 1.793289 0.000000 0.000000 0.000000
-0.860533 0.433849 1.938934 0.000000 0.000000 0.000000
-0.838481 0.359440 1.704491 0.000000 0.000000 0.000000
-0.887550 0.300976 1.810117 0.000000 0.000000 0.000000
-0.863809 0.413088 1.718292 0.000000 0.000000 0.000000
-0.804594 0.321027 1.687176 0.000000 0.000000 0.000000
-0.886383 0.449398 1.869141 0.000000 0.000000 0.000000
-0.861159 0.205519 1.731860 0.000000 0.000000 0.000000
-0.859477 0.417005 1.708233 0.000000 0.000000 0.000000
-0.859451 0.407319 1.712801 0.000000 0.000000 0.000000
-0.910103 0.255987 1.890692 0.000000 0.000000 0.000000
-0.911287 0.246958 1.868695 0.000000 0.000000 0.000000
-0.772066 0.315874 1.649702 0.000000 0.000000 0.000000
-0.870945 0.439921 1.904532 0.000000 0.000000 0.000000
-0.881236 0.458703 1.735198 0.000000 0.000000 0.000000
-0.772468 0.313700 1.652849 0.000000 0.000000 0.000000
-0.880727 0.459414 1.873491 0.000000 0.000000 0.000000
-0.906473 0.268834 1.891915 0.000000 0.000000 0.000000
-0.889615 0.462075 1.786419 0.000000 0.000000 0.000000
-0.891881 0.198596 1.780962 0.000000 0.000000 0.000000
-0.886829 0.464285 1.850290 0.000000 0.000000 0.000000
-0.910984 0.221921 1.833021 0.000000 0.000000 0.000000
-0.836470 0.373605 1.966578 0.000000 0.000000 0.000000
-0.892517 0.200886 1.775725 0.000000 0.000000 0.000000
-0.798211 0.251153 1.670595 0.000000 0.000000 0.000000
-0.821184 0.376628 1.968885 0.000000 0.000000 0.000000
-0.814211 0.391678 1.956823 0.000000 0.000000 0.000000
-0.823778 0.398429 1.959664 0.000000 0.000000 0.000000
-0.889588 0.468065 1.842116 0.000000 0.000000 0.000000
-0.858670 0.427136 1.949672 0.000000 0.000000 0.000000
-0.910109 0.209028 1.821577 0.000000 0.000000 0.000000
-0.857781 0.430727 1.948085 0.000000 0.000000 0.000000
-0.887479 0.458682 1.833871 0.000000 0.000000 0.000000
-0.888004 0.465388 1.835303 0.000000 0.000000 0.000000
-0.895751 0.197854 1.781605 0.000000 0.000000 0.000000
-0.886046 0.463817 1.852179 0.000000 0.000000 0.000000
-0.883957 0.219431 1.768418 0.000000 0.000000 0.000000
-0.818385 0.380736 1.961390 0.000000 0.000000 0.000000
-0.841307 0.372594 1.967957 0.000000 0.000000 0.000000
-0.900398 0.221624 1.805895 0.000000 0.000000 0.000000
-0.880320 0.200614 1.748602 0.000000 0.000000 0.000000
-0.889436 0.198498 1.769988 0.000000 0.000000 0.000000
-0.885474 0.462352 1.865747 0.000000 0.000000 0.000000
-0.893321 0.216731 1.787205 0.000000 0.000000 0.000000
-0.827160 0.386348 1.951759 0.000000 0.000000 0.000000
-0.818953 0.389134 1.957539 0.000000 0.000000 0.000000
-0.883355 0.459882 1.861324 0.000000 0.000000 0.000000
-0.887173 0.456568 1.845500 0.000000 0.000000 0.000000
-0.890348 0.466061 1.807764 0.000000 0.000000 0.000000
-0.885207 0.459718 1.858571 0.000000 0.000000 0.000000
-0.883236 0.455718 1.858264 0.000000 0.000000 0.000000
-0.899013 0.193906 1.788613 0.000000 0.000000 0.000000
-0.818509 0.389515 1.956230 0.000000 0.000000 0.000000
-0.887603 0.460597 1.822297 0.000000 0.000000 0.000000
-0.836767 0.385066 1.954436 0.000000 0.000000 0.000000
-0.882022 0.450264 1.884277 0.000000 0.000000 0.000000
-0.829834 0.383045 1.960185 0.000000 0.000000 0.000000
-0.879807 0.198083 1.752172 0.000000 0.000000 0.000000
-0.888603 0.196332 1.771523 0.000000 0.000000 0.000000
-0.890679 0.467132 1.838575 0.000000 0.000000 0.000000
-0.890515 0.203971 1.774348 0.000000 0.000000 0.000000
-0.821979 0.388664 1.954424 0.000000 0.000000 0.000000
-0.885262 0.198045 1.762276 0.000000 0.000000 0.000000
-0.822045 0.396555 1.951075 0.000000 0.000000 0.000000
-0.884425 0.462128 1.871254 0.000000 0.000000 0.000000
-0.911234 0.237857 1.859666 0.000000 0.000000 0.000000
-0.900354 0.278574 1.926588 0.000000 0.000000 0.000000
-0.887621 0.459999 1.846992 0.000000 0.000000 0.000000
-0.905143 0.277086 1.921229 0.000000 0.000000 0.000000
-0.856169 0.429300 1.948520 0.000000 0.000000 0.000000
-0.840972 0.385614 1.696439 0.000000 0.000000 0.000000
-0.900169 0.293576 1.849546 0.000000 0.000000 0.000000
-0.848352 0.397626 1.696075 0.000000 0.000000 0.000000
-0.909243 0.245885 1.867530 0.000000 0.000000 0.000000
-0.860747 0.434010 1.680772 0.000000 0.000000 0.000000
-0.853413 0.417570 1.697791 0.000000 0.000000 0.000000
-0.874040 0.365114 1.847017 0.000000 0.000000 0.000000
-0.867791 0.365099 1.815560 0.000000 0.000000 0.000000
-0.901104 0.201596 1.792695 0.000000 0.000000 0.000000
-0.889168 0.321467 1.950390 0.000000 0.000000 0.000000
-0.879914 0.191010 1.753722 0.000000 0.000000 0.000000
-0.836850 0.391105 1.683947 0.000000 0.000000 0.000000
-0.848008 0.402373 1.693870 0.000000 0.000000 0.000000
-0.893056 0.293734 1.824229 0.000000 0.000000 0.000000
-0.851166 0.392202 1.711833 0.000000 0.000000 0.000000
-0.880741 0.354604 1.851824 0.000000 0.000000 0.000000
-0.871670 0.383197 1.821579 0.000000 0.000000 0.000000
-0.861060 0.435259 1.692566 0.000000 0.000000 0.000000
-0.871998 0.373872 1.862107 0.000000 0.000000 0.000000
-0.868936 0.364846 1.845583 0.000000 0.000000 0.000000
-0.901069 0.201243 1.792251 0.000000 0.000000 0.000000
-0.891637 0.317561 1.954307 0.000000 0.000000 0.000000
-0.904208 0.272121 1.907275 0.000000 0.000000 0.000000
-0.905451 0.272642 1.910041 0.000000 0.000000 0.000000
-0.775070 0.320440 1.663239 0.000000 0.000000 0.000000
-0.906780 0.272602 1.907283 0.000000 0.000000 0.000000
-0.889046 0.469252 1.836103 0.000000 0.000000 0.000000
-0.773877 0.316338 1.652250 0.000000 0.000000 0.000000
-0.904692 0.215052 1.819746 0.000000 0.000000 0.000000
-0.793397 0.337112 1.645295 0.000000 0.000000 0.000000
-0.801984 0.347798 1.646301 0.000000 0.000000 0.000000
-0.766918 0.307690 1.653511 0.000000 0.000000 0.000000
-0.767680 0.306355 1.652099 0.000000 0.000000 0.000000
-0.769511 0.313733 1.661486 0.000000 0.000000 0.000000
-0.787937 0.335510 1.649250 0.000000 0.000000 0.000000
-0.879480 0.453338 1.881868 0.000000 0.000000 0.000000
-0.882254 0.457422 1.875643 0.000000 0.000000 0.000000
-0.880028 0.449975 1.887312 0.000000 0.000000 0.000000
-0.774643 0.317322 1.655708 0.000000 0.000000 0.000000
-0.793841 0.336821 1.654919 0.000000 0.000000 0.000000
-0.879382 0.459624 1.878043 0.000000 0.000000 0.000000
-0.882457 0.206213 1.748246 0.000000 0.000000 0.000000
-0.881903 0.457494 1.885181 0.000000 0.000000 0.000000
-0.882124 0.460142 1.868575 0.000000 0.000000 0.000000
-0.914622 0.232745 1.856101 0.000000 0.000000 0.000000
-0.907885 0.267323 1.899722 0.000000 0.000000 0.000000
-0.909140 0.260271 1.885815 0.000000 0.000000 0.000000
-0.818267 0.381781 1.963331 0.000000 0.000000 0.000000
-0.829503 0.377146 1.965354 0.000000 0.000000 0.000000
-0.827291 0.374607 1.973414 0.000000 0.000000 0.000000
-0.907332 0.261701 1.882120 0.000000 0.000000 0.000000
-0.830822 0.385685 1.644759 0.000000 0.000000 0.000000
-0.906623 0.264470 1.885926 0.000000 0.000000 0.000000
-0.907882 0.264698 1.897158 0.000000 0.000000 0.000000
-0.825961 0.379987 1.963994 0.000000 0.000000 0.000000
-0.902131 0.272540 1.897705 0.000000 0.000000 0.000000
-0.865028 0.446313 1.681144 0.000000 0.000000 0.000000
-0.826273 0.378161 1.639546 0.000000 0.000000 0.000000
-0.912478 0.233228 1.848357 0.000000 0.000000 0.000000
-0.891705 0.461538 1.844422 0.000000 0.000000 0.000000
-0.871414 0.455535 1.705690 0.000000 0.000000 0.000000
-0.877822 0.462948 1.720008 0.000000 0.000000 0.000000
-0.884632 0.459651 1.858227 0.000000 0.000000 0.000000
-0.883259 0.444538 1.827548 0.000000 0.000000 0.000000
-0.891044 0.463839 1.826028 0.000000 0.000000 0.000000
-0.890393 0.468486 1.830234 0.000000 0.000000 0.000000
-0.870735 0.449831 1.702829 0.000000 0.000000 0.000000
-0.890630 0.472774 1.825307 0.000000 0.000000 0.000000
-0.892247 0.477404 1.810371 0.000000 0.000000 0.000000
-0.884920 0.459006 1.855399 0.000000 0.000000 0.000000
-0.869748 0.332870 1.968258 0.000000 0.000000 0.000000
-0.864093 0.345287 1.972429 0.000000 0.000000 0.000000
-0.890003 0.462115 1.833545 0.000000 0.000000 0.000000
-0.870066 0.338804 1.968994 0.000000 0.000000 0.000000
-0.890661 0.466822 1.819779 0.000000 0.000000 0.000000
-0.890595 0.466154 1.844999 0.000000 0.000000 0.000000
-0.890623 0.464735 1.841924 0.000000 0.000000 0.000000
-0.884721 0.448351 1.830952 0.000000 0.000000 0.000000
-0.887222 0.468287 1.827359 0.000000 0.000000 0.000000
-0.887409 0.458215 1.828573 0.000000 0.000000 0.000000
-0.887091 0.465731 1.843670 0.000000 0.000000 0.000000
-0.874285 0.328456 1.963611 0.000000 0.000000 0.000000
-0.863145 0.344815 1.965934 0.000000 0.000000 0.000000
-0.888641 0.466341 1.835090 0.000000 0.000000 0.000000
-0.868779 0.340657 1.970559 0.000000 0.000000 0.000000
-0.889557 0.465959 1.846565 0.000000 0.000000 0.000000
-0.833361 0.411080 1.957266 0.000000 0.000000 0.000000
-0.906720 0.263521 1.895784 0.000000 0.000000 0.000000
-0.839530 0.407329 1.954897 0.000000 0.000000 0.000000
-0.822792 0.408189 1.958034 0.000000 0.000000 0.000000
-0.822361 0.390551 1.959043 0.000000 0.000000 0.000000
-0.823565 0.408585 1.957308 0.000000 0.000000 0.000000
-0.821736 0.401827 1.956200 0.000000 0.000000 0.000000
-0.842061 0.415207 1.957015 0.000000 0.000000 0.000000
-0.833904 0.392625 1.665600 0.000000 0.000000 0.000000
-0.815479 0.400236 1.954828 0.000000 0.000000 0.000000
-0.868823 0.439358 1.924657 0.000000 0.000000 0.000000
-0.891272 0.470469 1.809115 0.000000 0.000000 0.000000
-0.889052 0.464436 1.820094 0.000000 0.000000 0.000000
-0.915595 0.222232 1.836784 0.000000 0.000000 0.000000
-0.830931 0.411484 1.958434 0.000000 0.000000 0.000000
-0.855524 0.426270 1.671802 0.000000 0.000000 0.000000
-0.847239 0.199358 1.721240 0.000000 0.000000 0.000000
-0.810820 0.402419 1.953654 0.000000 0.000000 0.000000
-0.890006 0.470743 1.821842 0.000000 0.000000 0.000000
-0.889678 0.469808 1.819600 0.000000 0.000000 0.000000
-0.908335 0.261547 1.893105 0.000000 0.000000 0.000000
-0.858911 0.202744 1.732116 0.000000 0.000000 0.000000
-0.783751 0.258359 1.662431 0.000000 0.000000 0.000000
-0.798074 0.343324 1.649356 0.000000 0.000000 0.000000
-0.868527 0.452594 1.698659 0.000000 0.000000 0.000000
-0.889309 0.465679 1.766164 0.000000 0.000000 0.000000
-0.849530 0.423730 1.958619 0.000000 0.000000 0.000000
-0.808094 0.351298 1.650883 0.000000 0.000000 0.000000
-0.820479 0.364423 1.659396 0.000000 0.000000 0.000000
-0.812928 0.359866 1.653867 0.000000 0.000000 0.000000
-0.777525 0.320269 1.659917 0.000000 0.000000 0.000000
-0.847190 0.411927 1.659783 0.000000 0.000000 0.000000
-0.851185 0.420103 1.671050 0.000000 0.000000 0.000000
-0.829525 0.382908 1.655603 0.000000 0.000000 0.000000
-0.805017 0.347031 1.641690 0.000000 0.000000 0.000000
-0.812799 0.353447 1.647035 0.000000 0.000000 0.000000
-0.804242 0.346302 1.642357 0.000000 0.000000 0.000000
-0.799992 0.341669 1.644296 0.000000 0.000000 0.000000
-0.857510 0.349379 1.971394 0.000000 0.000000 0.000000
-0.822678 0.370553 1.649470 0.000000 0.000000 0.000000
-0.808683 0.349247 1.653222 0.000000 0.000000 0.000000
-0.765625 0.304641 1.663999 0.000000 0.000000 0.000000
-0.849141 0.418546 1.661666 0.000000 0.000000 0.000000
-0.877613 0.452101 1.884798 0.000000 0.000000 0.000000
-0.885558 0.448932 1.775307 0.000000 0.000000 0.000000
-0.863558 0.405037 1.944218 0.000000 0.000000 0.000000
-0.855939 0.428953 1.674307 0.000000 0.000000 0.000000
-0.889302 0.466467 1.776627 0.000000 0.000000 0.000000
-0.811113 0.350409 1.661572 0.000000 0.000000 0.000000
-0.779778 0.325069 1.648209 0.000000 0.000000 0.000000
-0.779499 0.324821 1.654114 0.000000 0.000000 0.000000
-0.850473 0.417645 1.664151 0.000000 0.000000 0.000000
-0.860686 0.437153 1.682495 0.000000 0.000000 0.000000
-0.854582 0.409040 1.951006 0.000000 0.000000 0.000000
-0.814627 0.361869 1.650276 0.000000 0.000000 0.000000
-0.807192 0.345659 1.651794 0.000000 0.000000 0.000000
-0.813973 0.355809 1.643189 0.000000 0.000000 0.000000
-0.800336 0.343513 1.641688 0.000000 0.000000 0.000000
-0.806661 0.347161 1.644769 0.000000 0.000000 0.000000
-0.843024 0.361192 1.982111 0.000000 0.000000 0.000000
-0.820360 0.365715 1.645506 0.000000 0.000000 0.000000
-0.797150 0.341964 1.651726 0.000000 0.000000 0.000000
-0.843576 0.407203 1.656451 0.000000 0.000000 0.000000
-0.878158 0.456349 1.894912 0.000000 0.000000 0.000000
-0.889591 0.463775 1.782676 0.000000 0.000000 0.000000
-0.887300 0.459193 1.773555 0.000000 0.000000 0.000000
-0.854237 0.411226 1.947212 0.000000 0.000000 0.000000
-0.894432 0.472194 1.781896 0.000000 0.000000 0.000000
-0.887664 0.461236 1.766506 0.000000 0.000000 0.000000
-0.911066 0.232676 1.842475 0.000000 0.000000 0.000000
-0.881006 0.458906 1.895094 0.000000 0.000000 0.000000
-0.790092 0.250688 1.664414 0.000000 0.000000 0.000000
-0.904172 0.207910 1.809968 0.000000 0.000000 0.000000
-0.855316 0.352864 1.976452 0.000000 0.000000 0.000000
-0.905326 0.207221 1.810943 0.000000 0.000000 0.000000
-0.881293 0.456236 1.882014 0.000000 0.000000 0.000000
-0.813617 0.388484 1.954179 0.000000 0.000000 0.000000
-0.898530 0.287692 1.926727 0.000000 0.000000 0.000000
-0.903159 0.202502 1.802585 0.000000 0.000000 0.000000
-0.891537 0.464610 1.808926 0.000000 0.000000 0.000000
-0.904488 0.280572 1.917883 0.000000 0.000000 0.000000
-0.820722 0.402667 1.956667 0.000000 0.000000 0.000000
-0.767795 0.308947 1.655907 0.000000 0.000000 0.000000
-0.828769 0.411815 1.958554 0.000000 0.000000 0.000000
-0.866632 0.362441 1.864005 0.000000 0.000000 0.000000
-0.902088 0.205488 1.798965 0.000000 0.000000 0.000000
-0.859906 0.436690 1.680907 0.000000 0.000000 0.000000
-0.860692 0.368015 1.874114 0.000000 0.000000 0.000000
-0.916636 0.230193 1.858249 0.000000 0.000000 0.000000
-0.894261 0.297808 1.936190 0.000000 0.000000 0.000000
-0.899631 0.285541 1.929356 0.000000 0.000000 0.000000
-0.787970 0.269088 1.663193 0.000000 0.000000 0.000000
-0.898565 0.296727 1.937611 0.000000 0.000000 0.000000
-0.913714 0.216530 1.836544 0.000000 0.000000 0.000000
-0.906191 0.271901 1.911799 0.000000 0.000000 0.000000
-0.783268 0.254441 1.664113 0.000000 0.000000 0.000000
-0.783491 0.263915 1.663327 0.000000 0.000000 0.000000
-0.772651 0.269931 1.656020 0.000000 0.000000 0.000000
-0.773134 0.277115 1.660723 0.000000 0.000000 0.000000
-0.898762 0.287562 1.928957 0.000000 0.000000 0.000000
-0.784090 0.263428 1.665496 0.000000 0.000000 0.000000
-0.786870 0.260720 1.664722 0.000000 0.000000 0.000000
-0.776480 0.265253 1.660247 0.000000 0.000000 0.000000
-0.771908 0.284643 1.660531 0.000000 0.000000 0.000000
-0.889194 0.305120 1.938459 0.000000 0.000000 0.000000
-0.893754 0.293833 1.935760 0.000000 0.000000 0.000000
-0.777230 0.277457 1.664962 0.000000 0.000000 0.000000
-0.837910 0.390094 1.647557 0.000000 0.000000 0.000000
-0.839997 0.402262 1.654407 0.000000 0.000000 0.000000
-0.822679 0.369797 1.641741 0.000000 0.000000 0.000000
-0.807451 0.233523 1.675740 0.000000 0.000000 0.000000
-0.830645 0.227744 1.706697 0.000000 0.000000 0.000000
-0.912623 0.221819 1.835955 0.000000 0.000000 0.000000
-0.907641 0.220077 1.819577 0.000000 0.000000 0.000000
-0.839985 0.402454 1.652218 0.000000 0.000000 0.000000
-0.822740 0.219835 1.700848 0.000000 0.000000 0.000000
-0.814630 0.229519 1.688450 0.000000 0.000000 0.000000
-0.813658 0.223390 1.686040 0.000000 0.000000 0.000000
-0.824603 0.221100 1.699376 0.000000 0.000000 0.000000
-0.909846 0.219005 1.830430 0.000000 0.000000 0.000000
-0.842086 0.402891 1.650239 0.000000 0.000000 0.000000
-0.832534 0.213355 1.702846 0.000000 0.000000 0.000000
-0.810728 0.239945 1.685601 0.000000 0.000000 0.000000
-0.857762 0.372344 1.936400 0.000000 0.000000 0.000000
-0.872586 0.332898 1.939208 0.000000 0.000000 0.000000
-0.839071 0.395177 1.950668 0.000000 0.000000 0.000000
-0.837803 0.391510 1.950313 0.000000 0.000000 0.000000
-0.888459 0.460632 1.768444 0.000000 0.000000 0.000000
-0.844863 0.385993 1.940350 0.000000 0.000000 0.000000
-0.838321 0.398841 1.953396 0.000000 0.000000 0.000000
-0.870702 0.327666 1.958443 0.000000 0.000000 0.000000
-0.866991 0.448383 1.694564 0.000000 0.000000 0.000000
-0.834665 0.388142 1.653181 0.000000 0.000000 0.000000
-0.847947 0.388060 1.941526 0.000000 0.000000 0.000000
-0.878151 0.312616 1.952477 0.000000 0.000000 0.000000
-0.848146 0.413192 1.654164 0.000000 0.000000 0.000000
-0.872639 0.334585 1.964314 0.000000 0.000000 0.000000
-0.845616 0.381973 1.947495 0.000000 0.000000 0.000000
-0.855771 0.383493 1.936780 0.000000 0.000000 0.000000
-0.850426 0.386966 1.942854 0.000000 0.000000 0.000000
-0.846066 0.378074 1.952129 0.000000 0.000000 0.000000
-0.871733 0.329089 1.962813 0.000000 0.000000 0.000000
-0.885777 0.304089 1.939367 0.000000 0.000000 0.000000
-0.851901 0.422213 1.662770 0.000000 0.000000 0.000000
-0.832578 0.392715 1.955659 0.000000 0.000000 0.000000
-0.895962 0.289000 1.912499 0.000000 0.000000 0.000000
-0.865344 0.444165 1.690795 0.000000 0.000000 0.000000
-0.836714 0.393677 1.652380 0.000000 0.000000 0.000000
-0.841869 0.392162 1.946668 0.000000 0.000000 0.000000
-0.875841 0.319025 1.957989 0.000000 0.000000 0.000000
-0.854361 0.425636 1.664186 0.000000 0.000000 0.000000
-0.872245 0.331841 1.966296 0.000000 0.000000 0.000000
-0.849008 0.382329 1.946930 0.000000 0.000000 0.000000
-0.854754 0.385036 1.936314 0.000000 0.000000 0.000000
-0.840201 0.386094 1.952846 0.000000 0.000000 0.000000
-0.844415 0.380428 1.953847 0.000000 0.000000 0.000000
-0.880776 0.311752 1.948130 0.000000 0.000000 0.000000
-0.901750 0.280835 1.914496 0.000000 0.000000 0.000000
-0.854953 0.427262 1.667525 0.000000 0.000000 0.000000
-0.914236 0.230535 1.851124 0.000000 0.000000 0.000000
-0.836379 0.209571 1.719520 0.000000 0.000000 0.000000
-0.837649 0.208903 1.710552 0.000000 0.000000 0.000000
-0.856335 0.201171 1.732371 0.000000 0.000000 0.000000
-0.860329 0.438537 1.679166 0.000000 0.000000 0.000000
-0.853964 0.423559 1.674776 0.000000 0.000000 0.000000
-0.843597 0.213420 1.717277 0.000000 0.000000 0.000000
-0.831625 0.223694 1.707539 0.000000 0.000000 0.000000
-0.829885 0.227421 1.704860 0.000000 0.000000 0.000000
-0.850887 0.205327 1.723457 0.000000 0.000000 0.000000
-0.837043 0.215701 1.718413 0.000000 0.000000 0.000000
-0.862162 0.442565 1.673804 0.000000 0.000000 0.000000
-0.821038 0.224411 1.694818 0.000000 0.000000 0.000000
-0.838317 0.211071 1.716372 0.000000 0.000000 0.000000
-0.848966 0.210730 1.724471 0.000000 0.000000 0.000000
-0.884983 0.198594 1.766483 0.000000 0.000000 0.000000
-0.885434 0.195154 1.763925 0.000000 0.000000 0.000000
-0.850388 0.415337 1.669936 0.000000 0.000000 0.000000
-0.823444 0.411731 1.958721 0.000000 0.000000 0.000000
-0.858391 0.434799 1.687734 0.000000 0.000000 0.000000
-0.861022 0.436984 1.687272 0.000000 0.000000 0.000000
-0.830122 0.223770 1.707404 0.000000 0.000000 0.000000
-0.831304 0.219724 1.708121 0.000000 0.000000 0.000000
-0.830508 0.221112 1.707033 0.000000 0.000000 0.000000
-0.826817 0.219667 1.704934 0.000000 0.000000 0.000000
-0.833869 0.228164 1.712471 0.000000 0.000000 0.000000
-0.859551 0.437922 1.671650 0.000000 0.000000 0.000000
-0.825767 0.218556 1.703330 0.000000 0.000000 0.000000
-0.820449 0.227396 1.699995 0.000000 0.000000 0.000000
-0.842092 0.210586 1.717485 0.000000 0.000000 0.000000
-0.851256 0.214701 1.720983 0.000000 0.000000 0.000000
-0.888151 0.195648 1.766168 0.000000 0.000000 0.000000
-0.862543 0.439808 1.679684 0.000000 0.000000 0.000000
-0.862722 0.441843 1.685729 0.000000 0.000000 0.000000
-0.813646 0.399566 1.953576 0.000000 0.000000 0.000000
-0.813704 0.399276 1.955693 0.000000 0.000000 0.000000
-0.813847 0.397468 1.955664 0.000000 0.000000 0.000000
-0.871006 0.204795 1.747956 0.000000 0.000000 0.000000
-0.814712 0.396922 1.956054 0.000000 0.000000 0.000000
-0.814289 0.396843 1.956229 0.000000 0.000000 0.000000
-0.812578 0.399622 1.955372 0.000000 0.000000 0.000000
-0.910508 0.209482 1.822180 0.000000 0.000000 0.000000
-0.822738 0.401739 1.956827 0.000000 0.000000 0.000000
-0.817568 0.394825 1.955497 0.000000 0.000000 0.000000
-0.814368 0.399465 1.956235 0.000000 0.000000 0.000000
-0.823001 0.402061 1.956295 0.000000 0.000000 0.000000
-0.859626 0.435722 1.677185 0.000000 0.000000 0.000000
-0.866598 0.212601 1.743186 0.000000 0.000000 0.000000
-0.875100 0.200837 1.749295 0.000000 0.000000 0.000000
-0.872662 0.199235 1.745077 0.000000 0.000000 0.000000
-0.914091 0.210998 1.820832 0.000000 0.000000 0.000000
-0.863599 0.204571 1.737396 0.000000 0.000000 0.000000
-0.902880 0.218842 1.811176 0.000000 0.000000 0.000000
-0.883522 0.195591 1.758341 0.000000 0.000000 0.000000
-0.889994 0.467271 1.773780 0.000000 0.000000 0.000000
-0.891237 0.468469 1.785082 0.000000 0.000000 0.000000
-0.821961 0.385615 1.959621 0.000000 0.000000 0.000000
-0.906311 0.203861 1.799986 0.000000 0.000000 0.000000
-0.916480 0.215584 1.829275 0.000000 0.000000 0.000000
-0.880612 0.199451 1.756102 0.000000 0.000000 0.000000
-0.880403 0.203421 1.758400 0.000000 0.000000 0.000000
-0.856156 0.226669 1.737309 0.000000 0.000000 0.000000
-0.871074 0.200430 1.741835 0.000000 0.000000 0.000000
-0.910967 0.208617 1.813290 0.000000 0.000000 0.000000
-0.863725 0.201589 1.738126 0.000000 0.000000 0.000000
-0.866309 0.240754 1.752554 0.000000 0.000000 0.000000
-0.881466 0.195968 1.758693 0.000000 0.000000 0.000000
-0.891865 0.468767 1.780909 0.000000 0.000000 0.000000
-0.889416 0.464993 1.774341 0.000000 0.000000 0.000000
-0.833299 0.384786 1.956437 0.000000 0.000000 0.000000
-0.911298 0.215410 1.823158 0.000000 0.000000 0.000000
-0.919457 0.222418 1.839307 0.000000 0.000000 0.000000
-0.877068 0.199059 1.750251 0.000000 0.000000 0.000000
-0.909632 0.248040 1.867002 0.000000 0.000000 0.000000
-0.913981 0.235791 1.856915 0.000000 0.000000 0.000000
-0.912686 0.240910 1.862748 0.000000 0.000000 0.000000
-0.908922 0.253424 1.860637 0.000000 0.000000 0.000000
-0.913122 0.239382 1.865006 0.000000 0.000000 0.000000
-0.901742 0.280820 1.932392 0.000000 0.000000 0.000000
-0.913877 0.242938 1.879704 0.000000 0.000000 0.000000
-0.915367 0.237940 1.873461 0.000000 0.000000 0.000000
-0.891368 0.464709 1.840053 0.000000 0.000000 0.000000
-0.913621 0.234713 1.857069 0.000000 0.000000 0.000000
-0.913503 0.242669 1.877961 0.000000 0.000000 0.000000
-0.909557 0.267523 1.911872 0.000000 0.000000 0.000000
-0.854561 0.425385 1.662126 0.000000 0.000000 0.000000
-0.857971 0.431518 1.670669 0.000000 0.000000 0.000000
-0.912131 0.243197 1.869570 0.000000 0.000000 0.000000
-0.913421 0.235202 1.856873 0.000000 0.000000 0.000000
-0.909629 0.225887 1.827324 0.000000 0.000000 0.000000
-0.912000 0.233987 1.847511 0.000000 0.000000 0.000000
-0.911915 0.246877 1.878036 0.000000 0.000000 0.000000
-0.912298 0.240323 1.857835 0.000000 0.000000 0.000000
-0.882902 0.201302 1.759962 0.000000 0.000000 0.000000
-0.912149 0.245562 1.880591 0.000000 0.000000 0.000000
-0.910938 0.247263 1.868196 0.000000 0.000000 0.000000
-0.910325 0.253194 1.877548 0.000000 0.000000 0.000000
-0.910530 0.252837 1.886936 0.000000 0.000000 0.000000
-0.912371 0.244889 1.873739 0.000000 0.000000 0.000000
-0.913781 0.232568 1.851826 0.000000 0.000000 0.000000
-0.911844 0.229257 1.837408 0.000000 0.000000 0.000000
-0.910711 0.230449 1.845271 0.000000 0.000000 0.000000
-0.913221 0.241176 1.871866 0.000000 0.000000 0.000000
-0.908309 0.259164 1.871862 0.000000 0.000000 0.000000
-0.887686 0.190561 1.761652 0.000000 0.000000 0.000000
-0.918104 0.244217 1.878107 0.000000 0.000000 0.000000
-0.904763 0.270138 1.883924 0.000000 0.000000 0.000000
-0.910252 0.250447 1.876097 0.000000 0.000000 0.000000
-0.909453 0.252973 1.868310 0.000000 0.000000 0.000000
-0.911928 0.244783 1.876793 0.000000 0.000000 0.000000
-0.909764 0.254335 1.888424 0.000000 0.000000 0.000000
-0.887208 0.463484 1.834956 0.000000 0.000000 0.000000
-0.839828 0.421083 1.964990 0.000000 0.000000 0.000000
-0.792850 0.248933 1.667206 0.000000 0.000000 0.000000
-0.820189 0.378445 1.966184 0.000000 0.000000 0.000000
-0.824722 0.374526 1.971935 0.000000 0.000000 0.000000
-0.829797 0.383704 1.644109 0.000000 0.000000 0.000000
-0.796397 0.250519 1.670500 0.000000 0.000000 0.000000
-0.809683 0.244544 1.685305 0.000000 0.000000 0.000000
-0.883281 0.465163 1.745116 0.000000 0.000000 0.000000
-0.885650 0.455961 1.876962 0.000000 0.000000 0.000000
-0.815585 0.229825 1.689255 0.000000 0.000000 0.000000
-0.814732 0.358109 1.636669 0.000000 0.000000 0.000000
-0.836568 0.395872 1.650190 0.000000 0.000000 0.000000
-0.911588 0.246308 1.871057 0.000000 0.000000 0.000000
-0.820943 0.367169 1.639816 0.000000 0.000000 0.000000
-0.835192 0.394024 1.662047 0.000000 0.000000 0.000000
-0.853651 0.423966 1.671631 0.000000 0.000000 0.000000
-0.904266 0.209161 1.808902 0.000000 0.000000 0.000000
-0.807692 0.240038 1.682536 0.000000 0.000000 0.000000
-0.822806 0.229183 1.701928 0.000000 0.000000 0.000000
-0.835830 0.393533 1.650292 0.000000 0.000000 0.000000
-0.876196 0.458861 1.720968 0.000000 0.000000 0.000000
-0.882078 0.460600 1.881143 0.000000 0.000000 0.000000
-0.814389 0.232520 1.689071 0.000000 0.000000 0.000000
-0.822271 0.369200 1.637128 0.000000 0.000000 0.000000
-0.834713 0.391672 1.650992 0.000000 0.000000 0.000000
-0.892431 0.470297 1.790703 0.000000 0.000000 0.000000
-0.913439 0.239177 1.861903 0.000000 0.000000 0.000000
-0.820368 0.365120 1.642313 0.000000 0.000000 0.000000
-0.882116 0.465915 1.728476 0.000000 0.000000 0.000000
-0.837031 0.396315 1.658849 0.000000 0.000000 0.000000
-0.852689 0.423037 1.669041 0.000000 0.000000 0.000000
-0.903778 0.221159 1.812805 0.000000 0.000000 0.000000
-0.799818 0.241175 1.672784 0.000000 0.000000 0.000000
-0.860430 0.432900 1.941147 0.000000 0.000000 0.000000
-0.883966 0.460966 1.855981 0.000000 0.000000 0.000000
-0.888290 0.469570 1.848587 0.000000 0.000000 0.000000
-0.861568 0.432675 1.939320 0.000000 0.000000 0.000000
-0.860352 0.204954 1.743643 0.000000 0.000000 0.000000
-0.844906 0.205890 1.725028 0.000000 0.000000 0.000000
-0.849863 0.408854 1.950583 0.000000 0.000000 0.000000
-0.847227 0.421721 1.959812 0.000000 0.000000 0.000000
-0.800213 0.343228 1.643729 0.000000 0.000000 0.000000
-0.906221 0.208388 1.811369 0.000000 0.000000 0.000000
-0.881836 0.206866 1.760326 0.000000 0.000000 0.000000
-0.889242 0.196863 1.763916 0.000000 0.000000 0.000000
-0.869512 0.305807 1.764180 0.000000 0.000000 0.000000
-0.878365 0.238464 1.761499 0.000000 0.000000 0.000000
-0.878217 0.253221 1.760395 0.000000 0.000000 0.000000
-0.869828 0.302474 1.764796 0.000000 0.000000 0.000000
-0.860615 0.288973 1.741806 0.000000 0.000000 0.000000
-0.878251 0.453238 1.897592 0.000000 0.000000 0.000000
-0.808892 0.352526 1.637343 0.000000 0.000000 0.000000
-0.840460 0.372237 1.984384 0.000000 0.000000 0.000000
-0.871668 0.262356 1.745227 0.000000 0.000000 0.000000
-0.871013 0.442623 1.920925 0.000000 0.000000 0.000000
-0.845787 0.420408 1.957290 0.000000 0.000000 0.000000
-0.878251 0.461296 1.718407 0.000000 0.000000 0.000000
-0.874507 0.448474 1.911211 0.000000 0.000000 0.000000
-0.849026 0.355288 1.980770 0.000000 0.000000 0.000000
-0.869832 0.192928 1.740754 0.000000 0.000000 0.000000
-0.879219 0.454888 1.897358 0.000000 0.000000 0.000000
-0.894005 0.197895 1.774046 0.000000 0.000000 0.000000
-0.881961 0.300296 1.798450 0.000000 0.000000 0.000000
-0.873897 0.265361 1.754663 0.000000 0.000000 0.000000
-0.875963 0.243481 1.752718 0.000000 0.000000 0.000000
-0.874081 0.279445 1.760844 0.000000 0.000000 0.000000
-0.870002 0.443035 1.920090 0.000000 0.000000 0.000000
-0.873250 0.451060 1.906209 0.000000 0.000000 0.000000
-0.802516 0.344627 1.638744 0.000000 0.000000 0.000000
-0.755340 0.296202 1.665017 0.000000 0.000000 0.000000
-0.876092 0.247543 1.756265 0.000000 0.000000 0.000000
-0.881118 0.462920 1.731290 0.000000 0.000000 0.000000
-0.869939 0.443699 1.914632 0.000000 0.000000 0.000000
-0.855475 0.351061 1.984250 0.000000 0.000000 0.000000
-0.882627 0.456800 1.881843 0.000000 0.000000 0.000000
-0.888546 0.200709 1.765352 0.000000 0.000000 0.000000
-0.889074 0.468737 1.839923 0.000000 0.000000 0.000000
-0.857502 0.425965 1.942407 0.000000 0.000000 0.000000
-0.859536 0.429043 1.937168 0.000000 0.000000 0.000000
-0.888181 0.300391 1.941526 0.000000 0.000000 0.000000
-0.863298 0.201114 1.744927 0.000000 0.000000 0.000000
-0.891057 0.467864 1.780741 0.000000 0.000000 0.000000
-0.863411 0.397890 1.894149 0.000000 0.000000 0.000000
-0.864945 0.407138 1.896047 0.000000 0.000000 0.000000
-0.862418 0.371112 1.938401 0.000000 0.000000 0.000000
-0.866212 0.363332 1.876925 0.000000 0.000000 0.000000
-0.865734 0.411070 1.896213 0.000000 0.000000 0.000000
-0.899502 0.201012 1.794614 0.000000 0.000000 0.000000
-0.869109 0.355556 1.879856 0.000000 0.000000 0.000000
-0.853803 0.378482 1.920406 0.000000 0.000000 0.000000
-0.864915 0.367302 1.882632 0.000000 0.000000 0.000000
-0.862298 0.442015 1.934121 0.000000 0.000000 0.000000
-0.863317 0.411718 1.904860 0.000000 0.000000 0.000000
-0.864021 0.391601 1.890530 0.000000 0.000000 0.000000
-0.865476 0.360664 1.953758 0.000000 0.000000 0.000000
-0.863115 0.370912 1.917563 0.000000 0.000000 0.000000
-0.865418 0.405349 1.893941 0.000000 0.000000 0.000000
-0.898222 0.199992 1.791566 0.000000 0.000000 0.000000
-0.755984 0.303700 1.665065 0.000000 0.000000 0.000000
-0.871664 0.353294 1.872539 0.000000 0.000000 0.000000
-0.858825 0.383204 1.909330 0.000000 0.000000 0.000000
-0.850816 0.384516 1.931127 0.000000 0.000000 0.000000
-0.753321 0.305166 1.668660 0.000000 0.000000 0.000000
-0.913102 0.255920 1.895527 0.000000 0.000000 0.000000
-0.858664 0.373613 1.904607 0.000000 0.000000 0.000000
-0.869840 0.198012 1.750145 0.000000 0.000000 0.000000
-0.868979 0.215519 1.748440 0.000000 0.000000 0.000000
-0.878027 0.191597 1.755774 0.000000 0.000000 0.000000
-0.891736 0.469000 1.830609 0.000000 0.000000 0.000000
-0.822618 0.403376 1.958125 0.000000 0.000000 0.000000
-0.843550 0.402284 1.648602 0.000000 0.000000 0.000000
-0.858952 0.201796 1.729977 0.000000 0.000000 0.000000
-0.874844 0.197570 1.750501 0.000000 0.000000 0.000000
-0.867069 0.201096 1.743119 0.000000 0.000000 0.000000
-0.887743 0.195355 1.756783 0.000000 0.000000 0.000000
-0.864551 0.210023 1.738787 0.000000 0.000000 0.000000
-0.892140 0.468901 1.809729 0.000000 0.000000 0.000000
-0.867542 0.198490 1.741520 0.000000 0.000000 0.000000
-0.878222 0.200674 1.753597 0.000000 0.000000 0.000000
-0.880754 0.204781 1.757120 0.000000 0.000000 0.000000
-0.897830 0.286583 1.933816 0.000000 0.000000 0.000000
-0.884913 0.449727 1.795542 0.000000 0.000000 0.000000
-0.889669 0.467935 1.773086 0.000000 0.000000 0.000000
-0.876965 0.219810 1.760548 0.000000 0.000000 0.000000
-0.896368 0.476021 1.804503 0.000000 0.000000 0.000000
-0.894336 0.197469 1.773211 0.000000 0.000000 0.000000
-0.872548 0.204649 1.748101 0.000000 0.000000 0.000000
-0.878551 0.195892 1.752568 0.000000 0.000000 0.000000
-0.861176 0.374033 1.917763 0.000000 0.000000 0.000000
-0.864081 0.217467 1.742445 0.000000 0.000000 0.000000
-0.892231 0.471347 1.805074 0.000000 0.000000 0.000000
-0.851317 0.208315 1.729233 0.000000 0.000000 0.000000
-0.891015 0.245711 1.789911 0.000000 0.000000 0.000000
-0.865388 0.216789 1.741461 0.000000 0.000000 0.000000
-0.900800 0.284071 1.927558 0.000000 0.000000 0.000000
-0.892247 0.469984 1.795922 0.000000 0.000000 0.000000
-0.891867 0.468827 1.798056 0.000000 0.000000 0.000000
-0.887013 0.201644 1.770148 0.000000 0.000000 0.000000
-0.894036 0.198715 1.775403 0.000000 0.000000 0.000000
-0.863848 0.203868 1.739142 0.000000 0.000000 0.000000
-0.872152 0.196735 1.745530 0.000000 0.000000 0.000000
-0.865039 0.363426 1.886220 0.000000 0.000000 0.000000
-0.834276 0.386920 1.642336 0.000000 0.000000 0.000000
-0.886602 0.463522 1.751086 0.000000 0.000000 0.000000
-0.767568 0.310165 1.645770 0.000000 0.000000 0.000000
-0.856796 0.435385 1.949013 0.000000 0.000000 0.000000
-0.828779 0.395891 1.953297 0.000000 0.000000 0.000000
-0.814328 0.406915 1.957323 0.000000 0.000000 0.000000
-0.887158 0.465590 1.756300 0.000000 0.000000 0.000000
-0.875732 0.445510 1.911414 0.000000 0.000000 0.000000
-0.882110 0.446872 1.878786 0.000000 0.000000 0.000000
-0.878068 0.324095 1.959896 0.000000 0.000000 0.000000
-0.913994 0.243276 1.882062 0.000000 0.000000 0.000000
-0.889359 0.465118 1.772012 0.000000 0.000000 0.000000
-0.876096 0.452919 1.901094 0.000000 0.000000 0.000000
-0.888048 0.468377 1.754673 0.000000 0.000000 0.000000
-0.880304 0.456811 1.888412 0.000000 0.000000 0.000000
-0.880770 0.321749 1.956535 0.000000 0.000000 0.000000
-0.903702 0.279320 1.907966 0.000000 0.000000 0.000000
-0.904394 0.277712 1.908821 0.000000 0.000000 0.000000
-0.907270 0.272297 1.911172 0.000000 0.000000 0.000000
-0.913457 0.237678 1.859275 0.000000 0.000000 0.000000
-0.914618 0.236002 1.862497 0.000000 0.000000 0.000000
-0.912774 0.239154 1.861318 0.000000 0.000000 0.000000
-0.913610 0.238239 1.865014 0.000000 0.000000 0.000000
-0.913443 0.240193 1.871626 0.000000 0.000000 0.000000
-0.907234 0.262261 1.896084 0.000000 0.000000 0.000000
-0.908169 0.241720 1.855999 0.000000 0.000000 0.000000
-0.890341 0.198855 1.772223 0.000000 0.000000 0.000000
-0.904339 0.277930 1.913622 0.000000 0.000000 0.000000
-0.908302 0.263711 1.897173 0.000000 0.000000 0.000000
-0.891118 0.471424 1.821184 0.000000 0.000000 0.000000
-0.911821 0.249432 1.878903 0.000000 0.000000 0.000000
-0.905430 0.269095 1.904721 0.000000 0.000000 0.000000
-0.894176 0.465655 1.827129 0.000000 0.000000 0.000000
-0.916050 0.234118 1.866400 0.000000 0.000000 0.000000
-0.918538 0.237505 1.868116 0.000000 0.000000 0.000000
-0.906407 0.268840 1.905003 0.000000 0.000000 0.000000
-0.908914 0.243906 1.860477 0.000000 0.000000 0.000000
-0.905149 0.273833 1.909357 0.000000 0.000000 0.000000
-0.908095 0.259598 1.890942 0.000000 0.000000 0.000000
-0.891244 0.470694 1.823997 0.000000 0.000000 0.000000
-0.913357 0.241829 1.876464 0.000000 0.000000 0.000000
-0.908462 0.260628 1.896276 0.000000 0.000000 0.000000
-0.890370 0.471045 1.825680 0.000000 0.000000 0.000000
-0.818699 0.230350 1.689438 0.000000 0.000000 0.000000
-0.869716 0.369972 1.807109 0.000000 0.000000 0.000000
-0.847106 0.346000 1.741021 0.000000 0.000000 0.000000
-0.871573 0.398608 1.772623 0.000000 0.000000 0.000000
-0.871952 0.401426 1.765734 0.000000 0.000000 0.000000
-0.856482 0.350743 1.750818 0.000000 0.000000 0.000000
-0.864472 0.369594 1.762412 0.000000 0.000000 0.000000
-0.866957 0.364328 1.769016 0.000000 0.000000 0.000000
-0.865359 0.374124 1.772607 0.000000 0.000000 0.000000
-0.853531 0.335843 1.746021 0.000000 0.000000 0.000000
-0.811821 0.232556 1.685012 0.000000 0.000000 0.000000
-0.817505 0.317953 1.705243 0.000000 0.000000 0.000000
-0.890910 0.301879 1.940190 0.000000 0.000000 0.000000
-0.911938 0.247992 1.883466 0.000000 0.000000 0.000000
-0.806744 0.230568 1.681489 0.000000 0.000000 0.000000
-0.814844 0.233530 1.688092 0.000000 0.000000 0.000000
-0.864636 0.358619 1.766887 0.000000 0.000000 0.000000
-0.846501 0.330224 1.738409 0.000000 0.000000 0.000000
-0.868682 0.368154 1.806142 0.000000 0.000000 0.000000
-0.868987 0.389775 1.764473 0.000000 0.000000 0.000000
-0.817456 0.248370 1.694832 0.000000 0.000000 0.000000
-0.868955 0.378869 1.767072 0.000000 0.000000 0.000000
-0.866209 0.364578 1.776508 0.000000 0.000000 0.000000
-0.859856 0.344722 1.758640 0.000000 0.000000 0.000000
-0.861251 0.345945 1.768513 0.000000 0.000000 0.000000
-0.861294 0.357590 1.757218 0.000000 0.000000 0.000000
-0.874878 0.394089 1.808527 0.000000 0.000000 0.000000
-0.805922 0.242194 1.677142 0.000000 0.000000 0.000000
-0.792884 0.304383 1.683544 0.000000 0.000000 0.000000
-0.913436 0.241157 1.871270 0.000000 0.000000 0.000000
-0.813121 0.224987 1.689560 0.000000 0.000000 0.000000
-0.916576 0.226916 1.851262 0.000000 0.000000 0.000000
-0.887297 0.195845 1.763655 0.000000 0.000000 0.000000
-0.883001 0.461724 1.871326 0.000000 0.000000 0.000000
-0.876630 0.415020 1.817990 0.000000 0.000000 0.000000
-0.914181 0.228481 1.849234 0.000000 0.000000 0.000000
-0.875749 0.360601 1.820133 0.000000 0.000000 0.000000
-0.865203 0.360348 1.786873 0.000000 0.000000 0.000000
-0.866521 0.351428 1.801075 0.000000 0.000000 0.000000
-0.874540 0.339907 1.806654 0.000000 0.000000 0.000000
-0.866319 0.352786 1.798094 0.000000 0.000000 0.000000
-0.870564 0.364524 1.836855 0.000000 0.000000 0.000000
-0.871998 0.391278 1.810448 0.000000 0.000000 0.000000
-0.886903 0.309923 1.945742 0.000000 0.000000 0.000000
-0.858355 0.335686 1.760022 0.000000 0.000000 0.000000
-0.877272 0.410421 1.821818 0.000000 0.000000 0.000000
-0.914022 0.229678 1.849624 0.000000 0.000000 0.000000
-0.875443 0.354285 1.837604 0.000000 0.000000 0.000000
-0.865706 0.351614 1.786942 0.000000 0.000000 0.000000
-0.860563 0.364309 1.757752 0.000000 0.000000 0.000000
-0.875801 0.331533 1.800677 0.000000 0.000000 0.000000
-0.873438 0.387273 1.841322 0.000000 0.000000 0.000000
-0.868223 0.350830 1.816133 0.000000 0.000000 0.000000
-0.868126 0.357823 1.799202 0.000000 0.000000 0.000000
-0.883634 0.316732 1.953995 0.000000 0.000000 0.000000
-0.870302 0.377642 1.800104 0.000000 0.000000 0.000000
-0.869314 0.362363 1.823066 0.000000 0.000000 0.000000
-0.861745 0.424883 1.917090 0.000000 0.000000 0.000000
-0.848933 0.363263 1.980902 0.000000 0.000000 0.000000
-0.839580 0.368272 1.980458 0.000000 0.000000 0.000000
-0.840675 0.368159 1.980705 0.000000 0.000000 0.000000
-0.907668 0.266456 1.903951 0.000000 0.000000 0.000000
-0.826448 0.406806 1.958497 0.000000 0.000000 0.000000
-0.828276 0.406388 1.957069 0.000000 0.000000 0.000000
-0.828047 0.414298 1.959929 0.000000 0.000000 0.000000
-0.835828 0.369384 1.984914 0.000000 0.000000 0.000000
-0.849405 0.357469 1.982900 0.000000 0.000000 0.000000
-0.910121 0.259044 1.897147 0.000000 0.000000 0.000000
-0.830298 0.376052 1.970001 0.000000 0.000000 0.000000
-0.845469 0.363197 1.977636 0.000000 0.000000 0.000000
-0.856033 0.427648 1.948740 0.000000 0.000000 0.000000
-0.884015 0.465943 1.741966 0.000000 0.000000 0.000000
-0.872992 0.452859 1.714571 0.000000 0.000000 0.000000
-0.858699 0.359499 1.980036 0.000000 0.000000 0.000000
-0.832598 0.372664 1.979066 0.000000 0.000000 0.000000
-0.850539 0.359096 1.978845 0.000000 0.000000 0.000000
-0.836171 0.374436 1.971064 0.000000 0.000000 0.000000
-0.866069 0.448572 1.685872 0.000000 0.000000 0.000000
-0.849863 0.359096 1.979041 0.000000 0.000000 0.000000
-0.826835 0.374278 1.974555 0.000000 0.000000 0.000000
-0.862146 0.437184 1.936939 0.000000 0.000000 0.000000
-0.862571 0.430716 1.932286 0.000000 0.000000 0.000000
-0.826473 0.417240 1.960844 0.000000 0.000000 0.000000
-0.864319 0.434989 1.936407 0.000000 0.000000 0.000000
-0.830995 0.419047 1.963088 0.000000 0.000000 0.000000
-0.863294 0.437133 1.934987 0.000000 0.000000 0.000000
-0.875450 0.193748 1.744631 0.000000 0.000000 0.000000
-0.818802 0.381312 1.964877 0.000000 0.000000 0.000000
-0.850818 0.363774 1.974193 0.000000 0.000000 0.000000
-0.864239 0.433403 1.924832 0.000000 0.000000 0.000000
-0.886546 0.465086 1.754448 0.000000 0.000000 0.000000
-0.846816 0.368068 1.984792 0.000000 0.000000 0.000000
-0.835059 0.371632 1.978301 0.000000 0.000000 0.000000
-0.844707 0.364113 1.981514 0.000000 0.000000 0.000000
-0.837915 0.372681 1.968922 0.000000 0.000000 0.000000
-0.871498 0.455407 1.695382 0.000000 0.000000 0.000000
-0.849270 0.359690 1.977064 0.000000 0.000000 0.000000
-0.826036 0.374402 1.975739 0.000000 0.000000 0.000000
-0.865413 0.438340 1.931763 0.000000 0.000000 0.000000
-0.870495 0.445734 1.918003 0.000000 0.000000 0.000000
-0.835759 0.419699 1.962616 0.000000 0.000000 0.000000
-0.874046 0.446248 1.914975 0.000000 0.000000 0.000000
-0.835612 0.416469 1.960781 0.000000 0.000000 0.000000
-0.867289 0.441821 1.925201 0.000000 0.000000 0.000000
-0.878987 0.192004 1.749008 0.000000 0.000000 0.000000
-0.905984 0.238866 1.823958 0.000000 0.000000 0.000000
-0.822789 0.401894 1.956342 0.000000 0.000000 0.000000
-0.880088 0.458236 1.883091 0.000000 0.000000 0.000000
-0.879167 0.457301 1.891887 0.000000 0.000000 0.000000
-0.827677 0.415848 1.960574 0.000000 0.000000 0.000000
-0.882006 0.458448 1.883179 0.000000 0.000000 0.000000
-0.893294 0.473319 1.799984 0.000000 0.000000 0.000000
