ply
format ascii 1.0
comment VCGLIB generated
obj_info Generated by SPFormer!
element vertex 868
property float x
property float y
property float z
property float nx
property float ny
property float nz
end_header
-0.830229 0.537176 2.394349 0.000000 0.000000 0.000000
-0.965809 0.662683 2.556751 0.000000 0.000000 0.000000
-0.953135 0.662805 2.506500 0.000000 0.000000 0.000000
-0.816501 0.621193 2.264341 0.000000 0.000000 0.000000
-0.971515 0.664974 2.541842 0.000000 0.000000 0.000000
-0.742231 0.543925 2.254369 0.000000 0.000000 0.000000
-0.850662 0.611282 2.402320 0.000000 0.000000 0.000000
-0.768862 0.535095 2.289777 0.000000 0.000000 0.000000
-0.958289 0.705466 2.444520 0.000000 0.000000 0.000000
-0.830821 0.479040 2.405405 0.000000 0.000000 0.000000
-0.821059 0.563193 2.367698 0.000000 0.000000 0.000000
-0.830825 0.497687 2.402719 0.000000 0.000000 0.000000
-0.832056 0.484254 2.402756 0.000000 0.000000 0.000000
-0.962562 0.706480 2.429350 0.000000 0.000000 0.000000
-0.771610 0.551258 2.292024 0.000000 0.000000 0.000000
-0.903346 0.633394 2.506532 0.000000 0.000000 0.000000
-0.860069 0.610786 2.427536 0.000000 0.000000 0.000000
-0.879912 0.577644 2.498007 0.000000 0.000000 0.000000
-0.825096 0.632739 2.261152 0.000000 0.000000 0.000000
-0.813310 0.623061 2.262986 0.000000 0.000000 0.000000
-0.795134 0.617196 2.229470 0.000000 0.000000 0.000000
-0.835893 0.535426 2.415658 0.000000 0.000000 0.000000
-0.826125 0.590935 2.367868 0.000000 0.000000 0.000000
-0.895495 0.662186 2.390101 0.000000 0.000000 0.000000
-0.880659 0.619163 2.469728 0.000000 0.000000 0.000000
-0.873324 0.623411 2.448791 0.000000 0.000000 0.000000
-0.924660 0.638575 2.530223 0.000000 0.000000 0.000000
-0.809592 0.632494 2.225374 0.000000 0.000000 0.000000
-0.802098 0.597985 2.323345 0.000000 0.000000 0.000000
-0.942435 0.651864 2.521549 0.000000 0.000000 0.000000
-0.802000 0.626943 2.262099 0.000000 0.000000 0.000000
-0.824051 0.498606 2.384531 0.000000 0.000000 0.000000
-0.814608 0.618083 2.284032 0.000000 0.000000 0.000000
-0.812829 0.531149 2.359653 0.000000 0.000000 0.000000
-0.834146 0.566332 2.394899 0.000000 0.000000 0.000000
-0.801108 0.618799 2.235890 0.000000 0.000000 0.000000
-0.984514 0.664373 2.577863 0.000000 0.000000 0.000000
-0.906730 0.680012 2.374615 0.000000 0.000000 0.000000
-0.959386 0.709300 2.424473 0.000000 0.000000 0.000000
-0.908259 0.648454 2.499616 0.000000 0.000000 0.000000
-0.841496 0.618051 2.366631 0.000000 0.000000 0.000000
-0.732832 0.553259 2.251034 0.000000 0.000000 0.000000
-0.840339 0.535420 2.418119 0.000000 0.000000 0.000000
-0.872059 0.635798 2.412328 0.000000 0.000000 0.000000
-0.885523 0.653498 2.415426 0.000000 0.000000 0.000000
-0.882050 0.647197 2.406227 0.000000 0.000000 0.000000
-0.801119 0.584030 2.314305 0.000000 0.000000 0.000000
-0.895982 0.607864 2.515076 0.000000 0.000000 0.000000
-0.772900 0.596951 2.233949 0.000000 0.000000 0.000000
-0.856305 0.636870 2.368360 0.000000 0.000000 0.000000
-0.739991 0.537446 2.258856 0.000000 0.000000 0.000000
-0.882951 0.683820 2.262743 0.000000 0.000000 0.000000
-0.870514 0.520377 2.495503 0.000000 0.000000 0.000000
-0.887458 0.647111 2.425469 0.000000 0.000000 0.000000
-0.877629 0.681119 2.250699 0.000000 0.000000 0.000000
-0.797588 0.479425 2.312876 0.000000 0.000000 0.000000
-0.808269 0.574514 2.349208 0.000000 0.000000 0.000000
-0.870354 0.631187 2.432185 0.000000 0.000000 0.000000
-0.804580 0.477253 2.327916 0.000000 0.000000 0.000000
-0.869388 0.633801 2.421061 0.000000 0.000000 0.000000
-0.884695 0.683841 2.253088 0.000000 0.000000 0.000000
-0.836883 0.475902 2.409682 0.000000 0.000000 0.000000
-0.850102 0.663610 2.236921 0.000000 0.000000 0.000000
-0.741016 0.524286 2.257026 0.000000 0.000000 0.000000
-0.843957 0.658846 2.229349 0.000000 0.000000 0.000000
-0.947808 0.657964 2.510728 0.000000 0.000000 0.000000
-0.922810 0.610081 2.552329 0.000000 0.000000 0.000000
-0.938993 0.647472 2.530828 0.000000 0.000000 0.000000
-0.934806 0.639770 2.543331 0.000000 0.000000 0.000000
-0.820408 0.489409 2.385788 0.000000 0.000000 0.000000
-0.969158 0.665654 2.546604 0.000000 0.000000 0.000000
-0.868325 0.545450 2.478938 0.000000 0.000000 0.000000
-0.838391 0.480983 2.420103 0.000000 0.000000 0.000000
-0.872135 0.671849 2.276998 0.000000 0.000000 0.000000
-0.839444 0.481727 2.420542 0.000000 0.000000 0.000000
-0.824569 0.628249 2.264136 0.000000 0.000000 0.000000
-0.958062 0.703311 2.439216 0.000000 0.000000 0.000000
-0.876618 0.597093 2.476393 0.000000 0.000000 0.000000
-0.830709 0.485422 2.396278 0.000000 0.000000 0.000000
-0.810747 0.623905 2.232472 0.000000 0.000000 0.000000
-0.839434 0.490658 2.423455 0.000000 0.000000 0.000000
-0.849616 0.581687 2.419516 0.000000 0.000000 0.000000
-0.883118 0.641672 2.396619 0.000000 0.000000 0.000000
-0.931130 0.644992 2.525080 0.000000 0.000000 0.000000
-0.827860 0.634956 2.263319 0.000000 0.000000 0.000000
-0.752207 0.558199 2.258066 0.000000 0.000000 0.000000
-0.914131 0.656835 2.464296 0.000000 0.000000 0.000000
-0.863654 0.657401 2.318839 0.000000 0.000000 0.000000
-0.851819 0.647759 2.279127 0.000000 0.000000 0.000000
-0.828984 0.540813 2.394684 0.000000 0.000000 0.000000
-0.939646 0.665527 2.508898 0.000000 0.000000 0.000000
-0.758925 0.580472 2.247096 0.000000 0.000000 0.000000
-0.963027 0.664125 2.516367 0.000000 0.000000 0.000000
-0.731676 0.565877 2.234808 0.000000 0.000000 0.000000
-0.833503 0.492900 2.410245 0.000000 0.000000 0.000000
-0.754507 0.546590 2.271343 0.000000 0.000000 0.000000
-0.953548 0.702702 2.443013 0.000000 0.000000 0.000000
-0.835564 0.470547 2.401884 0.000000 0.000000 0.000000
-0.823762 0.542424 2.379487 0.000000 0.000000 0.000000
-0.839498 0.476449 2.416669 0.000000 0.000000 0.000000
-0.834503 0.485919 2.409349 0.000000 0.000000 0.000000
-0.837887 0.475296 2.408935 0.000000 0.000000 0.000000
-0.967837 0.709112 2.441539 0.000000 0.000000 0.000000
-0.753030 0.565911 2.259255 0.000000 0.000000 0.000000
-0.787514 0.574839 2.307695 0.000000 0.000000 0.000000
-0.971832 0.650425 2.574122 0.000000 0.000000 0.000000
-0.910216 0.637011 2.512087 0.000000 0.000000 0.000000
-0.885886 0.661719 2.363585 0.000000 0.000000 0.000000
-0.744956 0.565198 2.254609 0.000000 0.000000 0.000000
-0.864722 0.581841 2.454690 0.000000 0.000000 0.000000
-0.880013 0.586716 2.489906 0.000000 0.000000 0.000000
-0.826383 0.637311 2.257637 0.000000 0.000000 0.000000
-0.831316 0.640711 2.244729 0.000000 0.000000 0.000000
-0.831910 0.645196 2.242505 0.000000 0.000000 0.000000
-0.827368 0.537274 2.389619 0.000000 0.000000 0.000000
-0.837329 0.571987 2.398448 0.000000 0.000000 0.000000
-0.921121 0.644880 2.485426 0.000000 0.000000 0.000000
-0.886216 0.656276 2.375026 0.000000 0.000000 0.000000
-0.874296 0.576599 2.481048 0.000000 0.000000 0.000000
-0.853943 0.597053 2.419230 0.000000 0.000000 0.000000
-0.835928 0.594382 2.377721 0.000000 0.000000 0.000000
-0.914633 0.627619 2.529508 0.000000 0.000000 0.000000
-0.807864 0.632208 2.219174 0.000000 0.000000 0.000000
-0.793909 0.575205 2.324386 0.000000 0.000000 0.000000
-0.959568 0.651725 2.556558 0.000000 0.000000 0.000000
-0.835715 0.635341 2.277241 0.000000 0.000000 0.000000
-0.784956 0.520929 2.318316 0.000000 0.000000 0.000000
-0.790448 0.607731 2.247419 0.000000 0.000000 0.000000
-0.905596 0.583295 2.544229 0.000000 0.000000 0.000000
-0.808675 0.538879 2.349799 0.000000 0.000000 0.000000
-0.859713 0.574713 2.444373 0.000000 0.000000 0.000000
-0.821790 0.634559 2.243407 0.000000 0.000000 0.000000
-0.932469 0.635599 2.541006 0.000000 0.000000 0.000000
-0.886904 0.657589 2.395407 0.000000 0.000000 0.000000
-0.959325 0.707842 2.436477 0.000000 0.000000 0.000000
-0.909998 0.648248 2.489672 0.000000 0.000000 0.000000
-0.823727 0.604764 2.343848 0.000000 0.000000 0.000000
-0.737605 0.544324 2.253800 0.000000 0.000000 0.000000
-0.859625 0.626947 2.401280 0.000000 0.000000 0.000000
-0.881999 0.637469 2.441735 0.000000 0.000000 0.000000
-0.906401 0.632987 2.499925 0.000000 0.000000 0.000000
-0.840256 0.588501 2.395619 0.000000 0.000000 0.000000
-0.809582 0.602682 2.327154 0.000000 0.000000 0.000000
-0.913236 0.634067 2.520061 0.000000 0.000000 0.000000
-0.808901 0.626915 2.241875 0.000000 0.000000 0.000000
-0.833257 0.622550 2.325882 0.000000 0.000000 0.000000
-0.828765 0.483026 2.410206 0.000000 0.000000 0.000000
-0.871102 0.525016 2.490799 0.000000 0.000000 0.000000
-0.876263 0.640048 2.425007 0.000000 0.000000 0.000000
-0.881786 0.683384 2.255281 0.000000 0.000000 0.000000
-0.851062 0.618184 2.393075 0.000000 0.000000 0.000000
-0.752536 0.588744 2.215958 0.000000 0.000000 0.000000
-0.876618 0.527021 2.501528 0.000000 0.000000 0.000000
-0.739457 0.529869 2.252721 0.000000 0.000000 0.000000
-0.846198 0.601849 2.403166 0.000000 0.000000 0.000000
-0.890161 0.685582 2.259470 0.000000 0.000000 0.000000
-0.723310 0.555443 2.241477 0.000000 0.000000 0.000000
-0.769595 0.513394 2.297955 0.000000 0.000000 0.000000
-0.937853 0.660733 2.503738 0.000000 0.000000 0.000000
-0.833876 0.471438 2.401115 0.000000 0.000000 0.000000
-0.923522 0.601778 2.560433 0.000000 0.000000 0.000000
-0.902761 0.575036 2.549048 0.000000 0.000000 0.000000
-0.931566 0.705062 2.337361 0.000000 0.000000 0.000000
-0.889072 0.583685 2.515301 0.000000 0.000000 0.000000
-0.977357 0.694557 2.473501 0.000000 0.000000 0.000000
-0.843898 0.541945 2.434947 0.000000 0.000000 0.000000
-0.806890 0.545644 2.347952 0.000000 0.000000 0.000000
-0.974463 0.698592 2.469630 0.000000 0.000000 0.000000
-0.785802 0.551139 2.309371 0.000000 0.000000 0.000000
-0.938311 0.615399 2.567801 0.000000 0.000000 0.000000
-0.751849 0.513890 2.270562 0.000000 0.000000 0.000000
-0.911876 0.615578 2.535475 0.000000 0.000000 0.000000
-0.862972 0.625506 2.426427 0.000000 0.000000 0.000000
-0.748698 0.522326 2.268298 0.000000 0.000000 0.000000
-0.974199 0.699608 2.506428 0.000000 0.000000 0.000000
-0.874923 0.548364 2.494259 0.000000 0.000000 0.000000
-0.867443 0.596618 2.454152 0.000000 0.000000 0.000000
-0.785835 0.580260 2.306541 0.000000 0.000000 0.000000
-0.812993 0.593508 2.330412 0.000000 0.000000 0.000000
-0.816450 0.607572 2.315075 0.000000 0.000000 0.000000
-0.888753 0.634974 2.465757 0.000000 0.000000 0.000000
-0.874860 0.642121 2.405302 0.000000 0.000000 0.000000
-0.974419 0.700084 2.469953 0.000000 0.000000 0.000000
-0.824644 0.565881 2.375728 0.000000 0.000000 0.000000
-0.798564 0.528024 2.336863 0.000000 0.000000 0.000000
-0.938506 0.618087 2.563651 0.000000 0.000000 0.000000
-0.746816 0.566690 2.261066 0.000000 0.000000 0.000000
-0.746838 0.522252 2.263652 0.000000 0.000000 0.000000
-0.978796 0.669588 2.575167 0.000000 0.000000 0.000000
-0.915953 0.620509 2.536622 0.000000 0.000000 0.000000
-0.881510 0.535046 2.513946 0.000000 0.000000 0.000000
-0.911781 0.602686 2.542485 0.000000 0.000000 0.000000
-0.949865 0.633560 2.571320 0.000000 0.000000 0.000000
-0.880511 0.645892 2.397857 0.000000 0.000000 0.000000
-0.823330 0.607495 2.331660 0.000000 0.000000 0.000000
-0.823136 0.595945 2.355492 0.000000 0.000000 0.000000
-0.863243 0.643142 2.361209 0.000000 0.000000 0.000000
-0.915154 0.704768 2.302632 0.000000 0.000000 0.000000
-0.988056 0.673708 2.577454 0.000000 0.000000 0.000000
-0.805278 0.625529 2.215225 0.000000 0.000000 0.000000
-0.857487 0.627664 2.394226 0.000000 0.000000 0.000000
-0.818855 0.638672 2.233113 0.000000 0.000000 0.000000
-0.816534 0.634103 2.238655 0.000000 0.000000 0.000000
-0.914495 0.703160 2.295468 0.000000 0.000000 0.000000
-0.810668 0.627318 2.214411 0.000000 0.000000 0.000000
-0.937186 0.622418 2.561266 0.000000 0.000000 0.000000
-0.919999 0.707121 2.302625 0.000000 0.000000 0.000000
-0.928708 0.619918 2.552287 0.000000 0.000000 0.000000
-0.855359 0.626419 2.390522 0.000000 0.000000 0.000000
-0.925256 0.704591 2.318690 0.000000 0.000000 0.000000
-0.916789 0.591338 2.551042 0.000000 0.000000 0.000000
-0.915335 0.603216 2.549695 0.000000 0.000000 0.000000
-0.803896 0.628414 2.217209 0.000000 0.000000 0.000000
-0.832290 0.470379 2.394967 0.000000 0.000000 0.000000
-0.852437 0.492659 2.460831 0.000000 0.000000 0.000000
-0.836262 0.471153 2.404293 0.000000 0.000000 0.000000
-0.835927 0.465322 2.389401 0.000000 0.000000 0.000000
-0.916716 0.697089 2.315219 0.000000 0.000000 0.000000
-0.825594 0.487220 2.386754 0.000000 0.000000 0.000000
-0.979021 0.672701 2.576611 0.000000 0.000000 0.000000
-0.835149 0.471560 2.399928 0.000000 0.000000 0.000000
-0.837784 0.475828 2.415730 0.000000 0.000000 0.000000
-0.833496 0.490098 2.406217 0.000000 0.000000 0.000000
-0.878709 0.542077 2.507323 0.000000 0.000000 0.000000
-0.828635 0.644564 2.214781 0.000000 0.000000 0.000000
-0.832242 0.650095 2.225812 0.000000 0.000000 0.000000
-0.849625 0.491375 2.457189 0.000000 0.000000 0.000000
-0.839154 0.475682 2.414431 0.000000 0.000000 0.000000
-0.834398 0.471721 2.397437 0.000000 0.000000 0.000000
-0.807995 0.593696 2.331184 0.000000 0.000000 0.000000
-0.833930 0.469056 2.395480 0.000000 0.000000 0.000000
-0.973119 0.663233 2.569537 0.000000 0.000000 0.000000
-0.835444 0.470994 2.406292 0.000000 0.000000 0.000000
-0.826667 0.490534 2.401157 0.000000 0.000000 0.000000
-0.825886 0.466455 2.364590 0.000000 0.000000 0.000000
-0.871012 0.523952 2.495011 0.000000 0.000000 0.000000
-0.828695 0.464355 2.361464 0.000000 0.000000 0.000000
-0.827699 0.645861 2.219296 0.000000 0.000000 0.000000
-0.835534 0.650615 2.233889 0.000000 0.000000 0.000000
-0.812339 0.634934 2.215609 0.000000 0.000000 0.000000
-0.878813 0.537804 2.505079 0.000000 0.000000 0.000000
-0.783430 0.579687 2.299443 0.000000 0.000000 0.000000
-0.888318 0.545164 2.523638 0.000000 0.000000 0.000000
-0.969188 0.706838 2.387648 0.000000 0.000000 0.000000
-0.888827 0.550837 2.530449 0.000000 0.000000 0.000000
-0.975151 0.675763 2.571957 0.000000 0.000000 0.000000
-0.976449 0.671575 2.561638 0.000000 0.000000 0.000000
-0.884234 0.555772 2.514642 0.000000 0.000000 0.000000
-0.873063 0.523906 2.500024 0.000000 0.000000 0.000000
-0.968794 0.709613 2.402695 0.000000 0.000000 0.000000
-0.876046 0.541635 2.502097 0.000000 0.000000 0.000000
-0.884694 0.540978 2.518919 0.000000 0.000000 0.000000
-0.979143 0.668245 2.573917 0.000000 0.000000 0.000000
-0.967969 0.714915 2.432123 0.000000 0.000000 0.000000
-0.968363 0.714845 2.423306 0.000000 0.000000 0.000000
-0.970780 0.717730 2.425890 0.000000 0.000000 0.000000
-0.836817 0.472629 2.412473 0.000000 0.000000 0.000000
-0.982420 0.665535 2.558524 0.000000 0.000000 0.000000
-0.865484 0.513225 2.492034 0.000000 0.000000 0.000000
-0.969550 0.710531 2.404298 0.000000 0.000000 0.000000
-0.886285 0.552387 2.522978 0.000000 0.000000 0.000000
-0.968693 0.714433 2.429728 0.000000 0.000000 0.000000
-0.963130 0.712207 2.411225 0.000000 0.000000 0.000000
-0.834692 0.465027 2.389582 0.000000 0.000000 0.000000
-0.959636 0.709650 2.418598 0.000000 0.000000 0.000000
-0.841098 0.655661 2.223200 0.000000 0.000000 0.000000
-0.835116 0.459124 2.377456 0.000000 0.000000 0.000000
-0.822379 0.478744 2.339599 0.000000 0.000000 0.000000
-0.778860 0.605884 2.220430 0.000000 0.000000 0.000000
-0.792033 0.620492 2.213585 0.000000 0.000000 0.000000
-0.795624 0.616107 2.215014 0.000000 0.000000 0.000000
-0.834841 0.464854 2.390314 0.000000 0.000000 0.000000
-0.966514 0.707144 2.446134 0.000000 0.000000 0.000000
-0.821995 0.468262 2.340750 0.000000 0.000000 0.000000
-0.804682 0.623348 2.218053 0.000000 0.000000 0.000000
-0.779289 0.493577 2.301059 0.000000 0.000000 0.000000
-0.895791 0.691470 2.263819 0.000000 0.000000 0.000000
-0.793846 0.621161 2.213240 0.000000 0.000000 0.000000
-0.788531 0.611827 2.215513 0.000000 0.000000 0.000000
-0.799352 0.617292 2.225315 0.000000 0.000000 0.000000
-0.854890 0.664179 2.226672 0.000000 0.000000 0.000000
-0.954457 0.638677 2.572121 0.000000 0.000000 0.000000
-0.805950 0.623397 2.216126 0.000000 0.000000 0.000000
-0.855983 0.552557 2.451761 0.000000 0.000000 0.000000
-0.836103 0.552034 2.414412 0.000000 0.000000 0.000000
-0.841974 0.476945 2.422495 0.000000 0.000000 0.000000
-0.844662 0.657882 2.226503 0.000000 0.000000 0.000000
-0.951674 0.633816 2.567915 0.000000 0.000000 0.000000
-0.789484 0.618241 2.223477 0.000000 0.000000 0.000000
-0.797794 0.623647 2.220501 0.000000 0.000000 0.000000
-0.836452 0.466459 2.396440 0.000000 0.000000 0.000000
-0.785834 0.612314 2.227122 0.000000 0.000000 0.000000
-0.841550 0.554006 2.422493 0.000000 0.000000 0.000000
-0.723454 0.560813 2.238625 0.000000 0.000000 0.000000
-0.855666 0.537207 2.455039 0.000000 0.000000 0.000000
-0.951506 0.638601 2.570615 0.000000 0.000000 0.000000
-0.841758 0.657474 2.225171 0.000000 0.000000 0.000000
-0.941352 0.630193 2.561690 0.000000 0.000000 0.000000
-0.940937 0.623790 2.564997 0.000000 0.000000 0.000000
-0.797862 0.622997 2.215538 0.000000 0.000000 0.000000
-0.806281 0.625939 2.223448 0.000000 0.000000 0.000000
-0.793696 0.618831 2.215570 0.000000 0.000000 0.000000
-0.831368 0.468691 2.384690 0.000000 0.000000 0.000000
-0.784949 0.610416 2.217385 0.000000 0.000000 0.000000
-0.822673 0.464824 2.355533 0.000000 0.000000 0.000000
-0.935695 0.709918 2.341730 0.000000 0.000000 0.000000
-0.956009 0.639049 2.572829 0.000000 0.000000 0.000000
-0.891891 0.599916 2.511998 0.000000 0.000000 0.000000
-0.951858 0.641720 2.565474 0.000000 0.000000 0.000000
-0.940563 0.619897 2.563105 0.000000 0.000000 0.000000
-0.908657 0.599179 2.540627 0.000000 0.000000 0.000000
-0.961584 0.649054 2.569800 0.000000 0.000000 0.000000
-0.895944 0.598458 2.523682 0.000000 0.000000 0.000000
-0.957155 0.646474 2.565758 0.000000 0.000000 0.000000
-0.937414 0.622433 2.563261 0.000000 0.000000 0.000000
-0.944903 0.640706 2.557214 0.000000 0.000000 0.000000
-0.931112 0.616621 2.559472 0.000000 0.000000 0.000000
-0.898450 0.584532 2.533330 0.000000 0.000000 0.000000
-0.973156 0.661027 2.570884 0.000000 0.000000 0.000000
-0.904612 0.579642 2.545374 0.000000 0.000000 0.000000
-0.821533 0.467085 2.359393 0.000000 0.000000 0.000000
-0.817428 0.465522 2.349036 0.000000 0.000000 0.000000
-0.893385 0.568718 2.539416 0.000000 0.000000 0.000000
-0.937708 0.705874 2.338928 0.000000 0.000000 0.000000
-0.930704 0.704806 2.325350 0.000000 0.000000 0.000000
-0.897550 0.565241 2.538864 0.000000 0.000000 0.000000
-0.940598 0.620289 2.566154 0.000000 0.000000 0.000000
-0.944633 0.625546 2.570734 0.000000 0.000000 0.000000
-0.828623 0.467431 2.379410 0.000000 0.000000 0.000000
-0.938982 0.623998 2.569587 0.000000 0.000000 0.000000
-0.940648 0.621999 2.568554 0.000000 0.000000 0.000000
-0.893984 0.585155 2.523704 0.000000 0.000000 0.000000
-0.951933 0.644315 2.561591 0.000000 0.000000 0.000000
-0.937205 0.616880 2.563780 0.000000 0.000000 0.000000
-0.904241 0.584557 2.540850 0.000000 0.000000 0.000000
-0.965037 0.652437 2.567669 0.000000 0.000000 0.000000
-0.900751 0.601239 2.530778 0.000000 0.000000 0.000000
-0.947694 0.631104 2.569260 0.000000 0.000000 0.000000
-0.943514 0.636724 2.558954 0.000000 0.000000 0.000000
-0.939826 0.633934 2.553087 0.000000 0.000000 0.000000
-0.945437 0.628915 2.568206 0.000000 0.000000 0.000000
-0.894199 0.585346 2.525254 0.000000 0.000000 0.000000
-0.970775 0.660923 2.565410 0.000000 0.000000 0.000000
-0.891613 0.578438 2.524189 0.000000 0.000000 0.000000
-0.814315 0.476630 2.349618 0.000000 0.000000 0.000000
-0.823424 0.468938 2.353363 0.000000 0.000000 0.000000
-0.970709 0.656063 2.572421 0.000000 0.000000 0.000000
-0.860501 0.516631 2.478997 0.000000 0.000000 0.000000
-0.933167 0.707048 2.330302 0.000000 0.000000 0.000000
-0.934225 0.704051 2.332286 0.000000 0.000000 0.000000
-0.902246 0.570736 2.539878 0.000000 0.000000 0.000000
-0.956014 0.638012 2.570335 0.000000 0.000000 0.000000
-0.950238 0.635349 2.570092 0.000000 0.000000 0.000000
-0.825868 0.471117 2.371912 0.000000 0.000000 0.000000
-0.926697 0.708191 2.314306 0.000000 0.000000 0.000000
-0.959547 0.639456 2.567542 0.000000 0.000000 0.000000
-0.957210 0.642030 2.566081 0.000000 0.000000 0.000000
-0.884659 0.551083 2.514746 0.000000 0.000000 0.000000
-0.825342 0.463878 2.356070 0.000000 0.000000 0.000000
-0.997683 0.662123 2.534711 0.000000 0.000000 0.000000
-0.888534 0.553580 2.524920 0.000000 0.000000 0.000000
-0.985365 0.688766 2.491853 0.000000 0.000000 0.000000
-0.977768 0.687534 2.479787 0.000000 0.000000 0.000000
-0.835360 0.478336 2.406819 0.000000 0.000000 0.000000
-0.890315 0.546521 2.525913 0.000000 0.000000 0.000000
-0.879305 0.547679 2.511600 0.000000 0.000000 0.000000
-0.890467 0.552562 2.524023 0.000000 0.000000 0.000000
-0.885395 0.556986 2.518385 0.000000 0.000000 0.000000
-0.880566 0.549771 2.506866 0.000000 0.000000 0.000000
-0.977210 0.663120 2.537772 0.000000 0.000000 0.000000
-0.833167 0.469505 2.397311 0.000000 0.000000 0.000000
-0.960396 0.703696 2.370994 0.000000 0.000000 0.000000
-0.881757 0.538249 2.513655 0.000000 0.000000 0.000000
-0.818800 0.468677 2.346539 0.000000 0.000000 0.000000
-0.978277 0.678883 2.540481 0.000000 0.000000 0.000000
-0.960386 0.710896 2.362145 0.000000 0.000000 0.000000
-0.984980 0.685049 2.487156 0.000000 0.000000 0.000000
-0.863144 0.509024 2.489128 0.000000 0.000000 0.000000
-0.979285 0.690084 2.477855 0.000000 0.000000 0.000000
-0.983475 0.664725 2.538385 0.000000 0.000000 0.000000
-0.982143 0.664845 2.533514 0.000000 0.000000 0.000000
-0.990957 0.665588 2.542243 0.000000 0.000000 0.000000
-0.748475 0.570354 2.244457 0.000000 0.000000 0.000000
-0.984262 0.667021 2.548718 0.000000 0.000000 0.000000
-0.835508 0.609038 2.378759 0.000000 0.000000 0.000000
-0.881827 0.536798 2.508460 0.000000 0.000000 0.000000
-0.829124 0.462719 2.366782 0.000000 0.000000 0.000000
-0.887964 0.574304 2.519324 0.000000 0.000000 0.000000
-0.877096 0.537586 2.501892 0.000000 0.000000 0.000000
-0.828632 0.474780 2.399388 0.000000 0.000000 0.000000
-0.963204 0.705930 2.373113 0.000000 0.000000 0.000000
-0.822748 0.467081 2.364252 0.000000 0.000000 0.000000
-0.895959 0.569422 2.531525 0.000000 0.000000 0.000000
-0.993925 0.665446 2.520416 0.000000 0.000000 0.000000
-0.955164 0.707723 2.367673 0.000000 0.000000 0.000000
-0.860150 0.518210 2.470735 0.000000 0.000000 0.000000
-0.981035 0.692585 2.479153 0.000000 0.000000 0.000000
-0.886961 0.561338 2.526269 0.000000 0.000000 0.000000
-0.886111 0.546673 2.519637 0.000000 0.000000 0.000000
-0.887098 0.546500 2.525025 0.000000 0.000000 0.000000
-0.986780 0.666638 2.543182 0.000000 0.000000 0.000000
-0.989054 0.666808 2.544089 0.000000 0.000000 0.000000
-0.733975 0.548382 2.250084 0.000000 0.000000 0.000000
-0.986516 0.664914 2.535051 0.000000 0.000000 0.000000
-0.833875 0.465405 2.387810 0.000000 0.000000 0.000000
-0.883949 0.537110 2.522050 0.000000 0.000000 0.000000
-0.837601 0.466854 2.399463 0.000000 0.000000 0.000000
-0.888245 0.546379 2.521467 0.000000 0.000000 0.000000
-0.826666 0.462566 2.357781 0.000000 0.000000 0.000000
-0.977708 0.671561 2.563457 0.000000 0.000000 0.000000
-0.958855 0.709501 2.407089 0.000000 0.000000 0.000000
-0.979723 0.672714 2.566085 0.000000 0.000000 0.000000
-0.968448 0.715310 2.411007 0.000000 0.000000 0.000000
-0.963299 0.712498 2.405979 0.000000 0.000000 0.000000
-0.963774 0.714589 2.408338 0.000000 0.000000 0.000000
-0.837525 0.479559 2.412541 0.000000 0.000000 0.000000
-0.832007 0.467684 2.389318 0.000000 0.000000 0.000000
-0.838488 0.473401 2.414711 0.000000 0.000000 0.000000
-0.833916 0.477060 2.401801 0.000000 0.000000 0.000000
-0.969857 0.709113 2.401982 0.000000 0.000000 0.000000
-0.834918 0.476273 2.406804 0.000000 0.000000 0.000000
-0.831320 0.481420 2.399120 0.000000 0.000000 0.000000
-0.823960 0.480920 2.379420 0.000000 0.000000 0.000000
-0.964188 0.710530 2.400180 0.000000 0.000000 0.000000
-0.969870 0.710209 2.398047 0.000000 0.000000 0.000000
-0.962668 0.711319 2.403151 0.000000 0.000000 0.000000
-0.833315 0.470806 2.393635 0.000000 0.000000 0.000000
-0.835314 0.467625 2.402549 0.000000 0.000000 0.000000
-0.828997 0.469991 2.386978 0.000000 0.000000 0.000000
-0.820239 0.469022 2.342195 0.000000 0.000000 0.000000
-0.789499 0.614785 2.216440 0.000000 0.000000 0.000000
-0.840679 0.468689 2.412325 0.000000 0.000000 0.000000
-0.968387 0.714359 2.416830 0.000000 0.000000 0.000000
-0.838260 0.463948 2.396765 0.000000 0.000000 0.000000
-0.799116 0.479183 2.309678 0.000000 0.000000 0.000000
-0.829358 0.486816 2.395115 0.000000 0.000000 0.000000
-0.825639 0.472662 2.376354 0.000000 0.000000 0.000000
-0.936848 0.646762 2.541794 0.000000 0.000000 0.000000
-0.954223 0.661826 2.529343 0.000000 0.000000 0.000000
-0.968456 0.713501 2.415946 0.000000 0.000000 0.000000
-0.968764 0.713130 2.409009 0.000000 0.000000 0.000000
-0.969431 0.714473 2.416782 0.000000 0.000000 0.000000
-0.827065 0.474610 2.393674 0.000000 0.000000 0.000000
-0.829619 0.470231 2.388492 0.000000 0.000000 0.000000
-0.828997 0.467637 2.375756 0.000000 0.000000 0.000000
-0.966837 0.712492 2.430303 0.000000 0.000000 0.000000
-0.792421 0.618861 2.222089 0.000000 0.000000 0.000000
-0.965045 0.713973 2.416462 0.000000 0.000000 0.000000
-0.835950 0.463479 2.386456 0.000000 0.000000 0.000000
-0.833713 0.463393 2.396615 0.000000 0.000000 0.000000
-0.799223 0.478516 2.309472 0.000000 0.000000 0.000000
-0.984785 0.673419 2.559798 0.000000 0.000000 0.000000
-0.983476 0.671529 2.555262 0.000000 0.000000 0.000000
-0.843012 0.659820 2.219258 0.000000 0.000000 0.000000
-0.984603 0.678580 2.560663 0.000000 0.000000 0.000000
-0.988550 0.670399 2.553612 0.000000 0.000000 0.000000
-0.968498 0.664124 2.559026 0.000000 0.000000 0.000000
-0.839340 0.472408 2.414567 0.000000 0.000000 0.000000
-0.848288 0.660846 2.227615 0.000000 0.000000 0.000000
-0.870482 0.523461 2.483581 0.000000 0.000000 0.000000
-0.879991 0.558731 2.503420 0.000000 0.000000 0.000000
-0.835990 0.650744 2.238458 0.000000 0.000000 0.000000
-0.810428 0.630056 2.218655 0.000000 0.000000 0.000000
-0.977199 0.670660 2.555918 0.000000 0.000000 0.000000
-0.985904 0.671387 2.558101 0.000000 0.000000 0.000000
-0.853117 0.521490 2.459332 0.000000 0.000000 0.000000
-0.979307 0.669998 2.557078 0.000000 0.000000 0.000000
-0.846915 0.661086 2.238804 0.000000 0.000000 0.000000
-0.851654 0.665965 2.230754 0.000000 0.000000 0.000000
-0.898868 0.692464 2.266516 0.000000 0.000000 0.000000
-0.846001 0.479593 2.434007 0.000000 0.000000 0.000000
-0.887460 0.566835 2.520414 0.000000 0.000000 0.000000
-0.829519 0.636271 2.264940 0.000000 0.000000 0.000000
-0.979762 0.668675 2.552756 0.000000 0.000000 0.000000
-0.989848 0.671005 2.556202 0.000000 0.000000 0.000000
-0.966193 0.672121 2.550122 0.000000 0.000000 0.000000
-0.840447 0.477559 2.420369 0.000000 0.000000 0.000000
-0.851155 0.663980 2.227843 0.000000 0.000000 0.000000
-0.841120 0.654608 2.236742 0.000000 0.000000 0.000000
-0.843056 0.475844 2.424293 0.000000 0.000000 0.000000
-0.969523 0.698995 2.465101 0.000000 0.000000 0.000000
-0.890708 0.554754 2.519873 0.000000 0.000000 0.000000
-0.886633 0.548868 2.517868 0.000000 0.000000 0.000000
-0.972939 0.705135 2.463953 0.000000 0.000000 0.000000
-0.942573 0.716127 2.340078 0.000000 0.000000 0.000000
-0.969890 0.703024 2.457370 0.000000 0.000000 0.000000
-0.973940 0.700066 2.471304 0.000000 0.000000 0.000000
-0.960759 0.659421 2.519382 0.000000 0.000000 0.000000
-0.979965 0.653969 2.575374 0.000000 0.000000 0.000000
-0.791557 0.483585 2.308181 0.000000 0.000000 0.000000
-0.974766 0.696078 2.472957 0.000000 0.000000 0.000000
-0.883104 0.529788 2.514486 0.000000 0.000000 0.000000
-0.992192 0.667163 2.532514 0.000000 0.000000 0.000000
-0.987109 0.666351 2.528473 0.000000 0.000000 0.000000
-0.970553 0.712284 2.453812 0.000000 0.000000 0.000000
-0.937766 0.711741 2.336424 0.000000 0.000000 0.000000
-0.965661 0.706905 2.450333 0.000000 0.000000 0.000000
-0.968052 0.659584 2.535431 0.000000 0.000000 0.000000
-0.980728 0.661476 2.576364 0.000000 0.000000 0.000000
-0.797013 0.477491 2.309197 0.000000 0.000000 0.000000
-0.901262 0.693087 2.262714 0.000000 0.000000 0.000000
-0.993062 0.663090 2.525590 0.000000 0.000000 0.000000
-0.988975 0.665355 2.538116 0.000000 0.000000 0.000000
-0.933449 0.707784 2.330326 0.000000 0.000000 0.000000
-0.980732 0.672444 2.564295 0.000000 0.000000 0.000000
-0.970490 0.694362 2.469116 0.000000 0.000000 0.000000
-0.812293 0.470237 2.332067 0.000000 0.000000 0.000000
-0.974644 0.695957 2.473230 0.000000 0.000000 0.000000
-0.831118 0.649385 2.221391 0.000000 0.000000 0.000000
-0.974576 0.672405 2.564760 0.000000 0.000000 0.000000
-0.973754 0.669095 2.566908 0.000000 0.000000 0.000000
-0.938327 0.710145 2.338539 0.000000 0.000000 0.000000
-0.763696 0.594668 2.217997 0.000000 0.000000 0.000000
-0.888201 0.684181 2.265832 0.000000 0.000000 0.000000
-0.827989 0.646870 2.222525 0.000000 0.000000 0.000000
-0.820421 0.639617 2.223800 0.000000 0.000000 0.000000
-0.761173 0.595495 2.214262 0.000000 0.000000 0.000000
-0.905070 0.697369 2.272479 0.000000 0.000000 0.000000
-0.809850 0.476673 2.335045 0.000000 0.000000 0.000000
-0.970409 0.664612 2.551938 0.000000 0.000000 0.000000
-0.972093 0.707555 2.467647 0.000000 0.000000 0.000000
-0.761381 0.592488 2.217620 0.000000 0.000000 0.000000
-0.822092 0.640510 2.217511 0.000000 0.000000 0.000000
-0.825788 0.645875 2.222768 0.000000 0.000000 0.000000
-0.821479 0.638983 2.229018 0.000000 0.000000 0.000000
-0.901009 0.694020 2.273278 0.000000 0.000000 0.000000
-0.810840 0.473761 2.325484 0.000000 0.000000 0.000000
-0.975845 0.697923 2.474811 0.000000 0.000000 0.000000
-0.969382 0.711149 2.424726 0.000000 0.000000 0.000000
-0.824942 0.641403 2.223440 0.000000 0.000000 0.000000
-0.968803 0.716542 2.429515 0.000000 0.000000 0.000000
-0.839067 0.478516 2.419781 0.000000 0.000000 0.000000
-0.874307 0.527566 2.502135 0.000000 0.000000 0.000000
-0.815766 0.639020 2.218012 0.000000 0.000000 0.000000
-0.873868 0.526034 2.499450 0.000000 0.000000 0.000000
-0.830460 0.464453 2.374016 0.000000 0.000000 0.000000
-0.839468 0.475608 2.428904 0.000000 0.000000 0.000000
-0.862736 0.517433 2.487130 0.000000 0.000000 0.000000
-0.870875 0.524636 2.481747 0.000000 0.000000 0.000000
-0.961178 0.705850 2.374818 0.000000 0.000000 0.000000
-0.834050 0.651168 2.223517 0.000000 0.000000 0.000000
-0.959963 0.642538 2.570382 0.000000 0.000000 0.000000
-0.948256 0.639363 2.568223 0.000000 0.000000 0.000000
-0.968011 0.650348 2.570422 0.000000 0.000000 0.000000
-0.960956 0.705383 2.375668 0.000000 0.000000 0.000000
-0.956406 0.709168 2.368778 0.000000 0.000000 0.000000
-0.954230 0.649323 2.559026 0.000000 0.000000 0.000000
-0.911971 0.700063 2.303744 0.000000 0.000000 0.000000
-0.902279 0.572279 2.537517 0.000000 0.000000 0.000000
-0.751950 0.518895 2.273375 0.000000 0.000000 0.000000
-0.759803 0.508394 2.279882 0.000000 0.000000 0.000000
-0.752928 0.510725 2.271608 0.000000 0.000000 0.000000
-0.915947 0.705837 2.300368 0.000000 0.000000 0.000000
-0.755410 0.507036 2.278444 0.000000 0.000000 0.000000
-0.755620 0.506346 2.275022 0.000000 0.000000 0.000000
-0.944072 0.633896 2.563396 0.000000 0.000000 0.000000
-0.863488 0.515032 2.495636 0.000000 0.000000 0.000000
-0.959044 0.639227 2.571230 0.000000 0.000000 0.000000
-0.945584 0.643560 2.556527 0.000000 0.000000 0.000000
-0.912962 0.701688 2.299487 0.000000 0.000000 0.000000
-0.749174 0.513413 2.266967 0.000000 0.000000 0.000000
-0.755788 0.512172 2.278722 0.000000 0.000000 0.000000
-0.745958 0.532129 2.263910 0.000000 0.000000 0.000000
-0.824492 0.464109 2.355511 0.000000 0.000000 0.000000
-0.771598 0.493846 2.291717 0.000000 0.000000 0.000000
-0.764345 0.496460 2.282898 0.000000 0.000000 0.000000
-0.916114 0.702204 2.310304 0.000000 0.000000 0.000000
-0.752551 0.514946 2.275966 0.000000 0.000000 0.000000
-0.752272 0.511408 2.272460 0.000000 0.000000 0.000000
-0.939795 0.620058 2.568349 0.000000 0.000000 0.000000
-0.937333 0.617786 2.566649 0.000000 0.000000 0.000000
-0.812625 0.473362 2.344581 0.000000 0.000000 0.000000
-0.817123 0.488682 2.365358 0.000000 0.000000 0.000000
-0.980047 0.678243 2.573575 0.000000 0.000000 0.000000
-0.979404 0.674180 2.572329 0.000000 0.000000 0.000000
-0.978127 0.671055 2.572299 0.000000 0.000000 0.000000
-0.823554 0.465352 2.349511 0.000000 0.000000 0.000000
-0.747645 0.524809 2.266526 0.000000 0.000000 0.000000
-0.777926 0.487158 2.293867 0.000000 0.000000 0.000000
-0.777505 0.493686 2.294033 0.000000 0.000000 0.000000
-0.766160 0.514532 2.279754 0.000000 0.000000 0.000000
-0.764226 0.511672 2.287989 0.000000 0.000000 0.000000
-0.771052 0.488459 2.289033 0.000000 0.000000 0.000000
-0.768489 0.495100 2.287240 0.000000 0.000000 0.000000
-0.754074 0.505455 2.272747 0.000000 0.000000 0.000000
-0.767822 0.492032 2.286920 0.000000 0.000000 0.000000
-0.818336 0.468883 2.337077 0.000000 0.000000 0.000000
-0.958510 0.649166 2.565668 0.000000 0.000000 0.000000
-0.751656 0.508847 2.274306 0.000000 0.000000 0.000000
-0.757833 0.501377 2.277944 0.000000 0.000000 0.000000
-0.755218 0.525364 2.275109 0.000000 0.000000 0.000000
-0.774743 0.492267 2.293489 0.000000 0.000000 0.000000
-0.769177 0.515516 2.293276 0.000000 0.000000 0.000000
-0.771514 0.504640 2.288436 0.000000 0.000000 0.000000
-0.756157 0.503594 2.272115 0.000000 0.000000 0.000000
-0.820434 0.466263 2.342468 0.000000 0.000000 0.000000
-0.732288 0.566547 2.232676 0.000000 0.000000 0.000000
-0.774403 0.487059 2.289919 0.000000 0.000000 0.000000
-0.771225 0.495873 2.288381 0.000000 0.000000 0.000000
-0.782248 0.486351 2.299138 0.000000 0.000000 0.000000
-0.817616 0.470793 2.342566 0.000000 0.000000 0.000000
-0.949176 0.659889 2.548744 0.000000 0.000000 0.000000
-0.756150 0.504438 2.276030 0.000000 0.000000 0.000000
-0.842423 0.473834 2.418648 0.000000 0.000000 0.000000
-0.862506 0.508185 2.483565 0.000000 0.000000 0.000000
-0.745370 0.513575 2.264012 0.000000 0.000000 0.000000
-0.964633 0.653322 2.567604 0.000000 0.000000 0.000000
-0.823216 0.476410 2.371300 0.000000 0.000000 0.000000
-0.841910 0.480001 2.427747 0.000000 0.000000 0.000000
-0.974822 0.664503 2.572989 0.000000 0.000000 0.000000
-0.821724 0.469294 2.360159 0.000000 0.000000 0.000000
-0.837566 0.470358 2.419189 0.000000 0.000000 0.000000
-0.985573 0.675068 2.559432 0.000000 0.000000 0.000000
-0.987017 0.670001 2.552210 0.000000 0.000000 0.000000
-0.855194 0.573391 2.444733 0.000000 0.000000 0.000000
-0.854258 0.495151 2.465973 0.000000 0.000000 0.000000
-0.868914 0.602604 2.453806 0.000000 0.000000 0.000000
-0.975954 0.667363 2.548685 0.000000 0.000000 0.000000
-0.848476 0.562381 2.435289 0.000000 0.000000 0.000000
-0.974628 0.665766 2.551088 0.000000 0.000000 0.000000
-0.826896 0.644137 2.221604 0.000000 0.000000 0.000000
-0.855970 0.485741 2.456383 0.000000 0.000000 0.000000
-0.852333 0.491224 2.451993 0.000000 0.000000 0.000000
-0.859304 0.582370 2.447868 0.000000 0.000000 0.000000
-0.849982 0.488581 2.450246 0.000000 0.000000 0.000000
-0.850366 0.505144 2.448914 0.000000 0.000000 0.000000
-0.861593 0.602872 2.439125 0.000000 0.000000 0.000000
-0.981460 0.669844 2.554276 0.000000 0.000000 0.000000
-0.848963 0.554691 2.448117 0.000000 0.000000 0.000000
-0.854081 0.553781 2.452634 0.000000 0.000000 0.000000
-0.976027 0.670458 2.559881 0.000000 0.000000 0.000000
-0.833451 0.651513 2.221658 0.000000 0.000000 0.000000
-0.857327 0.495100 2.464177 0.000000 0.000000 0.000000
-0.901457 0.695269 2.278710 0.000000 0.000000 0.000000
-0.935715 0.711555 2.328896 0.000000 0.000000 0.000000
-0.993062 0.670903 2.508882 0.000000 0.000000 0.000000
-0.888477 0.680406 2.276667 0.000000 0.000000 0.000000
-0.904582 0.696846 2.280968 0.000000 0.000000 0.000000
-0.860146 0.669259 2.236596 0.000000 0.000000 0.000000
-0.899970 0.572371 2.538169 0.000000 0.000000 0.000000
-0.897606 0.566003 2.535197 0.000000 0.000000 0.000000
-0.993992 0.672263 2.512873 0.000000 0.000000 0.000000
-0.896962 0.558251 2.535993 0.000000 0.000000 0.000000
-0.893223 0.568644 2.529734 0.000000 0.000000 0.000000
-0.889956 0.567993 2.525946 0.000000 0.000000 0.000000
-0.898084 0.689626 2.270535 0.000000 0.000000 0.000000
-0.901474 0.692990 2.272758 0.000000 0.000000 0.000000
-0.908780 0.697391 2.284895 0.000000 0.000000 0.000000
-0.991801 0.674704 2.505953 0.000000 0.000000 0.000000
-0.896939 0.565102 2.541774 0.000000 0.000000 0.000000
-0.926097 0.701468 2.329095 0.000000 0.000000 0.000000
-0.972333 0.688705 2.482366 0.000000 0.000000 0.000000
-0.979471 0.691744 2.478748 0.000000 0.000000 0.000000
-0.902173 0.694595 2.277571 0.000000 0.000000 0.000000
-0.870535 0.566059 2.475452 0.000000 0.000000 0.000000
-0.846382 0.493988 2.443537 0.000000 0.000000 0.000000
-0.828436 0.479299 2.389628 0.000000 0.000000 0.000000
-0.987157 0.671620 2.503828 0.000000 0.000000 0.000000
-0.847027 0.484744 2.443990 0.000000 0.000000 0.000000
-0.885610 0.684941 2.252304 0.000000 0.000000 0.000000
-0.896394 0.688284 2.265390 0.000000 0.000000 0.000000
-0.987476 0.676965 2.505218 0.000000 0.000000 0.000000
-0.929300 0.706393 2.328440 0.000000 0.000000 0.000000
-0.882019 0.553206 2.507698 0.000000 0.000000 0.000000
-0.830978 0.464867 2.378796 0.000000 0.000000 0.000000
-0.889070 0.548640 2.525194 0.000000 0.000000 0.000000
-0.877132 0.534950 2.517918 0.000000 0.000000 0.000000
-0.904480 0.574760 2.545620 0.000000 0.000000 0.000000
-0.840787 0.485228 2.425033 0.000000 0.000000 0.000000
-0.976974 0.685624 2.479312 0.000000 0.000000 0.000000
-0.845641 0.482063 2.434567 0.000000 0.000000 0.000000
-0.844436 0.481849 2.432705 0.000000 0.000000 0.000000
-0.870433 0.565345 2.476565 0.000000 0.000000 0.000000
-0.824086 0.474325 2.386369 0.000000 0.000000 0.000000
-0.827346 0.470017 2.380471 0.000000 0.000000 0.000000
-0.987971 0.669983 2.510811 0.000000 0.000000 0.000000
-0.846072 0.490277 2.441817 0.000000 0.000000 0.000000
-0.898503 0.691336 2.270163 0.000000 0.000000 0.000000
-0.868337 0.510175 2.483543 0.000000 0.000000 0.000000
-0.902018 0.693622 2.278414 0.000000 0.000000 0.000000
-0.992450 0.676948 2.507166 0.000000 0.000000 0.000000
-0.923773 0.702575 2.315581 0.000000 0.000000 0.000000
-0.870727 0.554416 2.495547 0.000000 0.000000 0.000000
-0.827423 0.465326 2.372181 0.000000 0.000000 0.000000
-0.881655 0.543740 2.513512 0.000000 0.000000 0.000000
-0.872778 0.526591 2.510613 0.000000 0.000000 0.000000
-0.897238 0.562026 2.537098 0.000000 0.000000 0.000000
-0.842021 0.485791 2.428382 0.000000 0.000000 0.000000
-0.979397 0.689805 2.480579 0.000000 0.000000 0.000000
-0.844907 0.478385 2.427637 0.000000 0.000000 0.000000
-0.846098 0.484194 2.442906 0.000000 0.000000 0.000000
-0.828873 0.464569 2.368557 0.000000 0.000000 0.000000
-0.823466 0.469759 2.360736 0.000000 0.000000 0.000000
-0.982054 0.688146 2.482639 0.000000 0.000000 0.000000
-0.826820 0.463010 2.360215 0.000000 0.000000 0.000000
-0.981464 0.690172 2.485678 0.000000 0.000000 0.000000
-0.753521 0.508674 2.272505 0.000000 0.000000 0.000000
-0.830354 0.462984 2.372924 0.000000 0.000000 0.000000
-0.735101 0.550891 2.251573 0.000000 0.000000 0.000000
-0.772763 0.576814 2.286537 0.000000 0.000000 0.000000
-0.882815 0.641273 2.450549 0.000000 0.000000 0.000000
-0.826252 0.465483 2.363366 0.000000 0.000000 0.000000
-0.827632 0.463828 2.364714 0.000000 0.000000 0.000000
-0.838445 0.469895 2.410567 0.000000 0.000000 0.000000
-0.927847 0.655740 2.518345 0.000000 0.000000 0.000000
-0.825026 0.466953 2.368767 0.000000 0.000000 0.000000
-0.749096 0.518050 2.270712 0.000000 0.000000 0.000000
-0.830637 0.464133 2.371985 0.000000 0.000000 0.000000
-0.776614 0.577098 2.289100 0.000000 0.000000 0.000000
-0.891991 0.645197 2.469981 0.000000 0.000000 0.000000
-0.826221 0.469635 2.376158 0.000000 0.000000 0.000000
-0.837119 0.468004 2.406275 0.000000 0.000000 0.000000
-0.826410 0.474037 2.383858 0.000000 0.000000 0.000000
-0.917362 0.660735 2.490058 0.000000 0.000000 0.000000
-0.819162 0.474343 2.361624 0.000000 0.000000 0.000000
-0.749862 0.511833 2.270278 0.000000 0.000000 0.000000
-0.799474 0.622302 2.216687 0.000000 0.000000 0.000000
-0.786116 0.614396 2.212366 0.000000 0.000000 0.000000
-0.792111 0.620651 2.217705 0.000000 0.000000 0.000000
-0.747078 0.575359 2.256340 0.000000 0.000000 0.000000
-0.791097 0.599493 2.266185 0.000000 0.000000 0.000000
-0.760059 0.575488 2.257379 0.000000 0.000000 0.000000
-0.837697 0.625171 2.346898 0.000000 0.000000 0.000000
-0.846267 0.621464 2.375125 0.000000 0.000000 0.000000
-0.788864 0.480173 2.298491 0.000000 0.000000 0.000000
-0.818042 0.637480 2.221348 0.000000 0.000000 0.000000
-0.802203 0.621709 2.214219 0.000000 0.000000 0.000000
-0.785490 0.613733 2.217136 0.000000 0.000000 0.000000
-0.831261 0.611554 2.360456 0.000000 0.000000 0.000000
-0.861166 0.493414 2.476158 0.000000 0.000000 0.000000
-0.766492 0.584385 2.258935 0.000000 0.000000 0.000000
-0.785881 0.594559 2.279503 0.000000 0.000000 0.000000
-0.755457 0.573197 2.264366 0.000000 0.000000 0.000000
-0.854505 0.633800 2.371885 0.000000 0.000000 0.000000
-0.847391 0.607612 2.391663 0.000000 0.000000 0.000000
-0.776865 0.489700 2.291824 0.000000 0.000000 0.000000
-0.803223 0.625634 2.215598 0.000000 0.000000 0.000000
-0.798628 0.620294 2.212176 0.000000 0.000000 0.000000
-0.789556 0.613326 2.219732 0.000000 0.000000 0.000000
-0.846777 0.616176 2.393481 0.000000 0.000000 0.000000
-0.825101 0.472822 2.373928 0.000000 0.000000 0.000000
-0.859310 0.529517 2.467694 0.000000 0.000000 0.000000
-0.736554 0.572889 2.224729 0.000000 0.000000 0.000000
-0.761910 0.586015 2.229941 0.000000 0.000000 0.000000
-0.969977 0.694070 2.466103 0.000000 0.000000 0.000000
-0.971857 0.711211 2.457777 0.000000 0.000000 0.000000
-0.759210 0.592661 2.223500 0.000000 0.000000 0.000000
-0.982768 0.684101 2.485530 0.000000 0.000000 0.000000
-0.756259 0.589328 2.227245 0.000000 0.000000 0.000000
-0.858252 0.503693 2.479070 0.000000 0.000000 0.000000
-0.975305 0.695685 2.472708 0.000000 0.000000 0.000000
-0.860620 0.510555 2.477208 0.000000 0.000000 0.000000
-0.727532 0.559918 2.241438 0.000000 0.000000 0.000000
-0.922286 0.704821 2.311567 0.000000 0.000000 0.000000
-0.978803 0.698259 2.475378 0.000000 0.000000 0.000000
-0.980916 0.689223 2.483698 0.000000 0.000000 0.000000
-0.936730 0.707267 2.337601 0.000000 0.000000 0.000000
-0.973818 0.706350 2.467259 0.000000 0.000000 0.000000
-0.833792 0.650588 2.225024 0.000000 0.000000 0.000000
-0.868061 0.511039 2.480107 0.000000 0.000000 0.000000
-0.980692 0.690244 2.483011 0.000000 0.000000 0.000000
-0.921879 0.706545 2.303922 0.000000 0.000000 0.000000
-0.921988 0.706721 2.308385 0.000000 0.000000 0.000000
-0.751426 0.581307 2.230000 0.000000 0.000000 0.000000
-0.760823 0.592266 2.222035 0.000000 0.000000 0.000000
-0.751461 0.578362 2.228628 0.000000 0.000000 0.000000
-0.924786 0.710440 2.303013 0.000000 0.000000 0.000000
-0.852127 0.498348 2.453409 0.000000 0.000000 0.000000
-0.752043 0.580626 2.235174 0.000000 0.000000 0.000000
-0.755309 0.589367 2.219667 0.000000 0.000000 0.000000
-0.771842 0.600881 2.219493 0.000000 0.000000 0.000000
-0.926702 0.707915 2.317488 0.000000 0.000000 0.000000
-0.862907 0.525150 2.475783 0.000000 0.000000 0.000000
-0.966091 0.706400 2.380666 0.000000 0.000000 0.000000
-0.862070 0.509971 2.481108 0.000000 0.000000 0.000000
-0.862350 0.509543 2.486012 0.000000 0.000000 0.000000
-0.854384 0.497278 2.470651 0.000000 0.000000 0.000000
-0.757000 0.589647 2.219722 0.000000 0.000000 0.000000
-0.740964 0.573132 2.232039 0.000000 0.000000 0.000000
-0.735950 0.570149 2.230565 0.000000 0.000000 0.000000
-0.758430 0.590715 2.223226 0.000000 0.000000 0.000000
-0.735593 0.570021 2.238634 0.000000 0.000000 0.000000
-0.744517 0.574851 2.231040 0.000000 0.000000 0.000000
-0.872873 0.543698 2.490704 0.000000 0.000000 0.000000
-0.976726 0.687067 2.476046 0.000000 0.000000 0.000000
-0.935936 0.714464 2.324298 0.000000 0.000000 0.000000
-0.849271 0.508659 2.455992 0.000000 0.000000 0.000000
-0.973551 0.705385 2.471205 0.000000 0.000000 0.000000
-0.793831 0.480766 2.309274 0.000000 0.000000 0.000000
-0.750863 0.572140 2.243555 0.000000 0.000000 0.000000
-0.733261 0.569118 2.235050 0.000000 0.000000 0.000000
-0.976442 0.707777 2.468634 0.000000 0.000000 0.000000
-0.885662 0.685717 2.247149 0.000000 0.000000 0.000000
-0.969002 0.712727 2.443451 0.000000 0.000000 0.000000
-0.974616 0.702171 2.472128 0.000000 0.000000 0.000000
-0.859314 0.507247 2.485992 0.000000 0.000000 0.000000
-0.742902 0.573374 2.237303 0.000000 0.000000 0.000000
-0.860286 0.506010 2.475848 0.000000 0.000000 0.000000
-0.926883 0.706433 2.316981 0.000000 0.000000 0.000000
-0.910592 0.693961 2.298336 0.000000 0.000000 0.000000
-0.746329 0.577310 2.227190 0.000000 0.000000 0.000000
-0.746879 0.580288 2.225389 0.000000 0.000000 0.000000
-0.742264 0.569328 2.234753 0.000000 0.000000 0.000000
-0.854035 0.497752 2.470751 0.000000 0.000000 0.000000
-0.747765 0.578915 2.229142 0.000000 0.000000 0.000000
-0.757904 0.586681 2.222780 0.000000 0.000000 0.000000
-0.922960 0.705648 2.312571 0.000000 0.000000 0.000000
-0.861599 0.518867 2.476326 0.000000 0.000000 0.000000
-0.957660 0.702947 2.379906 0.000000 0.000000 0.000000
-0.854833 0.510849 2.465229 0.000000 0.000000 0.000000
-0.874220 0.522146 2.493149 0.000000 0.000000 0.000000
-0.868756 0.519844 2.499337 0.000000 0.000000 0.000000
-0.854646 0.500294 2.468175 0.000000 0.000000 0.000000
-0.752009 0.581186 2.230826 0.000000 0.000000 0.000000
-0.744088 0.574512 2.233080 0.000000 0.000000 0.000000
-0.749668 0.584020 2.223620 0.000000 0.000000 0.000000
-0.784616 0.606362 2.219663 0.000000 0.000000 0.000000
-0.747545 0.582821 2.225301 0.000000 0.000000 0.000000
-0.748321 0.577496 2.226735 0.000000 0.000000 0.000000
-0.868923 0.528793 2.479792 0.000000 0.000000 0.000000
-0.976045 0.676242 2.489693 0.000000 0.000000 0.000000
-0.930497 0.709957 2.320505 0.000000 0.000000 0.000000
-0.856870 0.501726 2.464518 0.000000 0.000000 0.000000
-0.975080 0.703953 2.468989 0.000000 0.000000 0.000000
-0.800142 0.483792 2.323699 0.000000 0.000000 0.000000
-0.746604 0.577848 2.224290 0.000000 0.000000 0.000000
-0.742798 0.577118 2.224674 0.000000 0.000000 0.000000
-0.980777 0.695092 2.480089 0.000000 0.000000 0.000000
-0.969389 0.704273 2.462159 0.000000 0.000000 0.000000
-0.867499 0.676213 2.232059 0.000000 0.000000 0.000000
-0.971899 0.707203 2.460101 0.000000 0.000000 0.000000
-0.974886 0.699434 2.475275 0.000000 0.000000 0.000000
-0.969249 0.711182 2.457038 0.000000 0.000000 0.000000
-0.748214 0.578990 2.227783 0.000000 0.000000 0.000000
-0.866308 0.526027 2.469665 0.000000 0.000000 0.000000
-0.901251 0.691025 2.273295 0.000000 0.000000 0.000000
-0.917479 0.702529 2.297559 0.000000 0.000000 0.000000
-0.984678 0.677469 2.577920 0.000000 0.000000 0.000000
-0.918985 0.707057 2.303657 0.000000 0.000000 0.000000
-0.956251 0.634440 2.567679 0.000000 0.000000 0.000000
-0.976151 0.653821 2.575360 0.000000 0.000000 0.000000
-0.911216 0.695691 2.301784 0.000000 0.000000 0.000000
-0.905171 0.684140 2.279785 0.000000 0.000000 0.000000
-0.901625 0.693549 2.273796 0.000000 0.000000 0.000000
-0.892058 0.688078 2.268233 0.000000 0.000000 0.000000
-0.901352 0.684908 2.295681 0.000000 0.000000 0.000000
-0.915170 0.699103 2.308691 0.000000 0.000000 0.000000
-0.902100 0.694180 2.280870 0.000000 0.000000 0.000000
-0.924896 0.704894 2.312341 0.000000 0.000000 0.000000
-0.780131 0.606986 2.211972 0.000000 0.000000 0.000000
-0.896437 0.696271 2.267251 0.000000 0.000000 0.000000
-0.978864 0.672926 2.578022 0.000000 0.000000 0.000000
-0.898327 0.691599 2.261239 0.000000 0.000000 0.000000
-0.953787 0.662285 2.543632 0.000000 0.000000 0.000000
-0.897783 0.691876 2.265719 0.000000 0.000000 0.000000
-0.897196 0.691028 2.270230 0.000000 0.000000 0.000000
-0.913440 0.702092 2.291835 0.000000 0.000000 0.000000
-0.904585 0.695847 2.285652 0.000000 0.000000 0.000000
-0.904302 0.696031 2.276366 0.000000 0.000000 0.000000
-0.964460 0.713625 2.445813 0.000000 0.000000 0.000000
-0.967578 0.715110 2.443643 0.000000 0.000000 0.000000
-0.908904 0.693619 2.294784 0.000000 0.000000 0.000000
-0.917858 0.700778 2.300028 0.000000 0.000000 0.000000
-0.895333 0.690639 2.271497 0.000000 0.000000 0.000000
-0.915764 0.699828 2.295418 0.000000 0.000000 0.000000
-0.926084 0.694036 2.316453 0.000000 0.000000 0.000000
-0.779680 0.606962 2.211874 0.000000 0.000000 0.000000
-0.890890 0.688087 2.269610 0.000000 0.000000 0.000000
