ply
format ascii 1.0
comment VCGLIB generated
obj_info Generated by SPFormer!
element vertex 868
property float x
property float y
property float z
property float nx
property float ny
property float nz
end_header
0.991372 -0.595525 0.541376 0.000000 0.000000 0.000000
1.000760 -0.621939 0.549009 0.000000 0.000000 0.000000
1.051093 -0.497452 0.511522 0.000000 0.000000 0.000000
1.001331 -0.598123 0.534190 0.000000 0.000000 0.000000
1.402156 -0.625835 0.757729 0.000000 0.000000 0.000000
1.044750 -0.502595 0.522721 0.000000 0.000000 0.000000
1.090539 -0.706718 0.609242 0.000000 0.000000 0.000000
1.218412 -0.692626 0.680309 0.000000 0.000000 0.000000
1.033096 -0.669165 0.581877 0.000000 0.000000 0.000000
1.038654 -0.702819 0.602089 0.000000 0.000000 0.000000
1.008089 -0.682070 0.591732 0.000000 0.000000 0.000000
0.947606 -0.649890 0.569930 0.000000 0.000000 0.000000
1.048490 -0.548372 0.534434 0.000000 0.000000 0.000000
1.065298 -0.499086 0.516185 0.000000 0.000000 0.000000
1.029671 -0.630741 0.556049 0.000000 0.000000 0.000000
1.075750 -0.616395 0.558721 0.000000 0.000000 0.000000
1.002625 -0.695522 0.591735 0.000000 0.000000 0.000000
1.085667 -0.483884 0.521705 0.000000 0.000000 0.000000
1.107634 -0.485533 0.528725 0.000000 0.000000 0.000000
0.993572 -0.585564 0.527551 0.000000 0.000000 0.000000
1.141966 -0.700283 0.628278 0.000000 0.000000 0.000000
1.218292 -0.693528 0.685634 0.000000 0.000000 0.000000
1.056462 -0.540177 0.533037 0.000000 0.000000 0.000000
1.032698 -0.660278 0.572586 0.000000 0.000000 0.000000
0.989986 -0.601005 0.544910 0.000000 0.000000 0.000000
1.005458 -0.689569 0.591779 0.000000 0.000000 0.000000
0.950170 -0.644337 0.566719 0.000000 0.000000 0.000000
1.110142 -0.634111 0.597970 0.000000 0.000000 0.000000
1.027786 -0.572237 0.536528 0.000000 0.000000 0.000000
1.187425 -0.396635 0.537431 0.000000 0.000000 0.000000
1.106555 -0.510596 0.524980 0.000000 0.000000 0.000000
1.005253 -0.595796 0.539557 0.000000 0.000000 0.000000
1.115114 -0.602282 0.576311 0.000000 0.000000 0.000000
1.005368 -0.695361 0.591970 0.000000 0.000000 0.000000
1.151552 -0.611590 0.583266 0.000000 0.000000 0.000000
1.315026 -0.374162 0.593436 0.000000 0.000000 0.000000
1.223211 -0.378843 0.542629 0.000000 0.000000 0.000000
0.961958 -0.645709 0.568465 0.000000 0.000000 0.000000
1.261657 -0.693009 0.709790 0.000000 0.000000 0.000000
1.357080 -0.385760 0.622827 0.000000 0.000000 0.000000
1.306565 -0.367258 0.580075 0.000000 0.000000 0.000000
1.273194 -0.365445 0.572882 0.000000 0.000000 0.000000
1.297842 -0.603140 0.690386 0.000000 0.000000 0.000000
1.296096 -0.357759 0.577091 0.000000 0.000000 0.000000
1.381705 -0.606591 0.736208 0.000000 0.000000 0.000000
0.941791 -0.638474 0.564972 0.000000 0.000000 0.000000
0.942344 -0.642510 0.555448 0.000000 0.000000 0.000000
1.067079 -0.505144 0.519175 0.000000 0.000000 0.000000
1.053006 -0.522220 0.517655 0.000000 0.000000 0.000000
1.060354 -0.516003 0.519586 0.000000 0.000000 0.000000
1.035197 -0.532532 0.521156 0.000000 0.000000 0.000000
0.977333 -0.605209 0.537222 0.000000 0.000000 0.000000
1.042696 -0.518214 0.520943 0.000000 0.000000 0.000000
1.116799 -0.459220 0.526000 0.000000 0.000000 0.000000
1.306218 -0.361138 0.577285 0.000000 0.000000 0.000000
1.305936 -0.355522 0.585457 0.000000 0.000000 0.000000
0.952068 -0.652442 0.571522 0.000000 0.000000 0.000000
1.251706 -0.364704 0.558721 0.000000 0.000000 0.000000
1.033892 -0.543916 0.528252 0.000000 0.000000 0.000000
1.055155 -0.521887 0.522793 0.000000 0.000000 0.000000
1.222880 -0.387852 0.547761 0.000000 0.000000 0.000000
0.938207 -0.640021 0.556096 0.000000 0.000000 0.000000
1.012449 -0.569177 0.534365 0.000000 0.000000 0.000000
1.107346 -0.553028 0.558001 0.000000 0.000000 0.000000
1.275881 -0.355027 0.574225 0.000000 0.000000 0.000000
1.101530 -0.478892 0.529074 0.000000 0.000000 0.000000
1.065655 -0.515102 0.519669 0.000000 0.000000 0.000000
1.058386 -0.520280 0.521990 0.000000 0.000000 0.000000
1.333586 -0.649905 0.742819 0.000000 0.000000 0.000000
1.067887 -0.501562 0.523992 0.000000 0.000000 0.000000
1.314265 -0.600688 0.693404 0.000000 0.000000 0.000000
1.199590 -0.692408 0.668136 0.000000 0.000000 0.000000
0.996331 -0.668760 0.580083 0.000000 0.000000 0.000000
1.059094 -0.506509 0.523223 0.000000 0.000000 0.000000
1.380611 -0.391205 0.638820 0.000000 0.000000 0.000000
0.966852 -0.642213 0.552059 0.000000 0.000000 0.000000
1.259831 -0.669766 0.688257 0.000000 0.000000 0.000000
0.975878 -0.652207 0.565316 0.000000 0.000000 0.000000
0.974578 -0.677505 0.581816 0.000000 0.000000 0.000000
1.270088 -0.677745 0.698182 0.000000 0.000000 0.000000
1.031369 -0.537725 0.524686 0.000000 0.000000 0.000000
1.441626 -0.576119 0.759396 0.000000 0.000000 0.000000
1.457034 -0.497327 0.757847 0.000000 0.000000 0.000000
0.975213 -0.586658 0.531576 0.000000 0.000000 0.000000
1.178788 -0.685081 0.654687 0.000000 0.000000 0.000000
1.067218 -0.606422 0.557682 0.000000 0.000000 0.000000
1.265452 -0.673067 0.691905 0.000000 0.000000 0.000000
1.273070 -0.339381 0.562595 0.000000 0.000000 0.000000
0.984248 -0.656357 0.564582 0.000000 0.000000 0.000000
0.973597 -0.658241 0.568133 0.000000 0.000000 0.000000
1.375535 -0.518999 0.720228 0.000000 0.000000 0.000000
1.346056 -0.578058 0.704811 0.000000 0.000000 0.000000
1.421883 -0.578509 0.752638 0.000000 0.000000 0.000000
1.270480 -0.659955 0.695899 0.000000 0.000000 0.000000
1.407751 -0.424355 0.682813 0.000000 0.000000 0.000000
1.085334 -0.477274 0.524366 0.000000 0.000000 0.000000
1.061526 -0.514294 0.519841 0.000000 0.000000 0.000000
1.445750 -0.565260 0.749567 0.000000 0.000000 0.000000
1.319007 -0.349921 0.584660 0.000000 0.000000 0.000000
1.439667 -0.569666 0.761581 0.000000 0.000000 0.000000
1.381134 -0.641714 0.757773 0.000000 0.000000 0.000000
1.380144 -0.402122 0.639800 0.000000 0.000000 0.000000
0.997576 -0.564917 0.517921 0.000000 0.000000 0.000000
1.196522 -0.391467 0.535961 0.000000 0.000000 0.000000
1.401547 -0.591289 0.744377 0.000000 0.000000 0.000000
1.380855 -0.423832 0.661163 0.000000 0.000000 0.000000
1.288641 -0.340178 0.563642 0.000000 0.000000 0.000000
1.002127 -0.559019 0.531107 0.000000 0.000000 0.000000
1.442014 -0.578262 0.757488 0.000000 0.000000 0.000000
1.381328 -0.638741 0.754052 0.000000 0.000000 0.000000
1.016840 -0.590409 0.533025 0.000000 0.000000 0.000000
1.332940 -0.633436 0.715806 0.000000 0.000000 0.000000
1.398659 -0.421769 0.661309 0.000000 0.000000 0.000000
1.072000 -0.566668 0.540813 0.000000 0.000000 0.000000
1.188776 -0.393000 0.537226 0.000000 0.000000 0.000000
1.452655 -0.562460 0.758105 0.000000 0.000000 0.000000
1.076157 -0.486251 0.518827 0.000000 0.000000 0.000000
1.121719 -0.444437 0.531661 0.000000 0.000000 0.000000
1.434446 -0.566238 0.762296 0.000000 0.000000 0.000000
0.967286 -0.611625 0.545526 0.000000 0.000000 0.000000
0.949091 -0.649379 0.559244 0.000000 0.000000 0.000000
1.284581 -0.346727 0.562799 0.000000 0.000000 0.000000
0.944049 -0.642747 0.574115 0.000000 0.000000 0.000000
1.043242 -0.515257 0.516328 0.000000 0.000000 0.000000
1.146480 -0.711491 0.635659 0.000000 0.000000 0.000000
1.119194 -0.710993 0.630284 0.000000 0.000000 0.000000
0.976815 -0.617102 0.539838 0.000000 0.000000 0.000000
1.289336 -0.350174 0.574842 0.000000 0.000000 0.000000
0.947064 -0.654427 0.579627 0.000000 0.000000 0.000000
0.948570 -0.619141 0.556431 0.000000 0.000000 0.000000
1.140468 -0.486759 0.546456 0.000000 0.000000 0.000000
1.328341 -0.365675 0.601704 0.000000 0.000000 0.000000
1.288479 -0.342352 0.570632 0.000000 0.000000 0.000000
0.946318 -0.623241 0.565293 0.000000 0.000000 0.000000
1.144047 -0.471870 0.537813 0.000000 0.000000 0.000000
1.323443 -0.365762 0.586348 0.000000 0.000000 0.000000
1.182350 -0.695991 0.655248 0.000000 0.000000 0.000000
0.961906 -0.658522 0.560325 0.000000 0.000000 0.000000
1.358127 -0.397375 0.637526 0.000000 0.000000 0.000000
1.359036 -0.396633 0.636170 0.000000 0.000000 0.000000
1.448573 -0.506155 0.754929 0.000000 0.000000 0.000000
1.350349 -0.652975 0.740306 0.000000 0.000000 0.000000
1.377960 -0.387829 0.632899 0.000000 0.000000 0.000000
1.036475 -0.540620 0.514083 0.000000 0.000000 0.000000
1.288664 -0.344533 0.562380 0.000000 0.000000 0.000000
0.942976 -0.643143 0.567134 0.000000 0.000000 0.000000
1.453071 -0.487610 0.741497 0.000000 0.000000 0.000000
1.369598 -0.402025 0.637781 0.000000 0.000000 0.000000
1.380802 -0.471119 0.710006 0.000000 0.000000 0.000000
1.435985 -0.586031 0.759433 0.000000 0.000000 0.000000
1.450329 -0.565703 0.755387 0.000000 0.000000 0.000000
1.304233 -0.670533 0.719603 0.000000 0.000000 0.000000
1.450979 -0.496726 0.745859 0.000000 0.000000 0.000000
1.427477 -0.505637 0.744452 0.000000 0.000000 0.000000
1.372413 -0.462900 0.702962 0.000000 0.000000 0.000000
1.451930 -0.515199 0.745355 0.000000 0.000000 0.000000
0.998171 -0.694304 0.589512 0.000000 0.000000 0.000000
1.343928 -0.429226 0.656581 0.000000 0.000000 0.000000
1.385726 -0.456704 0.698739 0.000000 0.000000 0.000000
1.284096 -0.484560 0.660526 0.000000 0.000000 0.000000
1.431206 -0.444175 0.701981 0.000000 0.000000 0.000000
1.049154 -0.553439 0.531377 0.000000 0.000000 0.000000
1.126449 -0.467388 0.524338 0.000000 0.000000 0.000000
1.275870 -0.345376 0.563088 0.000000 0.000000 0.000000
1.449535 -0.487215 0.742347 0.000000 0.000000 0.000000
1.048662 -0.518299 0.519492 0.000000 0.000000 0.000000
1.039209 -0.519302 0.514790 0.000000 0.000000 0.000000
1.034531 -0.525290 0.514752 0.000000 0.000000 0.000000
1.033717 -0.533079 0.517563 0.000000 0.000000 0.000000
1.448815 -0.480810 0.739091 0.000000 0.000000 0.000000
1.441056 -0.494522 0.746345 0.000000 0.000000 0.000000
0.987059 -0.684120 0.584205 0.000000 0.000000 0.000000
1.394079 -0.462925 0.709200 0.000000 0.000000 0.000000
1.406576 -0.466012 0.709933 0.000000 0.000000 0.000000
0.996612 -0.692489 0.588821 0.000000 0.000000 0.000000
1.419531 -0.423623 0.689377 0.000000 0.000000 0.000000
1.033278 -0.545713 0.523527 0.000000 0.000000 0.000000
1.062203 -0.541895 0.532855 0.000000 0.000000 0.000000
1.235054 -0.357366 0.545220 0.000000 0.000000 0.000000
1.450934 -0.494953 0.752576 0.000000 0.000000 0.000000
1.032979 -0.529251 0.515584 0.000000 0.000000 0.000000
1.015652 -0.551366 0.528739 0.000000 0.000000 0.000000
1.333153 -0.518297 0.703083 0.000000 0.000000 0.000000
1.436368 -0.578235 0.761634 0.000000 0.000000 0.000000
1.447124 -0.573162 0.759129 0.000000 0.000000 0.000000
1.000116 -0.691330 0.591108 0.000000 0.000000 0.000000
1.357098 -0.599410 0.721360 0.000000 0.000000 0.000000
1.132097 -0.479875 0.533298 0.000000 0.000000 0.000000
1.429734 -0.501874 0.742075 0.000000 0.000000 0.000000
1.023071 -0.553457 0.526985 0.000000 0.000000 0.000000
1.130785 -0.702547 0.639344 0.000000 0.000000 0.000000
1.442721 -0.490780 0.746906 0.000000 0.000000 0.000000
1.417172 -0.438863 0.691132 0.000000 0.000000 0.000000
1.418622 -0.433712 0.690590 0.000000 0.000000 0.000000
1.324839 -0.360936 0.592202 0.000000 0.000000 0.000000
1.433750 -0.493836 0.727507 0.000000 0.000000 0.000000
1.008308 -0.614407 0.533237 0.000000 0.000000 0.000000
1.456538 -0.501448 0.758042 0.000000 0.000000 0.000000
1.116417 -0.453842 0.530936 0.000000 0.000000 0.000000
1.313957 -0.673457 0.734888 0.000000 0.000000 0.000000
0.944241 -0.637303 0.558360 0.000000 0.000000 0.000000
1.248190 -0.351645 0.550240 0.000000 0.000000 0.000000
1.046856 -0.701367 0.601286 0.000000 0.000000 0.000000
0.958359 -0.643460 0.565089 0.000000 0.000000 0.000000
1.369540 -0.644392 0.757093 0.000000 0.000000 0.000000
0.953950 -0.627187 0.550716 0.000000 0.000000 0.000000
1.055275 -0.510310 0.517989 0.000000 0.000000 0.000000
1.315782 -0.351440 0.590645 0.000000 0.000000 0.000000
1.314372 -0.346452 0.585414 0.000000 0.000000 0.000000
1.050405 -0.501625 0.524848 0.000000 0.000000 0.000000
1.396493 -0.625004 0.750506 0.000000 0.000000 0.000000
1.439638 -0.559548 0.752832 0.000000 0.000000 0.000000
0.973095 -0.618397 0.545775 0.000000 0.000000 0.000000
1.085209 -0.659645 0.580982 0.000000 0.000000 0.000000
0.959839 -0.634332 0.542767 0.000000 0.000000 0.000000
0.952340 -0.618483 0.539950 0.000000 0.000000 0.000000
0.956605 -0.616682 0.552839 0.000000 0.000000 0.000000
1.036919 -0.535620 0.517704 0.000000 0.000000 0.000000
0.965867 -0.617471 0.548085 0.000000 0.000000 0.000000
1.250784 -0.356834 0.550586 0.000000 0.000000 0.000000
0.952903 -0.622018 0.547506 0.000000 0.000000 0.000000
1.293914 -0.353476 0.572464 0.000000 0.000000 0.000000
1.063217 -0.709730 0.611679 0.000000 0.000000 0.000000
1.201109 -0.683178 0.669565 0.000000 0.000000 0.000000
0.957239 -0.629997 0.544728 0.000000 0.000000 0.000000
1.209964 -0.381735 0.544872 0.000000 0.000000 0.000000
1.211346 -0.382514 0.542200 0.000000 0.000000 0.000000
1.201456 -0.398027 0.551270 0.000000 0.000000 0.000000
1.308083 -0.348790 0.582678 0.000000 0.000000 0.000000
1.180057 -0.443202 0.563617 0.000000 0.000000 0.000000
1.398382 -0.559480 0.724444 0.000000 0.000000 0.000000
1.450868 -0.526950 0.755628 0.000000 0.000000 0.000000
1.268838 -0.351790 0.570445 0.000000 0.000000 0.000000
1.339202 -0.497084 0.696570 0.000000 0.000000 0.000000
1.411048 -0.617042 0.758526 0.000000 0.000000 0.000000
1.202484 -0.389143 0.541483 0.000000 0.000000 0.000000
1.201531 -0.383625 0.536586 0.000000 0.000000 0.000000
1.212002 -0.383255 0.552626 0.000000 0.000000 0.000000
1.225515 -0.566840 0.618307 0.000000 0.000000 0.000000
1.198737 -0.389253 0.552920 0.000000 0.000000 0.000000
1.226705 -0.386842 0.548285 0.000000 0.000000 0.000000
1.031126 -0.701837 0.600475 0.000000 0.000000 0.000000
1.449279 -0.545742 0.741481 0.000000 0.000000 0.000000
1.172585 -0.408869 0.552048 0.000000 0.000000 0.000000
1.212117 -0.385796 0.561819 0.000000 0.000000 0.000000
1.078830 -0.698848 0.606096 0.000000 0.000000 0.000000
1.206429 -0.382163 0.537674 0.000000 0.000000 0.000000
1.192504 -0.384964 0.538987 0.000000 0.000000 0.000000
1.204228 -0.382100 0.536757 0.000000 0.000000 0.000000
1.295512 -0.365609 0.574343 0.000000 0.000000 0.000000
1.456263 -0.515728 0.755601 0.000000 0.000000 0.000000
1.352922 -0.490183 0.699524 0.000000 0.000000 0.000000
1.201933 -0.382215 0.544910 0.000000 0.000000 0.000000
1.197660 -0.386069 0.536453 0.000000 0.000000 0.000000
1.195841 -0.393749 0.541671 0.000000 0.000000 0.000000
1.189112 -0.395403 0.544389 0.000000 0.000000 0.000000
1.452336 -0.541310 0.753156 0.000000 0.000000 0.000000
1.171662 -0.407049 0.539642 0.000000 0.000000 0.000000
1.200509 -0.392979 0.546840 0.000000 0.000000 0.000000
1.063143 -0.702455 0.603436 0.000000 0.000000 0.000000
1.201661 -0.383827 0.537908 0.000000 0.000000 0.000000
1.198500 -0.383930 0.536965 0.000000 0.000000 0.000000
1.056079 -0.533177 0.530191 0.000000 0.000000 0.000000
1.313047 -0.389508 0.600254 0.000000 0.000000 0.000000
1.315387 -0.398318 0.607078 0.000000 0.000000 0.000000
1.403714 -0.421295 0.674406 0.000000 0.000000 0.000000
0.949175 -0.614416 0.546209 0.000000 0.000000 0.000000
1.436162 -0.556851 0.758336 0.000000 0.000000 0.000000
1.396603 -0.413938 0.662102 0.000000 0.000000 0.000000
1.048742 -0.521173 0.517806 0.000000 0.000000 0.000000
1.313917 -0.386040 0.597147 0.000000 0.000000 0.000000
1.324897 -0.364083 0.591139 0.000000 0.000000 0.000000
1.325185 -0.377327 0.610848 0.000000 0.000000 0.000000
1.138662 -0.703558 0.637776 0.000000 0.000000 0.000000
1.320794 -0.383547 0.602720 0.000000 0.000000 0.000000
1.300129 -0.394498 0.590881 0.000000 0.000000 0.000000
1.335081 -0.396193 0.608996 0.000000 0.000000 0.000000
1.306489 -0.390809 0.598411 0.000000 0.000000 0.000000
1.316983 -0.399606 0.598567 0.000000 0.000000 0.000000
1.325645 -0.367386 0.597399 0.000000 0.000000 0.000000
1.336796 -0.369279 0.597529 0.000000 0.000000 0.000000
1.157928 -0.705081 0.634964 0.000000 0.000000 0.000000
1.184838 -0.699533 0.659097 0.000000 0.000000 0.000000
1.442732 -0.461587 0.725688 0.000000 0.000000 0.000000
1.169928 -0.677402 0.639799 0.000000 0.000000 0.000000
1.165645 -0.688187 0.653106 0.000000 0.000000 0.000000
1.330706 -0.354775 0.592038 0.000000 0.000000 0.000000
1.196772 -0.693090 0.666040 0.000000 0.000000 0.000000
1.334469 -0.366921 0.598261 0.000000 0.000000 0.000000
0.988108 -0.688080 0.586763 0.000000 0.000000 0.000000
1.317175 -0.379389 0.591121 0.000000 0.000000 0.000000
1.331234 -0.383171 0.600472 0.000000 0.000000 0.000000
1.343156 -0.373709 0.608027 0.000000 0.000000 0.000000
1.318801 -0.386350 0.604982 0.000000 0.000000 0.000000
1.339240 -0.377808 0.604919 0.000000 0.000000 0.000000
1.161794 -0.694062 0.645130 0.000000 0.000000 0.000000
1.306513 -0.402827 0.609837 0.000000 0.000000 0.000000
1.309663 -0.386178 0.592192 0.000000 0.000000 0.000000
1.317021 -0.386137 0.595237 0.000000 0.000000 0.000000
1.307828 -0.389731 0.605681 0.000000 0.000000 0.000000
1.329001 -0.369926 0.597143 0.000000 0.000000 0.000000
0.974464 -0.633338 0.544338 0.000000 0.000000 0.000000
1.161995 -0.698600 0.640071 0.000000 0.000000 0.000000
1.154954 -0.671113 0.620098 0.000000 0.000000 0.000000
1.199628 -0.667406 0.635301 0.000000 0.000000 0.000000
1.124185 -0.474941 0.538405 0.000000 0.000000 0.000000
1.156248 -0.679743 0.639723 0.000000 0.000000 0.000000
1.189231 -0.701494 0.657055 0.000000 0.000000 0.000000
1.194884 -0.694296 0.670435 0.000000 0.000000 0.000000
1.173728 -0.691928 0.645135 0.000000 0.000000 0.000000
1.311118 -0.362449 0.582178 0.000000 0.000000 0.000000
1.354231 -0.364870 0.607884 0.000000 0.000000 0.000000
0.991402 -0.687198 0.585317 0.000000 0.000000 0.000000
1.211756 -0.679285 0.672748 0.000000 0.000000 0.000000
1.392898 -0.622876 0.751950 0.000000 0.000000 0.000000
1.224069 -0.692450 0.688001 0.000000 0.000000 0.000000
1.002000 -0.692078 0.588402 0.000000 0.000000 0.000000
1.301696 -0.352996 0.577123 0.000000 0.000000 0.000000
1.217729 -0.693712 0.688469 0.000000 0.000000 0.000000
1.267631 -0.683828 0.703448 0.000000 0.000000 0.000000
1.006191 -0.557818 0.525513 0.000000 0.000000 0.000000
1.230161 -0.358319 0.544127 0.000000 0.000000 0.000000
1.456145 -0.554397 0.756878 0.000000 0.000000 0.000000
1.031070 -0.529987 0.514290 0.000000 0.000000 0.000000
1.228689 -0.684583 0.679463 0.000000 0.000000 0.000000
0.999464 -0.571182 0.531879 0.000000 0.000000 0.000000
1.005847 -0.579662 0.533485 0.000000 0.000000 0.000000
1.080402 -0.479378 0.520676 0.000000 0.000000 0.000000
1.331382 -0.672202 0.744880 0.000000 0.000000 0.000000
0.946311 -0.640905 0.566294 0.000000 0.000000 0.000000
1.263561 -0.677492 0.700819 0.000000 0.000000 0.000000
1.244515 -0.687187 0.694173 0.000000 0.000000 0.000000
0.946869 -0.635771 0.567453 0.000000 0.000000 0.000000
1.290061 -0.678411 0.714903 0.000000 0.000000 0.000000
0.997069 -0.692069 0.588383 0.000000 0.000000 0.000000
1.245742 -0.693561 0.699275 0.000000 0.000000 0.000000
1.372569 -0.642592 0.756058 0.000000 0.000000 0.000000
1.058098 -0.510503 0.524298 0.000000 0.000000 0.000000
1.194296 -0.389254 0.545609 0.000000 0.000000 0.000000
1.393669 -0.631876 0.755717 0.000000 0.000000 0.000000
0.940050 -0.626795 0.555296 0.000000 0.000000 0.000000
1.321071 -0.351812 0.590303 0.000000 0.000000 0.000000
0.983586 -0.684176 0.584335 0.000000 0.000000 0.000000
1.244524 -0.681066 0.691024 0.000000 0.000000 0.000000
1.367981 -0.392111 0.632866 0.000000 0.000000 0.000000
0.975211 -0.675606 0.581389 0.000000 0.000000 0.000000
1.256692 -0.676337 0.694538 0.000000 0.000000 0.000000
1.380799 -0.399142 0.641031 0.000000 0.000000 0.000000
0.977791 -0.590015 0.526306 0.000000 0.000000 0.000000
0.974919 -0.672594 0.578851 0.000000 0.000000 0.000000
1.074299 -0.710627 0.610252 0.000000 0.000000 0.000000
1.244695 -0.351424 0.549136 0.000000 0.000000 0.000000
0.985811 -0.679027 0.578248 0.000000 0.000000 0.000000
1.398495 -0.420607 0.667253 0.000000 0.000000 0.000000
0.944303 -0.638813 0.559310 0.000000 0.000000 0.000000
1.306078 -0.350993 0.576016 0.000000 0.000000 0.000000
1.321311 -0.442154 0.664087 0.000000 0.000000 0.000000
1.259341 -0.357526 0.569164 0.000000 0.000000 0.000000
1.341139 -0.549390 0.707375 0.000000 0.000000 0.000000
1.335976 -0.491470 0.695064 0.000000 0.000000 0.000000
1.377782 -0.466504 0.708423 0.000000 0.000000 0.000000
1.084045 -0.705626 0.615148 0.000000 0.000000 0.000000
1.101221 -0.653890 0.579161 0.000000 0.000000 0.000000
1.449833 -0.532835 0.749162 0.000000 0.000000 0.000000
1.038610 -0.660413 0.570697 0.000000 0.000000 0.000000
1.455756 -0.543220 0.760272 0.000000 0.000000 0.000000
1.134215 -0.438849 0.543600 0.000000 0.000000 0.000000
1.238002 -0.363689 0.554240 0.000000 0.000000 0.000000
0.996703 -0.672219 0.576808 0.000000 0.000000 0.000000
1.266700 -0.345779 0.548796 0.000000 0.000000 0.000000
1.316016 -0.595215 0.694975 0.000000 0.000000 0.000000
1.341880 -0.465406 0.680386 0.000000 0.000000 0.000000
1.346478 -0.478037 0.697546 0.000000 0.000000 0.000000
1.451537 -0.555935 0.762132 0.000000 0.000000 0.000000
1.354551 -0.654064 0.748093 0.000000 0.000000 0.000000
1.338103 -0.437281 0.673300 0.000000 0.000000 0.000000
1.433997 -0.449947 0.706965 0.000000 0.000000 0.000000
1.437066 -0.549023 0.753278 0.000000 0.000000 0.000000
1.033542 -0.654635 0.575959 0.000000 0.000000 0.000000
1.454471 -0.543834 0.762837 0.000000 0.000000 0.000000
1.253807 -0.345447 0.552688 0.000000 0.000000 0.000000
1.114104 -0.457182 0.541605 0.000000 0.000000 0.000000
1.325256 -0.666340 0.742566 0.000000 0.000000 0.000000
1.332089 -0.661770 0.735080 0.000000 0.000000 0.000000
1.236294 -0.699220 0.693503 0.000000 0.000000 0.000000
1.228589 -0.363765 0.543123 0.000000 0.000000 0.000000
0.939229 -0.636871 0.573769 0.000000 0.000000 0.000000
1.344887 -0.361135 0.602298 0.000000 0.000000 0.000000
0.983544 -0.681185 0.585738 0.000000 0.000000 0.000000
1.042755 -0.675953 0.598086 0.000000 0.000000 0.000000
1.227117 -0.378901 0.540356 0.000000 0.000000 0.000000
1.340597 -0.492021 0.697657 0.000000 0.000000 0.000000
1.357722 -0.444541 0.690869 0.000000 0.000000 0.000000
1.371029 -0.441022 0.686708 0.000000 0.000000 0.000000
1.328947 -0.655759 0.734307 0.000000 0.000000 0.000000
1.276237 -0.510476 0.667977 0.000000 0.000000 0.000000
1.357249 -0.495583 0.696470 0.000000 0.000000 0.000000
1.335919 -0.659319 0.734178 0.000000 0.000000 0.000000
1.323775 -0.665954 0.738309 0.000000 0.000000 0.000000
1.328170 -0.425220 0.652048 0.000000 0.000000 0.000000
0.987229 -0.680338 0.580639 0.000000 0.000000 0.000000
1.230246 -0.366677 0.543474 0.000000 0.000000 0.000000
1.008111 -0.694280 0.594001 0.000000 0.000000 0.000000
1.285727 -0.673287 0.712647 0.000000 0.000000 0.000000
0.998040 -0.659051 0.572063 0.000000 0.000000 0.000000
1.342990 -0.453024 0.675418 0.000000 0.000000 0.000000
1.335588 -0.658903 0.740296 0.000000 0.000000 0.000000
1.124454 -0.456648 0.524142 0.000000 0.000000 0.000000
1.332477 -0.665225 0.737500 0.000000 0.000000 0.000000
1.321867 -0.670866 0.735644 0.000000 0.000000 0.000000
0.991042 -0.674875 0.585213 0.000000 0.000000 0.000000
1.454674 -0.547582 0.757551 0.000000 0.000000 0.000000
1.255172 -0.353608 0.551187 0.000000 0.000000 0.000000
1.255516 -0.544461 0.669134 0.000000 0.000000 0.000000
1.012829 -0.689882 0.595368 0.000000 0.000000 0.000000
1.287124 -0.656493 0.706848 0.000000 0.000000 0.000000
1.139451 -0.435358 0.530879 0.000000 0.000000 0.000000
1.104710 -0.468762 0.533059 0.000000 0.000000 0.000000
1.217973 -0.363583 0.534907 0.000000 0.000000 0.000000
1.375473 -0.470835 0.707713 0.000000 0.000000 0.000000
1.133177 -0.438547 0.527812 0.000000 0.000000 0.000000
1.244259 -0.683918 0.689962 0.000000 0.000000 0.000000
1.157828 -0.441526 0.541335 0.000000 0.000000 0.000000
1.113316 -0.712096 0.627083 0.000000 0.000000 0.000000
1.433347 -0.434382 0.696573 0.000000 0.000000 0.000000
1.223325 -0.698791 0.689935 0.000000 0.000000 0.000000
0.941063 -0.639780 0.556485 0.000000 0.000000 0.000000
1.322172 -0.352299 0.589481 0.000000 0.000000 0.000000
1.229251 -0.362989 0.542621 0.000000 0.000000 0.000000
1.454884 -0.547506 0.756926 0.000000 0.000000 0.000000
1.218415 -0.689788 0.689464 0.000000 0.000000 0.000000
0.958682 -0.612474 0.537994 0.000000 0.000000 0.000000
1.111182 -0.712715 0.631616 0.000000 0.000000 0.000000
1.434929 -0.588455 0.754032 0.000000 0.000000 0.000000
1.124074 -0.710825 0.632757 0.000000 0.000000 0.000000
1.347033 -0.360794 0.600767 0.000000 0.000000 0.000000
1.265441 -0.341587 0.554049 0.000000 0.000000 0.000000
1.345228 -0.370656 0.605864 0.000000 0.000000 0.000000
1.335445 -0.358209 0.599347 0.000000 0.000000 0.000000
1.241034 -0.680674 0.676062 0.000000 0.000000 0.000000
1.228747 -0.368405 0.545110 0.000000 0.000000 0.000000
0.970494 -0.617907 0.542167 0.000000 0.000000 0.000000
1.168880 -0.517062 0.541805 0.000000 0.000000 0.000000
1.171894 -0.691570 0.640734 0.000000 0.000000 0.000000
1.235567 -0.359778 0.550247 0.000000 0.000000 0.000000
1.127573 -0.705815 0.627146 0.000000 0.000000 0.000000
1.328887 -0.355003 0.596432 0.000000 0.000000 0.000000
0.981399 -0.667049 0.564319 0.000000 0.000000 0.000000
1.434765 -0.588191 0.755978 0.000000 0.000000 0.000000
1.235560 -0.684593 0.680513 0.000000 0.000000 0.000000
1.290666 -0.346602 0.568548 0.000000 0.000000 0.000000
1.392820 -0.620098 0.755243 0.000000 0.000000 0.000000
1.131067 -0.443512 0.521908 0.000000 0.000000 0.000000
1.345244 -0.370526 0.606369 0.000000 0.000000 0.000000
1.376904 -0.646631 0.758002 0.000000 0.000000 0.000000
1.070369 -0.713806 0.613019 0.000000 0.000000 0.000000
1.191800 -0.404984 0.548585 0.000000 0.000000 0.000000
1.210137 -0.675837 0.663549 0.000000 0.000000 0.000000
1.289675 -0.385786 0.582018 0.000000 0.000000 0.000000
1.317072 -0.673564 0.731740 0.000000 0.000000 0.000000
1.292775 -0.372593 0.582316 0.000000 0.000000 0.000000
1.120081 -0.464195 0.544172 0.000000 0.000000 0.000000
1.441775 -0.443265 0.705669 0.000000 0.000000 0.000000
1.360224 -0.385418 0.613585 0.000000 0.000000 0.000000
1.144896 -0.426895 0.538050 0.000000 0.000000 0.000000
1.307316 -0.668529 0.727368 0.000000 0.000000 0.000000
1.354049 -0.367746 0.607817 0.000000 0.000000 0.000000
1.337414 -0.358048 0.595788 0.000000 0.000000 0.000000
1.115986 -0.453039 0.523122 0.000000 0.000000 0.000000
1.115682 -0.490790 0.542759 0.000000 0.000000 0.000000
1.346864 -0.366353 0.603531 0.000000 0.000000 0.000000
1.367479 -0.646818 0.754547 0.000000 0.000000 0.000000
1.209963 -0.689465 0.665217 0.000000 0.000000 0.000000
1.429223 -0.446457 0.703443 0.000000 0.000000 0.000000
1.288341 -0.404333 0.596134 0.000000 0.000000 0.000000
1.152572 -0.481571 0.538857 0.000000 0.000000 0.000000
1.314898 -0.654916 0.718384 0.000000 0.000000 0.000000
1.310737 -0.353323 0.583323 0.000000 0.000000 0.000000
1.389518 -0.422990 0.668224 0.000000 0.000000 0.000000
1.440414 -0.440067 0.701426 0.000000 0.000000 0.000000
1.358496 -0.387156 0.623076 0.000000 0.000000 0.000000
1.230240 -0.692355 0.692285 0.000000 0.000000 0.000000
1.080405 -0.491420 0.515961 0.000000 0.000000 0.000000
1.303013 -0.668581 0.729869 0.000000 0.000000 0.000000
1.299485 -0.607480 0.696031 0.000000 0.000000 0.000000
1.354302 -0.373832 0.608911 0.000000 0.000000 0.000000
1.122930 -0.469210 0.524898 0.000000 0.000000 0.000000
1.146348 -0.426224 0.540030 0.000000 0.000000 0.000000
1.003061 -0.562349 0.525449 0.000000 0.000000 0.000000
1.137573 -0.438442 0.526454 0.000000 0.000000 0.000000
1.206533 -0.689138 0.680454 0.000000 0.000000 0.000000
1.302149 -0.674944 0.724108 0.000000 0.000000 0.000000
1.272337 -0.341447 0.560033 0.000000 0.000000 0.000000
0.975408 -0.681557 0.576439 0.000000 0.000000 0.000000
1.261682 -0.340406 0.546339 0.000000 0.000000 0.000000
1.178066 -0.570181 0.629168 0.000000 0.000000 0.000000
1.258746 -0.351686 0.558812 0.000000 0.000000 0.000000
1.194588 -0.692156 0.671970 0.000000 0.000000 0.000000
1.453816 -0.506512 0.758948 0.000000 0.000000 0.000000
1.064658 -0.703714 0.611244 0.000000 0.000000 0.000000
1.041477 -0.703161 0.599889 0.000000 0.000000 0.000000
0.969300 -0.670752 0.581849 0.000000 0.000000 0.000000
0.981290 -0.676540 0.580979 0.000000 0.000000 0.000000
1.200550 -0.694000 0.679894 0.000000 0.000000 0.000000
1.184502 -0.700847 0.662579 0.000000 0.000000 0.000000
1.268375 -0.673589 0.703448 0.000000 0.000000 0.000000
1.044906 -0.699630 0.604832 0.000000 0.000000 0.000000
1.287473 -0.534272 0.675863 0.000000 0.000000 0.000000
1.280804 -0.349981 0.569899 0.000000 0.000000 0.000000
1.217164 -0.681647 0.670668 0.000000 0.000000 0.000000
1.449644 -0.506597 0.757349 0.000000 0.000000 0.000000
1.087014 -0.690442 0.609019 0.000000 0.000000 0.000000
0.977322 -0.674606 0.572870 0.000000 0.000000 0.000000
1.192506 -0.686915 0.672686 0.000000 0.000000 0.000000
1.277804 -0.340338 0.557521 0.000000 0.000000 0.000000
1.048433 -0.705259 0.605570 0.000000 0.000000 0.000000
1.045243 -0.708014 0.600891 0.000000 0.000000 0.000000
1.287151 -0.338815 0.566989 0.000000 0.000000 0.000000
1.303909 -0.349205 0.578393 0.000000 0.000000 0.000000
1.255285 -0.347527 0.546104 0.000000 0.000000 0.000000
1.366397 -0.389892 0.635827 0.000000 0.000000 0.000000
1.382795 -0.642923 0.752145 0.000000 0.000000 0.000000
1.275696 -0.337870 0.560230 0.000000 0.000000 0.000000
1.261145 -0.353701 0.553486 0.000000 0.000000 0.000000
1.289447 -0.333303 0.563507 0.000000 0.000000 0.000000
1.092054 -0.714115 0.614845 0.000000 0.000000 0.000000
1.381608 -0.638945 0.759253 0.000000 0.000000 0.000000
1.297828 -0.363799 0.584915 0.000000 0.000000 0.000000
1.147629 -0.451619 0.533283 0.000000 0.000000 0.000000
1.382471 -0.641015 0.759961 0.000000 0.000000 0.000000
1.006670 -0.663947 0.572720 0.000000 0.000000 0.000000
1.164846 -0.688430 0.631424 0.000000 0.000000 0.000000
1.102144 -0.712492 0.613262 0.000000 0.000000 0.000000
1.381416 -0.638967 0.757346 0.000000 0.000000 0.000000
1.017100 -0.656194 0.563558 0.000000 0.000000 0.000000
1.101629 -0.468290 0.525727 0.000000 0.000000 0.000000
1.316913 -0.351326 0.584911 0.000000 0.000000 0.000000
1.280695 -0.373717 0.577792 0.000000 0.000000 0.000000
1.373144 -0.641572 0.758616 0.000000 0.000000 0.000000
1.013992 -0.664067 0.570258 0.000000 0.000000 0.000000
1.448290 -0.477573 0.734959 0.000000 0.000000 0.000000
1.439119 -0.466773 0.717305 0.000000 0.000000 0.000000
1.257512 -0.348070 0.552834 0.000000 0.000000 0.000000
1.376784 -0.389358 0.637637 0.000000 0.000000 0.000000
1.400449 -0.626774 0.756217 0.000000 0.000000 0.000000
1.424253 -0.442607 0.704745 0.000000 0.000000 0.000000
1.368116 -0.394715 0.628004 0.000000 0.000000 0.000000
1.458773 -0.508389 0.757259 0.000000 0.000000 0.000000
1.455370 -0.517271 0.752105 0.000000 0.000000 0.000000
1.413096 -0.449842 0.701541 0.000000 0.000000 0.000000
1.456373 -0.491630 0.749908 0.000000 0.000000 0.000000
1.391095 -0.626083 0.747225 0.000000 0.000000 0.000000
1.056094 -0.624263 0.561349 0.000000 0.000000 0.000000
0.980405 -0.681983 0.582324 0.000000 0.000000 0.000000
1.453979 -0.480021 0.738295 0.000000 0.000000 0.000000
1.445985 -0.489264 0.740339 0.000000 0.000000 0.000000
1.315746 -0.672978 0.733167 0.000000 0.000000 0.000000
1.406602 -0.621444 0.756025 0.000000 0.000000 0.000000
1.033149 -0.633970 0.553631 0.000000 0.000000 0.000000
1.275402 -0.687266 0.706556 0.000000 0.000000 0.000000
1.442816 -0.480086 0.740827 0.000000 0.000000 0.000000
1.444847 -0.463666 0.721987 0.000000 0.000000 0.000000
1.426632 -0.445527 0.724922 0.000000 0.000000 0.000000
1.423302 -0.431253 0.692469 0.000000 0.000000 0.000000
1.228367 -0.360254 0.545045 0.000000 0.000000 0.000000
1.060378 -0.547795 0.535032 0.000000 0.000000 0.000000
1.215168 -0.397967 0.556094 0.000000 0.000000 0.000000
1.302170 -0.673936 0.722516 0.000000 0.000000 0.000000
1.395462 -0.419151 0.655886 0.000000 0.000000 0.000000
1.454304 -0.470788 0.732135 0.000000 0.000000 0.000000
1.399363 -0.405664 0.656393 0.000000 0.000000 0.000000
1.362519 -0.370974 0.618345 0.000000 0.000000 0.000000
1.242291 -0.350096 0.546627 0.000000 0.000000 0.000000
1.190636 -0.384703 0.535624 0.000000 0.000000 0.000000
1.199083 -0.695842 0.666857 0.000000 0.000000 0.000000
1.288224 -0.340128 0.566005 0.000000 0.000000 0.000000
0.974059 -0.611532 0.535580 0.000000 0.000000 0.000000
1.193736 -0.699391 0.668303 0.000000 0.000000 0.000000
1.047746 -0.637114 0.568808 0.000000 0.000000 0.000000
1.279792 -0.629865 0.691010 0.000000 0.000000 0.000000
1.110448 -0.475758 0.550906 0.000000 0.000000 0.000000
1.310794 -0.378901 0.596565 0.000000 0.000000 0.000000
1.430213 -0.546753 0.745823 0.000000 0.000000 0.000000
1.406265 -0.481703 0.720760 0.000000 0.000000 0.000000
1.183071 -0.568325 0.598340 0.000000 0.000000 0.000000
1.391814 -0.530577 0.721926 0.000000 0.000000 0.000000
1.154074 -0.541962 0.595950 0.000000 0.000000 0.000000
1.046376 -0.618579 0.556815 0.000000 0.000000 0.000000
1.421184 -0.504807 0.742117 0.000000 0.000000 0.000000
1.247928 -0.645989 0.676670 0.000000 0.000000 0.000000
1.290033 -0.413208 0.639093 0.000000 0.000000 0.000000
1.101323 -0.535048 0.548024 0.000000 0.000000 0.000000
1.247302 -0.565981 0.648616 0.000000 0.000000 0.000000
1.101779 -0.560817 0.545507 0.000000 0.000000 0.000000
1.229060 -0.591329 0.660888 0.000000 0.000000 0.000000
1.092712 -0.609480 0.567911 0.000000 0.000000 0.000000
1.169849 -0.499227 0.587166 0.000000 0.000000 0.000000
1.226184 -0.466842 0.612621 0.000000 0.000000 0.000000
1.202714 -0.393473 0.559379 0.000000 0.000000 0.000000
1.125856 -0.576226 0.576076 0.000000 0.000000 0.000000
1.208733 -0.495946 0.613803 0.000000 0.000000 0.000000
1.132646 -0.466951 0.554716 0.000000 0.000000 0.000000
1.236424 -0.488274 0.628766 0.000000 0.000000 0.000000
1.186444 -0.424208 0.555002 0.000000 0.000000 0.000000
1.277492 -0.457638 0.639769 0.000000 0.000000 0.000000
1.216320 -0.456183 0.590274 0.000000 0.000000 0.000000
1.066463 -0.634917 0.569543 0.000000 0.000000 0.000000
1.114742 -0.500078 0.534789 0.000000 0.000000 0.000000
1.236294 -0.537918 0.635446 0.000000 0.000000 0.000000
1.121494 -0.516865 0.561606 0.000000 0.000000 0.000000
1.261356 -0.528755 0.658417 0.000000 0.000000 0.000000
1.361495 -0.486821 0.698690 0.000000 0.000000 0.000000
1.384241 -0.487951 0.711342 0.000000 0.000000 0.000000
1.062512 -0.538060 0.534132 0.000000 0.000000 0.000000
1.185834 -0.476693 0.590386 0.000000 0.000000 0.000000
1.359733 -0.549927 0.713867 0.000000 0.000000 0.000000
1.339806 -0.437349 0.659661 0.000000 0.000000 0.000000
1.322756 -0.468257 0.679377 0.000000 0.000000 0.000000
1.207282 -0.422166 0.564469 0.000000 0.000000 0.000000
1.234177 -0.593199 0.664670 0.000000 0.000000 0.000000
1.145327 -0.499315 0.564911 0.000000 0.000000 0.000000
1.307920 -0.430146 0.646142 0.000000 0.000000 0.000000
1.387327 -0.555406 0.723927 0.000000 0.000000 0.000000
1.187560 -0.527084 0.610837 0.000000 0.000000 0.000000
1.363735 -0.562193 0.712262 0.000000 0.000000 0.000000
1.350436 -0.550057 0.710510 0.000000 0.000000 0.000000
1.394683 -0.494706 0.713868 0.000000 0.000000 0.000000
1.209485 -0.423257 0.580340 0.000000 0.000000 0.000000
1.029501 -0.591925 0.535098 0.000000 0.000000 0.000000
1.423369 -0.467810 0.702989 0.000000 0.000000 0.000000
1.239817 -0.584592 0.665641 0.000000 0.000000 0.000000
1.330985 -0.429318 0.629753 0.000000 0.000000 0.000000
1.107892 -0.532578 0.547604 0.000000 0.000000 0.000000
1.107625 -0.574927 0.562025 0.000000 0.000000 0.000000
1.139557 -0.494463 0.552748 0.000000 0.000000 0.000000
1.032361 -0.579377 0.534276 0.000000 0.000000 0.000000
1.057478 -0.549893 0.528869 0.000000 0.000000 0.000000
1.210550 -0.454492 0.574176 0.000000 0.000000 0.000000
1.127160 -0.500852 0.547337 0.000000 0.000000 0.000000
1.097324 -0.546262 0.539008 0.000000 0.000000 0.000000
1.214039 -0.661559 0.675710 0.000000 0.000000 0.000000
1.361654 -0.416638 0.644136 0.000000 0.000000 0.000000
1.352179 -0.439571 0.657953 0.000000 0.000000 0.000000
1.088558 -0.533709 0.539624 0.000000 0.000000 0.000000
1.312923 -0.659146 0.726102 0.000000 0.000000 0.000000
1.292958 -0.482176 0.666925 0.000000 0.000000 0.000000
1.065273 -0.536828 0.523236 0.000000 0.000000 0.000000
0.975325 -0.670102 0.576651 0.000000 0.000000 0.000000
1.221821 -0.367494 0.550225 0.000000 0.000000 0.000000
1.248988 -0.367732 0.562915 0.000000 0.000000 0.000000
1.385245 -0.549983 0.720830 0.000000 0.000000 0.000000
1.178283 -0.522615 0.606381 0.000000 0.000000 0.000000
1.041238 -0.674961 0.578862 0.000000 0.000000 0.000000
1.082936 -0.497023 0.529925 0.000000 0.000000 0.000000
1.184005 -0.399816 0.538306 0.000000 0.000000 0.000000
1.425548 -0.465578 0.720056 0.000000 0.000000 0.000000
1.295920 -0.667820 0.718286 0.000000 0.000000 0.000000
1.344331 -0.508277 0.698426 0.000000 0.000000 0.000000
1.125214 -0.615987 0.594067 0.000000 0.000000 0.000000
1.279553 -0.529719 0.680576 0.000000 0.000000 0.000000
1.117192 -0.545517 0.562333 0.000000 0.000000 0.000000
1.326692 -0.399977 0.614568 0.000000 0.000000 0.000000
1.113434 -0.583177 0.566525 0.000000 0.000000 0.000000
1.299101 -0.409316 0.621957 0.000000 0.000000 0.000000
1.207469 -0.450720 0.589420 0.000000 0.000000 0.000000
1.061394 -0.640465 0.562277 0.000000 0.000000 0.000000
1.297307 -0.500763 0.675710 0.000000 0.000000 0.000000
1.301983 -0.552336 0.675723 0.000000 0.000000 0.000000
1.131083 -0.488755 0.573943 0.000000 0.000000 0.000000
1.176021 -0.487173 0.575040 0.000000 0.000000 0.000000
1.177840 -0.576712 0.591013 0.000000 0.000000 0.000000
1.265512 -0.641322 0.690508 0.000000 0.000000 0.000000
1.014974 -0.566868 0.529071 0.000000 0.000000 0.000000
1.126260 -0.647354 0.581376 0.000000 0.000000 0.000000
1.102697 -0.557483 0.558136 0.000000 0.000000 0.000000
1.114416 -0.523861 0.553930 0.000000 0.000000 0.000000
1.153885 -0.576944 0.594979 0.000000 0.000000 0.000000
1.227902 -0.382260 0.561506 0.000000 0.000000 0.000000
1.128592 -0.671459 0.620636 0.000000 0.000000 0.000000
1.443644 -0.505934 0.741680 0.000000 0.000000 0.000000
1.384337 -0.491481 0.714269 0.000000 0.000000 0.000000
1.255785 -0.536515 0.662868 0.000000 0.000000 0.000000
1.179092 -0.407116 0.541017 0.000000 0.000000 0.000000
1.017632 -0.647030 0.557064 0.000000 0.000000 0.000000
1.163600 -0.684646 0.635727 0.000000 0.000000 0.000000
1.086974 -0.505514 0.522714 0.000000 0.000000 0.000000
1.154398 -0.591359 0.608014 0.000000 0.000000 0.000000
1.086738 -0.518347 0.540985 0.000000 0.000000 0.000000
1.061120 -0.604333 0.552978 0.000000 0.000000 0.000000
1.320074 -0.571170 0.679284 0.000000 0.000000 0.000000
1.222918 -0.669496 0.665456 0.000000 0.000000 0.000000
1.384698 -0.411628 0.660458 0.000000 0.000000 0.000000
1.190125 -0.670990 0.645144 0.000000 0.000000 0.000000
1.098321 -0.498620 0.538159 0.000000 0.000000 0.000000
1.167855 -0.448048 0.547925 0.000000 0.000000 0.000000
1.113001 -0.599496 0.564363 0.000000 0.000000 0.000000
1.114259 -0.490550 0.542295 0.000000 0.000000 0.000000
1.112274 -0.488784 0.527423 0.000000 0.000000 0.000000
1.197635 -0.379545 0.537933 0.000000 0.000000 0.000000
1.099002 -0.569204 0.552227 0.000000 0.000000 0.000000
1.408844 -0.499252 0.727887 0.000000 0.000000 0.000000
1.220163 -0.430814 0.565566 0.000000 0.000000 0.000000
1.093944 -0.497233 0.544376 0.000000 0.000000 0.000000
1.084341 -0.488504 0.521228 0.000000 0.000000 0.000000
1.224816 -0.400257 0.552574 0.000000 0.000000 0.000000
1.126361 -0.451036 0.539777 0.000000 0.000000 0.000000
0.997888 -0.671784 0.574895 0.000000 0.000000 0.000000
1.112015 -0.590849 0.578522 0.000000 0.000000 0.000000
1.018504 -0.603175 0.531503 0.000000 0.000000 0.000000
1.080040 -0.530602 0.542074 0.000000 0.000000 0.000000
1.138983 -0.447220 0.547958 0.000000 0.000000 0.000000
1.092067 -0.592195 0.557041 0.000000 0.000000 0.000000
1.058424 -0.585064 0.544192 0.000000 0.000000 0.000000
1.204355 -0.685586 0.661399 0.000000 0.000000 0.000000
1.135975 -0.451241 0.526268 0.000000 0.000000 0.000000
1.236170 -0.553672 0.660780 0.000000 0.000000 0.000000
1.105687 -0.478267 0.520987 0.000000 0.000000 0.000000
1.107154 -0.475360 0.534976 0.000000 0.000000 0.000000
1.062329 -0.525377 0.530865 0.000000 0.000000 0.000000
1.066092 -0.500577 0.518525 0.000000 0.000000 0.000000
1.033299 -0.587256 0.520730 0.000000 0.000000 0.000000
1.362264 -0.408536 0.655794 0.000000 0.000000 0.000000
1.097369 -0.493859 0.536096 0.000000 0.000000 0.000000
1.321571 -0.529977 0.701155 0.000000 0.000000 0.000000
1.358513 -0.520096 0.713991 0.000000 0.000000 0.000000
1.422937 -0.550009 0.741748 0.000000 0.000000 0.000000
1.433162 -0.501948 0.734727 0.000000 0.000000 0.000000
1.176856 -0.616547 0.602267 0.000000 0.000000 0.000000
1.159255 -0.642463 0.608535 0.000000 0.000000 0.000000
0.967950 -0.594118 0.530646 0.000000 0.000000 0.000000
1.120333 -0.468354 0.525430 0.000000 0.000000 0.000000
1.228504 -0.368865 0.535949 0.000000 0.000000 0.000000
1.158484 -0.648580 0.634722 0.000000 0.000000 0.000000
1.399827 -0.418167 0.665552 0.000000 0.000000 0.000000
1.189918 -0.663944 0.651120 0.000000 0.000000 0.000000
1.040233 -0.604215 0.538112 0.000000 0.000000 0.000000
1.432094 -0.467448 0.724573 0.000000 0.000000 0.000000
1.370786 -0.384412 0.630415 0.000000 0.000000 0.000000
1.429531 -0.438102 0.695597 0.000000 0.000000 0.000000
1.282519 -0.624876 0.703777 0.000000 0.000000 0.000000
1.142790 -0.464309 0.551317 0.000000 0.000000 0.000000
1.360311 -0.606841 0.725132 0.000000 0.000000 0.000000
1.398773 -0.505781 0.725378 0.000000 0.000000 0.000000
1.187547 -0.553536 0.613934 0.000000 0.000000 0.000000
1.429780 -0.563051 0.747620 0.000000 0.000000 0.000000
1.170997 -0.523566 0.590327 0.000000 0.000000 0.000000
1.011969 -0.639165 0.557747 0.000000 0.000000 0.000000
1.266661 -0.530265 0.644531 0.000000 0.000000 0.000000
1.434407 -0.493573 0.738258 0.000000 0.000000 0.000000
1.173277 -0.568296 0.611321 0.000000 0.000000 0.000000
1.189849 -0.583042 0.635424 0.000000 0.000000 0.000000
1.238316 -0.654818 0.663615 0.000000 0.000000 0.000000
1.327724 -0.382976 0.629270 0.000000 0.000000 0.000000
1.101566 -0.518004 0.541680 0.000000 0.000000 0.000000
1.217275 -0.599211 0.625349 0.000000 0.000000 0.000000
1.156299 -0.520885 0.592110 0.000000 0.000000 0.000000
1.097351 -0.582062 0.568096 0.000000 0.000000 0.000000
1.217790 -0.599582 0.655729 0.000000 0.000000 0.000000
1.113805 -0.595602 0.571937 0.000000 0.000000 0.000000
1.192348 -0.465624 0.572956 0.000000 0.000000 0.000000
1.215585 -0.495288 0.619690 0.000000 0.000000 0.000000
1.318954 -0.457650 0.662858 0.000000 0.000000 0.000000
1.193441 -0.438561 0.557408 0.000000 0.000000 0.000000
1.176189 -0.498043 0.601524 0.000000 0.000000 0.000000
1.184001 -0.488858 0.588327 0.000000 0.000000 0.000000
1.140562 -0.492821 0.565010 0.000000 0.000000 0.000000
1.184690 -0.447093 0.572966 0.000000 0.000000 0.000000
1.197233 -0.413066 0.565860 0.000000 0.000000 0.000000
1.318968 -0.450364 0.655635 0.000000 0.000000 0.000000
1.219402 -0.443567 0.584598 0.000000 0.000000 0.000000
1.201246 -0.524341 0.621037 0.000000 0.000000 0.000000
1.111390 -0.507997 0.525633 0.000000 0.000000 0.000000
1.259881 -0.457238 0.620692 0.000000 0.000000 0.000000
1.137060 -0.513175 0.540309 0.000000 0.000000 0.000000
1.208573 -0.568344 0.640885 0.000000 0.000000 0.000000
1.364604 -0.453841 0.687290 0.000000 0.000000 0.000000
1.393931 -0.482941 0.711444 0.000000 0.000000 0.000000
1.197528 -0.488574 0.612585 0.000000 0.000000 0.000000
1.081417 -0.556194 0.549040 0.000000 0.000000 0.000000
1.177843 -0.493250 0.581708 0.000000 0.000000 0.000000
1.328951 -0.562553 0.702770 0.000000 0.000000 0.000000
1.333049 -0.450621 0.665976 0.000000 0.000000 0.000000
1.274786 -0.481696 0.663219 0.000000 0.000000 0.000000
1.197540 -0.476482 0.583658 0.000000 0.000000 0.000000
1.255324 -0.628009 0.655604 0.000000 0.000000 0.000000
1.195810 -0.419521 0.572062 0.000000 0.000000 0.000000
1.167595 -0.455996 0.569141 0.000000 0.000000 0.000000
1.307981 -0.447537 0.655600 0.000000 0.000000 0.000000
1.372041 -0.541999 0.720061 0.000000 0.000000 0.000000
1.200484 -0.476957 0.587761 0.000000 0.000000 0.000000
1.323030 -0.583727 0.700623 0.000000 0.000000 0.000000
1.342779 -0.565507 0.706334 0.000000 0.000000 0.000000
1.195474 -0.432408 0.554896 0.000000 0.000000 0.000000
1.088139 -0.576316 0.565591 0.000000 0.000000 0.000000
1.409475 -0.474256 0.710603 0.000000 0.000000 0.000000
1.207231 -0.578618 0.656032 0.000000 0.000000 0.000000
1.254739 -0.416513 0.581956 0.000000 0.000000 0.000000
1.202286 -0.660032 0.654178 0.000000 0.000000 0.000000
1.114963 -0.612360 0.582929 0.000000 0.000000 0.000000
1.183891 -0.476956 0.568658 0.000000 0.000000 0.000000
1.071378 -0.560806 0.543710 0.000000 0.000000 0.000000
1.070178 -0.540058 0.535405 0.000000 0.000000 0.000000
1.366729 -0.433184 0.665314 0.000000 0.000000 0.000000
1.076237 -0.580733 0.553393 0.000000 0.000000 0.000000
1.423782 -0.471816 0.718297 0.000000 0.000000 0.000000
1.299367 -0.467705 0.665095 0.000000 0.000000 0.000000
1.109907 -0.495945 0.529955 0.000000 0.000000 0.000000
1.181390 -0.663786 0.658920 0.000000 0.000000 0.000000
1.217801 -0.440292 0.574432 0.000000 0.000000 0.000000
1.288150 -0.674185 0.706337 0.000000 0.000000 0.000000
1.375475 -0.416369 0.649471 0.000000 0.000000 0.000000
1.105190 -0.494592 0.550487 0.000000 0.000000 0.000000
1.042901 -0.537397 0.524067 0.000000 0.000000 0.000000
1.287997 -0.667653 0.713624 0.000000 0.000000 0.000000
1.092796 -0.615321 0.592677 0.000000 0.000000 0.000000
1.156147 -0.433388 0.552150 0.000000 0.000000 0.000000
1.080422 -0.526263 0.540739 0.000000 0.000000 0.000000
0.976327 -0.667993 0.575214 0.000000 0.000000 0.000000
1.214737 -0.380937 0.553077 0.000000 0.000000 0.000000
1.226795 -0.366895 0.548992 0.000000 0.000000 0.000000
1.413656 -0.534732 0.725734 0.000000 0.000000 0.000000
1.226168 -0.374810 0.539141 0.000000 0.000000 0.000000
1.183547 -0.518083 0.594654 0.000000 0.000000 0.000000
1.079655 -0.679173 0.596631 0.000000 0.000000 0.000000
1.145100 -0.450013 0.549193 0.000000 0.000000 0.000000
1.097930 -0.479121 0.530248 0.000000 0.000000 0.000000
0.943929 -0.646420 0.574612 0.000000 0.000000 0.000000
1.292438 -0.500797 0.671543 0.000000 0.000000 0.000000
1.422678 -0.481863 0.727966 0.000000 0.000000 0.000000
1.078134 -0.518342 0.532306 0.000000 0.000000 0.000000
1.367445 -0.501940 0.707229 0.000000 0.000000 0.000000
1.089349 -0.647214 0.587360 0.000000 0.000000 0.000000
1.296665 -0.553507 0.691867 0.000000 0.000000 0.000000
1.114752 -0.544035 0.573183 0.000000 0.000000 0.000000
1.135875 -0.573687 0.578085 0.000000 0.000000 0.000000
1.314089 -0.417771 0.614555 0.000000 0.000000 0.000000
1.162345 -0.490135 0.584266 0.000000 0.000000 0.000000
1.050735 -0.644777 0.566271 0.000000 0.000000 0.000000
1.299577 -0.465549 0.656856 0.000000 0.000000 0.000000
1.211814 -0.657990 0.664095 0.000000 0.000000 0.000000
1.282883 -0.607568 0.669811 0.000000 0.000000 0.000000
1.092181 -0.489096 0.542997 0.000000 0.000000 0.000000
1.292196 -0.608944 0.692246 0.000000 0.000000 0.000000
1.031921 -0.572947 0.527189 0.000000 0.000000 0.000000
1.117214 -0.543584 0.546238 0.000000 0.000000 0.000000
1.133016 -0.556061 0.580205 0.000000 0.000000 0.000000
1.136905 -0.556298 0.587983 0.000000 0.000000 0.000000
1.100218 -0.580690 0.574649 0.000000 0.000000 0.000000
1.208271 -0.385251 0.543667 0.000000 0.000000 0.000000
1.328902 -0.390086 0.611926 0.000000 0.000000 0.000000
1.154815 -0.447526 0.560191 0.000000 0.000000 0.000000
1.142049 -0.554092 0.587797 0.000000 0.000000 0.000000
1.434149 -0.516028 0.724840 0.000000 0.000000 0.000000
1.415130 -0.501412 0.736763 0.000000 0.000000 0.000000
1.283008 -0.533973 0.665968 0.000000 0.000000 0.000000
1.073282 -0.528457 0.538646 0.000000 0.000000 0.000000
1.166528 -0.413989 0.538068 0.000000 0.000000 0.000000
1.037356 -0.650113 0.564854 0.000000 0.000000 0.000000
1.164321 -0.681821 0.632290 0.000000 0.000000 0.000000
1.076235 -0.513905 0.530935 0.000000 0.000000 0.000000
1.117549 -0.621463 0.606713 0.000000 0.000000 0.000000
1.213989 -0.632681 0.637629 0.000000 0.000000 0.000000
1.049828 -0.558892 0.538448 0.000000 0.000000 0.000000
1.025967 -0.644611 0.567932 0.000000 0.000000 0.000000
1.359577 -0.581919 0.700958 0.000000 0.000000 0.000000
1.189200 -0.678188 0.649100 0.000000 0.000000 0.000000
1.386768 -0.412176 0.654955 0.000000 0.000000 0.000000
1.363782 -0.404292 0.643210 0.000000 0.000000 0.000000
