ply
format ascii 1.0
comment VCGLIB generated
obj_info Generated by SPFormer!
element vertex 870
property float x
property float y
property float z
property float nx
property float ny
property float nz
end_header
1.153050 0.314779 -0.110676 0.000000 0.000000 0.000000
1.132102 0.428857 -0.180158 0.000000 0.000000 0.000000
1.265542 0.399291 -0.198823 0.000000 0.000000 0.000000
1.138131 0.313884 -0.111799 0.000000 0.000000 0.000000
1.298243 0.274219 -0.116790 0.000000 0.000000 0.000000
1.244453 0.255402 -0.074110 0.000000 0.000000 0.000000
1.134090 0.234949 -0.034281 0.000000 0.000000 0.000000
1.246330 0.266431 -0.086288 0.000000 0.000000 0.000000
1.245232 0.192503 -0.000076 0.000000 0.000000 0.000000
1.234321 0.214675 -0.023809 0.000000 0.000000 0.000000
1.138470 0.491663 -0.205311 0.000000 0.000000 0.000000
1.236670 0.575297 -0.256897 0.000000 0.000000 0.000000
1.180924 0.294633 -0.089970 0.000000 0.000000 0.000000
1.229699 0.187451 0.018124 0.000000 0.000000 0.000000
1.185751 0.321588 -0.126872 0.000000 0.000000 0.000000
1.230016 0.244019 -0.062594 0.000000 0.000000 0.000000
1.280144 0.267128 -0.100164 0.000000 0.000000 0.000000
1.093145 0.423833 -0.181188 0.000000 0.000000 0.000000
1.230136 0.521813 -0.251417 0.000000 0.000000 0.000000
1.159558 0.425155 -0.186462 0.000000 0.000000 0.000000
1.311165 0.223781 -0.084193 0.000000 0.000000 0.000000
1.146702 0.527235 -0.227169 0.000000 0.000000 0.000000
1.159240 0.396471 -0.171254 0.000000 0.000000 0.000000
1.219555 0.273464 -0.086834 0.000000 0.000000 0.000000
1.107536 0.248678 -0.045690 0.000000 0.000000 0.000000
1.155628 0.445308 -0.211574 0.000000 0.000000 0.000000
1.305718 0.285748 -0.132412 0.000000 0.000000 0.000000
1.182369 0.328072 -0.129127 0.000000 0.000000 0.000000
1.272425 0.348070 -0.167556 0.000000 0.000000 0.000000
1.232356 0.528968 -0.248107 0.000000 0.000000 0.000000
1.092947 0.273500 -0.072904 0.000000 0.000000 0.000000
1.243996 0.450703 -0.224491 0.000000 0.000000 0.000000
1.083662 0.409216 -0.170097 0.000000 0.000000 0.000000
1.089724 0.337181 -0.119838 0.000000 0.000000 0.000000
1.060040 0.377445 -0.144630 0.000000 0.000000 0.000000
1.297567 0.291378 -0.123560 0.000000 0.000000 0.000000
1.225573 0.269969 -0.085487 0.000000 0.000000 0.000000
1.260832 0.518431 -0.253432 0.000000 0.000000 0.000000
1.093483 0.262617 -0.060134 0.000000 0.000000 0.000000
1.175567 0.483210 -0.231717 0.000000 0.000000 0.000000
1.262270 0.514348 -0.257237 0.000000 0.000000 0.000000
1.203943 0.424573 -0.204235 0.000000 0.000000 0.000000
1.198915 0.412012 -0.194198 0.000000 0.000000 0.000000
1.176221 0.196293 0.008193 0.000000 0.000000 0.000000
1.125730 0.235951 -0.036780 0.000000 0.000000 0.000000
1.209921 0.434741 -0.224090 0.000000 0.000000 0.000000
1.189503 0.439767 -0.203846 0.000000 0.000000 0.000000
1.181240 0.472002 -0.216427 0.000000 0.000000 0.000000
1.187552 0.379034 -0.164488 0.000000 0.000000 0.000000
1.161861 0.193804 0.019180 0.000000 0.000000 0.000000
1.100804 0.481136 -0.199223 0.000000 0.000000 0.000000
1.193562 0.344781 -0.119953 0.000000 0.000000 0.000000
1.178462 0.432222 -0.191435 0.000000 0.000000 0.000000
1.213619 0.266062 -0.081620 0.000000 0.000000 0.000000
1.243513 0.502807 -0.240776 0.000000 0.000000 0.000000
1.309702 0.261053 -0.117086 0.000000 0.000000 0.000000
1.183013 0.271546 -0.082147 0.000000 0.000000 0.000000
1.139614 0.597456 -0.233915 0.000000 0.000000 0.000000
1.236559 0.495384 -0.242345 0.000000 0.000000 0.000000
1.259408 0.331220 -0.151392 0.000000 0.000000 0.000000
1.202193 0.168248 0.058477 0.000000 0.000000 0.000000
1.238502 0.194830 -0.002437 0.000000 0.000000 0.000000
1.262099 0.308899 -0.131334 0.000000 0.000000 0.000000
1.236322 0.168818 0.046268 0.000000 0.000000 0.000000
1.057142 0.304470 -0.093972 0.000000 0.000000 0.000000
1.175489 0.416078 -0.196823 0.000000 0.000000 0.000000
1.081980 0.306898 -0.100510 0.000000 0.000000 0.000000
1.228542 0.267339 -0.100098 0.000000 0.000000 0.000000
1.268651 0.300504 -0.129393 0.000000 0.000000 0.000000
1.179835 0.403532 -0.174978 0.000000 0.000000 0.000000
1.293408 0.308860 -0.140360 0.000000 0.000000 0.000000
1.250743 0.153533 0.045808 0.000000 0.000000 0.000000
1.234761 0.167218 0.054256 0.000000 0.000000 0.000000
1.237076 0.309975 -0.132236 0.000000 0.000000 0.000000
1.210134 0.492473 -0.234194 0.000000 0.000000 0.000000
1.257245 0.315819 -0.130751 0.000000 0.000000 0.000000
1.239028 0.364111 -0.166937 0.000000 0.000000 0.000000
1.176215 0.295033 -0.097530 0.000000 0.000000 0.000000
1.077643 0.422400 -0.166753 0.000000 0.000000 0.000000
1.067849 0.391511 -0.157994 0.000000 0.000000 0.000000
1.172022 0.677223 -0.253863 0.000000 0.000000 0.000000
1.061587 0.408894 -0.162541 0.000000 0.000000 0.000000
1.200384 0.441463 -0.232157 0.000000 0.000000 0.000000
1.120829 0.616721 -0.242031 0.000000 0.000000 0.000000
1.075082 0.417636 -0.169484 0.000000 0.000000 0.000000
1.107163 0.641751 -0.236464 0.000000 0.000000 0.000000
1.089853 0.609630 -0.234180 0.000000 0.000000 0.000000
1.096818 0.418648 -0.172278 0.000000 0.000000 0.000000
1.094976 0.547669 -0.233094 0.000000 0.000000 0.000000
1.119955 0.250725 -0.049900 0.000000 0.000000 0.000000
1.290912 0.386469 -0.196135 0.000000 0.000000 0.000000
1.181483 0.552271 -0.236946 0.000000 0.000000 0.000000
1.174582 0.172164 0.036655 0.000000 0.000000 0.000000
1.176877 0.539284 -0.241525 0.000000 0.000000 0.000000
1.115243 0.216778 0.003883 0.000000 0.000000 0.000000
1.124158 0.239791 -0.039222 0.000000 0.000000 0.000000
1.160433 0.660832 -0.252206 0.000000 0.000000 0.000000
1.124791 0.211476 -0.001445 0.000000 0.000000 0.000000
1.226924 0.278332 -0.106010 0.000000 0.000000 0.000000
1.295532 0.299028 -0.131670 0.000000 0.000000 0.000000
1.144203 0.442895 -0.196870 0.000000 0.000000 0.000000
1.214003 0.469262 -0.232508 0.000000 0.000000 0.000000
1.162568 0.443763 -0.203645 0.000000 0.000000 0.000000
1.238524 0.569912 -0.270634 0.000000 0.000000 0.000000
1.184077 0.476291 -0.225604 0.000000 0.000000 0.000000
1.116480 0.406046 -0.169759 0.000000 0.000000 0.000000
1.262413 0.442368 -0.238139 0.000000 0.000000 0.000000
1.051547 0.280899 -0.076315 0.000000 0.000000 0.000000
1.287976 0.199685 -0.044878 0.000000 0.000000 0.000000
1.210938 0.645018 -0.264954 0.000000 0.000000 0.000000
1.117304 0.549036 -0.224711 0.000000 0.000000 0.000000
1.164579 0.566530 -0.252632 0.000000 0.000000 0.000000
1.254944 0.534146 -0.270196 0.000000 0.000000 0.000000
1.054191 0.375546 -0.146493 0.000000 0.000000 0.000000
1.299254 0.257476 -0.107093 0.000000 0.000000 0.000000
1.258511 0.528992 -0.269096 0.000000 0.000000 0.000000
1.291186 0.268267 -0.108756 0.000000 0.000000 0.000000
1.136683 0.443840 -0.205256 0.000000 0.000000 0.000000
1.293961 0.209714 -0.060258 0.000000 0.000000 0.000000
1.208970 0.204652 -0.001217 0.000000 0.000000 0.000000
1.252638 0.558130 -0.266407 0.000000 0.000000 0.000000
1.171400 0.556705 -0.239521 0.000000 0.000000 0.000000
1.235364 0.186146 0.009350 0.000000 0.000000 0.000000
1.251137 0.195915 -0.009587 0.000000 0.000000 0.000000
1.239776 0.185056 0.005561 0.000000 0.000000 0.000000
1.112331 0.459866 -0.197560 0.000000 0.000000 0.000000
1.120704 0.522794 -0.221905 0.000000 0.000000 0.000000
1.161553 0.628622 -0.258820 0.000000 0.000000 0.000000
1.294890 0.307716 -0.138795 0.000000 0.000000 0.000000
1.241741 0.161651 0.045581 0.000000 0.000000 0.000000
1.234671 0.586925 -0.268530 0.000000 0.000000 0.000000
1.082107 0.386994 -0.157216 0.000000 0.000000 0.000000
1.239278 0.494215 -0.241996 0.000000 0.000000 0.000000
1.065224 0.269902 -0.068439 0.000000 0.000000 0.000000
1.282489 0.426259 -0.227408 0.000000 0.000000 0.000000
1.174090 0.526922 -0.237882 0.000000 0.000000 0.000000
1.223161 0.531710 -0.250694 0.000000 0.000000 0.000000
1.225178 0.221242 -0.036403 0.000000 0.000000 0.000000
1.224125 0.247202 -0.069808 0.000000 0.000000 0.000000
1.274683 0.283028 -0.111978 0.000000 0.000000 0.000000
1.250017 0.377729 -0.180042 0.000000 0.000000 0.000000
1.287428 0.275004 -0.111083 0.000000 0.000000 0.000000
1.258568 0.336902 -0.156782 0.000000 0.000000 0.000000
1.069339 0.383777 -0.150555 0.000000 0.000000 0.000000
1.224237 0.284457 -0.112270 0.000000 0.000000 0.000000
1.214622 0.390055 -0.178421 0.000000 0.000000 0.000000
1.180560 0.200586 -0.005019 0.000000 0.000000 0.000000
1.150643 0.545641 -0.239893 0.000000 0.000000 0.000000
1.230985 0.551397 -0.256680 0.000000 0.000000 0.000000
1.216033 0.476868 -0.231626 0.000000 0.000000 0.000000
1.143393 0.443271 -0.197193 0.000000 0.000000 0.000000
1.164856 0.174225 0.038359 0.000000 0.000000 0.000000
1.240455 0.237007 -0.054137 0.000000 0.000000 0.000000
1.314675 0.285842 -0.135654 0.000000 0.000000 0.000000
1.206903 0.441392 -0.221764 0.000000 0.000000 0.000000
1.301881 0.254074 -0.105720 0.000000 0.000000 0.000000
1.287423 0.301385 -0.135616 0.000000 0.000000 0.000000
1.317820 0.288071 -0.136172 0.000000 0.000000 0.000000
1.290184 0.303285 -0.135251 0.000000 0.000000 0.000000
1.299601 0.261282 -0.105934 0.000000 0.000000 0.000000
1.159080 0.460947 -0.199327 0.000000 0.000000 0.000000
1.109510 0.546116 -0.222936 0.000000 0.000000 0.000000
1.224891 0.473572 -0.237979 0.000000 0.000000 0.000000
1.247519 0.453440 -0.220400 0.000000 0.000000 0.000000
1.126248 0.560700 -0.226829 0.000000 0.000000 0.000000
1.227339 0.483367 -0.235404 0.000000 0.000000 0.000000
1.154239 0.224181 -0.023483 0.000000 0.000000 0.000000
1.104082 0.545066 -0.219599 0.000000 0.000000 0.000000
1.140702 0.214790 -0.015230 0.000000 0.000000 0.000000
1.205379 0.434110 -0.216898 0.000000 0.000000 0.000000
1.072529 0.329117 -0.110416 0.000000 0.000000 0.000000
1.139886 0.386440 -0.168115 0.000000 0.000000 0.000000
1.205204 0.507947 -0.240420 0.000000 0.000000 0.000000
1.248313 0.281013 -0.103400 0.000000 0.000000 0.000000
1.190992 0.596935 -0.256815 0.000000 0.000000 0.000000
1.110397 0.479869 -0.201266 0.000000 0.000000 0.000000
1.200097 0.446150 -0.210449 0.000000 0.000000 0.000000
1.088612 0.384424 -0.148246 0.000000 0.000000 0.000000
1.236874 0.456852 -0.234855 0.000000 0.000000 0.000000
1.063595 0.362488 -0.137584 0.000000 0.000000 0.000000
1.229631 0.194608 0.000290 0.000000 0.000000 0.000000
1.055308 0.327110 -0.113149 0.000000 0.000000 0.000000
1.139498 0.587225 -0.251973 0.000000 0.000000 0.000000
1.258996 0.458379 -0.245518 0.000000 0.000000 0.000000
1.088370 0.491219 -0.201109 0.000000 0.000000 0.000000
1.226356 0.437928 -0.212712 0.000000 0.000000 0.000000
1.119947 0.525877 -0.217134 0.000000 0.000000 0.000000
1.124559 0.219349 -0.011706 0.000000 0.000000 0.000000
1.223629 0.496698 -0.245465 0.000000 0.000000 0.000000
1.061551 0.420420 -0.171138 0.000000 0.000000 0.000000
1.263749 0.424836 -0.213973 0.000000 0.000000 0.000000
1.208688 0.648933 -0.264124 0.000000 0.000000 0.000000
1.241163 0.583775 -0.270718 0.000000 0.000000 0.000000
1.165350 0.573062 -0.249525 0.000000 0.000000 0.000000
1.317518 0.303693 -0.150587 0.000000 0.000000 0.000000
1.236944 0.526001 -0.253293 0.000000 0.000000 0.000000
1.264727 0.504041 -0.245825 0.000000 0.000000 0.000000
1.277410 0.327949 -0.152211 0.000000 0.000000 0.000000
1.138859 0.213626 -0.008380 0.000000 0.000000 0.000000
1.071613 0.431001 -0.176527 0.000000 0.000000 0.000000
1.134293 0.211138 -0.004708 0.000000 0.000000 0.000000
1.174870 0.453707 -0.210992 0.000000 0.000000 0.000000
1.125391 0.485702 -0.204562 0.000000 0.000000 0.000000
1.153743 0.555896 -0.244650 0.000000 0.000000 0.000000
1.225750 0.618293 -0.271651 0.000000 0.000000 0.000000
1.133801 0.546579 -0.237387 0.000000 0.000000 0.000000
1.208191 0.591338 -0.262822 0.000000 0.000000 0.000000
1.238072 0.172471 0.032430 0.000000 0.000000 0.000000
1.259075 0.205280 -0.022856 0.000000 0.000000 0.000000
1.133322 0.215017 -0.009093 0.000000 0.000000 0.000000
1.244488 0.226179 -0.041029 0.000000 0.000000 0.000000
1.272003 0.198433 -0.026801 0.000000 0.000000 0.000000
1.108058 0.505992 -0.207535 0.000000 0.000000 0.000000
1.187518 0.466717 -0.215630 0.000000 0.000000 0.000000
1.106172 0.224938 -0.022281 0.000000 0.000000 0.000000
1.173150 0.423197 -0.210457 0.000000 0.000000 0.000000
1.264505 0.441100 -0.236298 0.000000 0.000000 0.000000
1.277637 0.424516 -0.228076 0.000000 0.000000 0.000000
1.217353 0.547333 -0.256370 0.000000 0.000000 0.000000
1.223344 0.233980 -0.048087 0.000000 0.000000 0.000000
1.231879 0.260354 -0.083268 0.000000 0.000000 0.000000
1.235319 0.223987 -0.034627 0.000000 0.000000 0.000000
1.121080 0.427225 -0.188988 0.000000 0.000000 0.000000
1.157056 0.581146 -0.241227 0.000000 0.000000 0.000000
1.071046 0.517739 -0.209643 0.000000 0.000000 0.000000
1.300821 0.282986 -0.119202 0.000000 0.000000 0.000000
1.228237 0.346605 -0.166085 0.000000 0.000000 0.000000
1.209628 0.537697 -0.251166 0.000000 0.000000 0.000000
1.243396 0.189855 0.004713 0.000000 0.000000 0.000000
1.128191 0.500792 -0.230185 0.000000 0.000000 0.000000
1.154174 0.445776 -0.198134 0.000000 0.000000 0.000000
1.193120 0.190627 0.047036 0.000000 0.000000 0.000000
1.235690 0.378391 -0.178955 0.000000 0.000000 0.000000
1.251192 0.256423 -0.085282 0.000000 0.000000 0.000000
1.307750 0.288217 -0.132098 0.000000 0.000000 0.000000
1.287988 0.300305 -0.122287 0.000000 0.000000 0.000000
1.068119 0.432483 -0.175994 0.000000 0.000000 0.000000
1.266679 0.181598 -0.003263 0.000000 0.000000 0.000000
1.185487 0.446655 -0.204571 0.000000 0.000000 0.000000
1.293736 0.301850 -0.136375 0.000000 0.000000 0.000000
1.250888 0.452490 -0.235106 0.000000 0.000000 0.000000
1.269036 0.269480 -0.097580 0.000000 0.000000 0.000000
1.201585 0.523368 -0.239959 0.000000 0.000000 0.000000
1.273580 0.189903 -0.020721 0.000000 0.000000 0.000000
1.144795 0.538853 -0.238674 0.000000 0.000000 0.000000
1.112542 0.540183 -0.219756 0.000000 0.000000 0.000000
1.123855 0.228013 -0.025487 0.000000 0.000000 0.000000
1.113328 0.238657 -0.032612 0.000000 0.000000 0.000000
1.277912 0.404523 -0.195635 0.000000 0.000000 0.000000
1.224466 0.568285 -0.258679 0.000000 0.000000 0.000000
1.060587 0.341452 -0.119841 0.000000 0.000000 0.000000
1.194913 0.491610 -0.244947 0.000000 0.000000 0.000000
1.237713 0.449099 -0.219960 0.000000 0.000000 0.000000
1.212754 0.499106 -0.236152 0.000000 0.000000 0.000000
1.281915 0.403486 -0.214678 0.000000 0.000000 0.000000
1.198750 0.402071 -0.184747 0.000000 0.000000 0.000000
1.061219 0.373718 -0.149811 0.000000 0.000000 0.000000
1.220988 0.461928 -0.230460 0.000000 0.000000 0.000000
1.270362 0.236754 -0.065240 0.000000 0.000000 0.000000
1.071698 0.415016 -0.166288 0.000000 0.000000 0.000000
1.214914 0.329047 -0.140128 0.000000 0.000000 0.000000
1.157892 0.589540 -0.241509 0.000000 0.000000 0.000000
1.213864 0.507196 -0.233186 0.000000 0.000000 0.000000
1.208579 0.632482 -0.260565 0.000000 0.000000 0.000000
1.163713 0.577589 -0.256786 0.000000 0.000000 0.000000
1.189288 0.180937 0.041295 0.000000 0.000000 0.000000
1.312410 0.317029 -0.160645 0.000000 0.000000 0.000000
1.173828 0.642260 -0.258211 0.000000 0.000000 0.000000
1.121541 0.205464 0.000935 0.000000 0.000000 0.000000
1.168603 0.548193 -0.237571 0.000000 0.000000 0.000000
1.163820 0.668283 -0.262870 0.000000 0.000000 0.000000
1.046659 0.445317 -0.181269 0.000000 0.000000 0.000000
1.229406 0.604838 -0.271867 0.000000 0.000000 0.000000
1.202792 0.544018 -0.245041 0.000000 0.000000 0.000000
1.231177 0.159543 0.067173 0.000000 0.000000 0.000000
1.072601 0.395205 -0.157482 0.000000 0.000000 0.000000
1.123415 0.241448 -0.031004 0.000000 0.000000 0.000000
1.148443 0.185408 0.037259 0.000000 0.000000 0.000000
1.166721 0.433507 -0.202436 0.000000 0.000000 0.000000
1.154901 0.487028 -0.219364 0.000000 0.000000 0.000000
1.182683 0.492595 -0.226571 0.000000 0.000000 0.000000
1.158047 0.545379 -0.246971 0.000000 0.000000 0.000000
1.244048 0.526393 -0.257182 0.000000 0.000000 0.000000
1.132679 0.224846 -0.019682 0.000000 0.000000 0.000000
1.163239 0.433745 -0.184714 0.000000 0.000000 0.000000
1.156690 0.539290 -0.240909 0.000000 0.000000 0.000000
1.167836 0.191778 0.022158 0.000000 0.000000 0.000000
1.184085 0.423719 -0.204019 0.000000 0.000000 0.000000
1.262312 0.505541 -0.257933 0.000000 0.000000 0.000000
1.185347 0.462934 -0.228726 0.000000 0.000000 0.000000
1.272224 0.466363 -0.240974 0.000000 0.000000 0.000000
1.118163 0.213908 -0.007900 0.000000 0.000000 0.000000
1.164077 0.657887 -0.253430 0.000000 0.000000 0.000000
1.245893 0.525705 -0.252096 0.000000 0.000000 0.000000
1.081947 0.582254 -0.227870 0.000000 0.000000 0.000000
1.234517 0.575946 -0.270099 0.000000 0.000000 0.000000
1.089736 0.582849 -0.229845 0.000000 0.000000 0.000000
1.094960 0.590129 -0.234619 0.000000 0.000000 0.000000
1.141422 0.241164 -0.040522 0.000000 0.000000 0.000000
1.264712 0.188586 -0.008741 0.000000 0.000000 0.000000
1.248792 0.193032 -0.001481 0.000000 0.000000 0.000000
1.311769 0.244232 -0.093958 0.000000 0.000000 0.000000
1.179475 0.409739 -0.175012 0.000000 0.000000 0.000000
1.155840 0.538016 -0.236887 0.000000 0.000000 0.000000
1.121162 0.578130 -0.227177 0.000000 0.000000 0.000000
1.266974 0.398176 -0.194659 0.000000 0.000000 0.000000
1.190218 0.406088 -0.188492 0.000000 0.000000 0.000000
1.201041 0.389899 -0.180266 0.000000 0.000000 0.000000
1.106786 0.267161 -0.059524 0.000000 0.000000 0.000000
1.243037 0.396775 -0.195882 0.000000 0.000000 0.000000
1.096644 0.247196 -0.043572 0.000000 0.000000 0.000000
1.245398 0.518058 -0.246063 0.000000 0.000000 0.000000
1.206354 0.558238 -0.246974 0.000000 0.000000 0.000000
1.100415 0.265963 -0.064939 0.000000 0.000000 0.000000
1.274566 0.430172 -0.225435 0.000000 0.000000 0.000000
1.237380 0.248765 -0.063795 0.000000 0.000000 0.000000
1.164477 0.442358 -0.204488 0.000000 0.000000 0.000000
1.275028 0.403612 -0.212101 0.000000 0.000000 0.000000
1.120673 0.572082 -0.234771 0.000000 0.000000 0.000000
1.152220 0.517413 -0.227207 0.000000 0.000000 0.000000
1.172851 0.454241 -0.210368 0.000000 0.000000 0.000000
1.251049 0.242454 -0.062916 0.000000 0.000000 0.000000
1.058564 0.384656 -0.153931 0.000000 0.000000 0.000000
1.240259 0.477890 -0.242143 0.000000 0.000000 0.000000
1.227376 0.512516 -0.246966 0.000000 0.000000 0.000000
1.076180 0.543969 -0.213358 0.000000 0.000000 0.000000
1.190481 0.227510 -0.034705 0.000000 0.000000 0.000000
1.192320 0.448785 -0.195503 0.000000 0.000000 0.000000
1.094684 0.280072 -0.076853 0.000000 0.000000 0.000000
1.144126 0.479110 -0.200513 0.000000 0.000000 0.000000
1.256981 0.426182 -0.227413 0.000000 0.000000 0.000000
1.139382 0.269906 -0.066489 0.000000 0.000000 0.000000
1.065616 0.456198 -0.189227 0.000000 0.000000 0.000000
1.253574 0.491621 -0.244126 0.000000 0.000000 0.000000
1.064079 0.395068 -0.156395 0.000000 0.000000 0.000000
1.171397 0.200301 0.001864 0.000000 0.000000 0.000000
1.078752 0.461267 -0.195728 0.000000 0.000000 0.000000
1.249430 0.248349 -0.064358 0.000000 0.000000 0.000000
1.210735 0.558359 -0.253328 0.000000 0.000000 0.000000
1.268695 0.193173 -0.017628 0.000000 0.000000 0.000000
1.068710 0.350466 -0.127427 0.000000 0.000000 0.000000
1.221497 0.429022 -0.216713 0.000000 0.000000 0.000000
1.069514 0.442813 -0.179407 0.000000 0.000000 0.000000
1.223492 0.401299 -0.194386 0.000000 0.000000 0.000000
1.093295 0.557977 -0.223367 0.000000 0.000000 0.000000
1.211387 0.417111 -0.200964 0.000000 0.000000 0.000000
1.193614 0.482378 -0.219824 0.000000 0.000000 0.000000
1.255807 0.447112 -0.236774 0.000000 0.000000 0.000000
1.236863 0.483336 -0.238663 0.000000 0.000000 0.000000
1.246603 0.404695 -0.191029 0.000000 0.000000 0.000000
1.238914 0.185440 0.014905 0.000000 0.000000 0.000000
1.195643 0.470325 -0.218275 0.000000 0.000000 0.000000
1.150796 0.483135 -0.227935 0.000000 0.000000 0.000000
1.123751 0.207408 0.008366 0.000000 0.000000 0.000000
1.243966 0.543222 -0.258609 0.000000 0.000000 0.000000
1.218930 0.426502 -0.226164 0.000000 0.000000 0.000000
1.109109 0.215597 -0.007446 0.000000 0.000000 0.000000
1.150141 0.583947 -0.242633 0.000000 0.000000 0.000000
1.139532 0.663282 -0.257801 0.000000 0.000000 0.000000
1.175205 0.667873 -0.262501 0.000000 0.000000 0.000000
1.062922 0.469840 -0.191999 0.000000 0.000000 0.000000
1.240865 0.589534 -0.273165 0.000000 0.000000 0.000000
1.070051 0.530667 -0.212588 0.000000 0.000000 0.000000
1.086967 0.599071 -0.233069 0.000000 0.000000 0.000000
1.275502 0.469636 -0.249464 0.000000 0.000000 0.000000
1.109747 0.227077 -0.025387 0.000000 0.000000 0.000000
1.093773 0.253763 -0.061279 0.000000 0.000000 0.000000
1.262176 0.190262 -0.017014 0.000000 0.000000 0.000000
1.228803 0.183811 0.027929 0.000000 0.000000 0.000000
1.208069 0.436085 -0.187490 0.000000 0.000000 0.000000
1.221929 0.494040 -0.236935 0.000000 0.000000 0.000000
1.218912 0.443485 -0.217484 0.000000 0.000000 0.000000
1.211474 0.219314 -0.031810 0.000000 0.000000 0.000000
1.237200 0.419311 -0.190714 0.000000 0.000000 0.000000
1.159197 0.564126 -0.237553 0.000000 0.000000 0.000000
1.240779 0.491165 -0.242256 0.000000 0.000000 0.000000
1.172333 0.485684 -0.230441 0.000000 0.000000 0.000000
1.164060 0.557112 -0.248192 0.000000 0.000000 0.000000
1.208493 0.567958 -0.248684 0.000000 0.000000 0.000000
1.279378 0.453410 -0.241037 0.000000 0.000000 0.000000
1.139416 0.454495 -0.191631 0.000000 0.000000 0.000000
1.174976 0.460716 -0.203036 0.000000 0.000000 0.000000
1.171221 0.617409 -0.258414 0.000000 0.000000 0.000000
1.201016 0.555459 -0.242057 0.000000 0.000000 0.000000
1.165726 0.488189 -0.217719 0.000000 0.000000 0.000000
1.281118 0.249360 -0.088454 0.000000 0.000000 0.000000
1.166042 0.618010 -0.253022 0.000000 0.000000 0.000000
1.191194 0.417504 -0.189592 0.000000 0.000000 0.000000
1.150116 0.263699 -0.063549 0.000000 0.000000 0.000000
1.175650 0.441107 -0.197187 0.000000 0.000000 0.000000
1.078254 0.270846 -0.068256 0.000000 0.000000 0.000000
1.149136 0.451457 -0.204631 0.000000 0.000000 0.000000
1.154863 0.528329 -0.233418 0.000000 0.000000 0.000000
1.155258 0.494892 -0.223994 0.000000 0.000000 0.000000
1.104325 0.286919 -0.080494 0.000000 0.000000 0.000000
1.204893 0.577180 -0.251898 0.000000 0.000000 0.000000
1.269787 0.401249 -0.203645 0.000000 0.000000 0.000000
1.063461 0.491059 -0.199315 0.000000 0.000000 0.000000
1.237719 0.495291 -0.243603 0.000000 0.000000 0.000000
1.138046 0.213203 -0.012664 0.000000 0.000000 0.000000
1.168641 0.214920 -0.016605 0.000000 0.000000 0.000000
1.224548 0.559472 -0.261529 0.000000 0.000000 0.000000
1.076422 0.267355 -0.066170 0.000000 0.000000 0.000000
1.082905 0.508735 -0.207653 0.000000 0.000000 0.000000
1.258933 0.385617 -0.197017 0.000000 0.000000 0.000000
1.139679 0.462549 -0.195214 0.000000 0.000000 0.000000
1.181741 0.191422 0.014398 0.000000 0.000000 0.000000
1.218814 0.597635 -0.267205 0.000000 0.000000 0.000000
1.246611 0.434581 -0.224151 0.000000 0.000000 0.000000
1.138786 0.466371 -0.210048 0.000000 0.000000 0.000000
1.095211 0.618611 -0.235008 0.000000 0.000000 0.000000
1.237569 0.470801 -0.236764 0.000000 0.000000 0.000000
1.248095 0.391968 -0.194619 0.000000 0.000000 0.000000
1.269150 0.398431 -0.201657 0.000000 0.000000 0.000000
1.111373 0.587482 -0.231597 0.000000 0.000000 0.000000
1.130583 0.219882 -0.016253 0.000000 0.000000 0.000000
1.199007 0.664013 -0.264522 0.000000 0.000000 0.000000
1.169988 0.450961 -0.228894 0.000000 0.000000 0.000000
1.041917 0.328793 -0.114338 0.000000 0.000000 0.000000
1.265743 0.483215 -0.249041 0.000000 0.000000 0.000000
1.238304 0.608693 -0.276798 0.000000 0.000000 0.000000
1.085590 0.543137 -0.214278 0.000000 0.000000 0.000000
1.117164 0.655010 -0.246675 0.000000 0.000000 0.000000
1.283231 0.422691 -0.229321 0.000000 0.000000 0.000000
1.167167 0.417841 -0.198747 0.000000 0.000000 0.000000
1.203379 0.452527 -0.229055 0.000000 0.000000 0.000000
1.107235 0.458625 -0.187372 0.000000 0.000000 0.000000
1.134953 0.455076 -0.205237 0.000000 0.000000 0.000000
1.136929 0.189805 0.028628 0.000000 0.000000 0.000000
1.301338 0.206844 -0.060787 0.000000 0.000000 0.000000
1.124883 0.595148 -0.238832 0.000000 0.000000 0.000000
1.230429 0.508257 -0.242447 0.000000 0.000000 0.000000
1.066538 0.278482 -0.072770 0.000000 0.000000 0.000000
1.172631 0.181323 0.034180 0.000000 0.000000 0.000000
1.075569 0.561364 -0.220964 0.000000 0.000000 0.000000
1.163808 0.542107 -0.247673 0.000000 0.000000 0.000000
1.077964 0.313948 -0.102404 0.000000 0.000000 0.000000
1.209076 0.211368 -0.021015 0.000000 0.000000 0.000000
1.252070 0.539102 -0.263062 0.000000 0.000000 0.000000
1.206417 0.180600 0.040900 0.000000 0.000000 0.000000
1.151862 0.406508 -0.181844 0.000000 0.000000 0.000000
1.261889 0.179766 0.004468 0.000000 0.000000 0.000000
1.206591 0.508137 -0.243569 0.000000 0.000000 0.000000
1.064183 0.340042 -0.115199 0.000000 0.000000 0.000000
1.175576 0.659871 -0.259310 0.000000 0.000000 0.000000
1.204941 0.179332 0.035063 0.000000 0.000000 0.000000
1.078910 0.562844 -0.220780 0.000000 0.000000 0.000000
1.224167 0.309986 -0.132896 0.000000 0.000000 0.000000
1.272714 0.389164 -0.200804 0.000000 0.000000 0.000000
1.095600 0.553094 -0.228243 0.000000 0.000000 0.000000
1.207974 0.488950 -0.232929 0.000000 0.000000 0.000000
1.255260 0.287319 -0.120068 0.000000 0.000000 0.000000
1.147997 0.447444 -0.195713 0.000000 0.000000 0.000000
1.046825 0.311866 -0.110036 0.000000 0.000000 0.000000
1.091693 0.312229 -0.096791 0.000000 0.000000 0.000000
1.277245 0.432352 -0.227873 0.000000 0.000000 0.000000
1.221240 0.400594 -0.187901 0.000000 0.000000 0.000000
1.185990 0.467801 -0.233659 0.000000 0.000000 0.000000
1.201249 0.189236 0.014644 0.000000 0.000000 0.000000
1.231979 0.602787 -0.270835 0.000000 0.000000 0.000000
1.106054 0.512571 -0.212472 0.000000 0.000000 0.000000
1.204891 0.418880 -0.200004 0.000000 0.000000 0.000000
1.229517 0.607362 -0.271183 0.000000 0.000000 0.000000
1.204139 0.497573 -0.233671 0.000000 0.000000 0.000000
1.199175 0.521961 -0.240855 0.000000 0.000000 0.000000
1.142062 0.389455 -0.165047 0.000000 0.000000 0.000000
1.207077 0.435061 -0.208104 0.000000 0.000000 0.000000
1.247985 0.407764 -0.196310 0.000000 0.000000 0.000000
1.269568 0.359650 -0.171349 0.000000 0.000000 0.000000
1.201622 0.501766 -0.232011 0.000000 0.000000 0.000000
1.178299 0.443801 -0.219814 0.000000 0.000000 0.000000
1.221189 0.449646 -0.216388 0.000000 0.000000 0.000000
1.255929 0.171548 0.023384 0.000000 0.000000 0.000000
1.221504 0.466595 -0.225952 0.000000 0.000000 0.000000
1.062966 0.336235 -0.114527 0.000000 0.000000 0.000000
1.172901 0.543049 -0.245427 0.000000 0.000000 0.000000
1.247739 0.494545 -0.246638 0.000000 0.000000 0.000000
1.260950 0.366764 -0.176120 0.000000 0.000000 0.000000
1.137847 0.585446 -0.244046 0.000000 0.000000 0.000000
1.281316 0.455933 -0.244717 0.000000 0.000000 0.000000
1.192511 0.170983 0.047486 0.000000 0.000000 0.000000
1.067516 0.252685 -0.045830 0.000000 0.000000 0.000000
1.093049 0.603842 -0.237603 0.000000 0.000000 0.000000
1.042745 0.321021 -0.108279 0.000000 0.000000 0.000000
1.153807 0.686139 -0.247827 0.000000 0.000000 0.000000
1.205778 0.239059 -0.059606 0.000000 0.000000 0.000000
1.252457 0.543431 -0.272424 0.000000 0.000000 0.000000
1.101652 0.636429 -0.237177 0.000000 0.000000 0.000000
1.052421 0.350045 -0.128513 0.000000 0.000000 0.000000
1.201772 0.191975 0.008868 0.000000 0.000000 0.000000
1.115613 0.487335 -0.209810 0.000000 0.000000 0.000000
1.226073 0.157383 0.073144 0.000000 0.000000 0.000000
1.212992 0.206058 -0.004871 0.000000 0.000000 0.000000
1.203770 0.477265 -0.227296 0.000000 0.000000 0.000000
1.067832 0.338139 -0.116249 0.000000 0.000000 0.000000
1.203146 0.182346 0.040051 0.000000 0.000000 0.000000
1.088219 0.550081 -0.223039 0.000000 0.000000 0.000000
1.259145 0.215155 -0.033128 0.000000 0.000000 0.000000
1.152326 0.410501 -0.175305 0.000000 0.000000 0.000000
1.196541 0.189340 0.017798 0.000000 0.000000 0.000000
1.227829 0.495653 -0.230609 0.000000 0.000000 0.000000
1.283951 0.404814 -0.218810 0.000000 0.000000 0.000000
1.062364 0.333156 -0.116180 0.000000 0.000000 0.000000
1.094743 0.549361 -0.218397 0.000000 0.000000 0.000000
1.273581 0.312782 -0.135783 0.000000 0.000000 0.000000
1.169839 0.433864 -0.200251 0.000000 0.000000 0.000000
1.279022 0.442009 -0.236325 0.000000 0.000000 0.000000
1.280101 0.171842 -0.008023 0.000000 0.000000 0.000000
1.235535 0.536231 -0.241294 0.000000 0.000000 0.000000
1.166085 0.187181 0.021651 0.000000 0.000000 0.000000
1.281510 0.349122 -0.168270 0.000000 0.000000 0.000000
1.079395 0.259278 -0.056032 0.000000 0.000000 0.000000
1.107733 0.280489 -0.074888 0.000000 0.000000 0.000000
1.176331 0.417205 -0.185377 0.000000 0.000000 0.000000
1.162902 0.496556 -0.223409 0.000000 0.000000 0.000000
1.129337 0.471007 -0.207905 0.000000 0.000000 0.000000
1.108783 0.218023 -0.012432 0.000000 0.000000 0.000000
1.208035 0.606473 -0.261707 0.000000 0.000000 0.000000
1.257834 0.536215 -0.265372 0.000000 0.000000 0.000000
1.190102 0.429899 -0.211734 0.000000 0.000000 0.000000
1.259966 0.170687 0.008137 0.000000 0.000000 0.000000
1.249236 0.420509 -0.212915 0.000000 0.000000 0.000000
1.257374 0.471046 -0.247017 0.000000 0.000000 0.000000
1.321854 0.325028 -0.169994 0.000000 0.000000 0.000000
1.185111 0.685733 -0.264466 0.000000 0.000000 0.000000
1.282912 0.467619 -0.247837 0.000000 0.000000 0.000000
1.111764 0.637491 -0.240333 0.000000 0.000000 0.000000
1.283316 0.430460 -0.232522 0.000000 0.000000 0.000000
1.075357 0.287065 -0.079444 0.000000 0.000000 0.000000
1.057351 0.264510 -0.061238 0.000000 0.000000 0.000000
1.244141 0.559844 -0.277603 0.000000 0.000000 0.000000
1.196322 0.480771 -0.237025 0.000000 0.000000 0.000000
1.318735 0.339313 -0.178497 0.000000 0.000000 0.000000
1.049438 0.364822 -0.138954 0.000000 0.000000 0.000000
1.285254 0.173447 -0.010568 0.000000 0.000000 0.000000
1.148167 0.602259 -0.250788 0.000000 0.000000 0.000000
1.071308 0.540961 -0.214734 0.000000 0.000000 0.000000
1.109296 0.425258 -0.193699 0.000000 0.000000 0.000000
1.202593 0.213252 -0.018101 0.000000 0.000000 0.000000
1.193343 0.184639 0.032923 0.000000 0.000000 0.000000
1.282562 0.383486 -0.195674 0.000000 0.000000 0.000000
1.190108 0.320545 -0.125556 0.000000 0.000000 0.000000
1.232880 0.196845 -0.005006 0.000000 0.000000 0.000000
1.227908 0.186738 0.021419 0.000000 0.000000 0.000000
1.235079 0.277827 -0.102180 0.000000 0.000000 0.000000
1.266551 0.173309 0.006749 0.000000 0.000000 0.000000
1.053166 0.378356 -0.151896 0.000000 0.000000 0.000000
1.261017 0.185220 0.000330 0.000000 0.000000 0.000000
1.270893 0.431529 -0.234113 0.000000 0.000000 0.000000
1.052771 0.344912 -0.125210 0.000000 0.000000 0.000000
1.060885 0.427766 -0.172954 0.000000 0.000000 0.000000
1.045067 0.398620 -0.165315 0.000000 0.000000 0.000000
1.246762 0.178543 0.023483 0.000000 0.000000 0.000000
1.128912 0.483720 -0.214197 0.000000 0.000000 0.000000
1.125510 0.667081 -0.244707 0.000000 0.000000 0.000000
1.241982 0.168686 0.032534 0.000000 0.000000 0.000000
1.184927 0.445281 -0.202916 0.000000 0.000000 0.000000
1.256258 0.150585 0.037728 0.000000 0.000000 0.000000
1.167210 0.190053 0.023146 0.000000 0.000000 0.000000
1.209536 0.178802 0.039089 0.000000 0.000000 0.000000
1.290413 0.367288 -0.181347 0.000000 0.000000 0.000000
1.063074 0.352123 -0.129219 0.000000 0.000000 0.000000
1.046197 0.325412 -0.114065 0.000000 0.000000 0.000000
1.058669 0.329820 -0.112962 0.000000 0.000000 0.000000
1.077649 0.236641 -0.042762 0.000000 0.000000 0.000000
1.326305 0.310940 -0.154621 0.000000 0.000000 0.000000
1.124022 0.446366 -0.205308 0.000000 0.000000 0.000000
1.091035 0.423767 -0.176196 0.000000 0.000000 0.000000
1.201177 0.237243 -0.050841 0.000000 0.000000 0.000000
1.171791 0.170178 0.046761 0.000000 0.000000 0.000000
1.089996 0.230704 -0.038337 0.000000 0.000000 0.000000
1.185596 0.210047 -0.011879 0.000000 0.000000 0.000000
1.246782 0.179684 0.017972 0.000000 0.000000 0.000000
1.235978 0.179677 0.022560 0.000000 0.000000 0.000000
1.177852 0.543483 -0.241873 0.000000 0.000000 0.000000
1.199322 0.186685 0.029515 0.000000 0.000000 0.000000
1.236529 0.271234 -0.106093 0.000000 0.000000 0.000000
1.275446 0.169136 0.002788 0.000000 0.000000 0.000000
1.253448 0.168964 0.023875 0.000000 0.000000 0.000000
1.142760 0.655549 -0.254212 0.000000 0.000000 0.000000
1.202063 0.471505 -0.243923 0.000000 0.000000 0.000000
1.245374 0.180051 0.018147 0.000000 0.000000 0.000000
1.266265 0.175188 0.005179 0.000000 0.000000 0.000000
1.058476 0.374426 -0.149272 0.000000 0.000000 0.000000
1.118184 0.221676 -0.016216 0.000000 0.000000 0.000000
1.121915 0.659441 -0.245892 0.000000 0.000000 0.000000
1.187267 0.456531 -0.212629 0.000000 0.000000 0.000000
1.256652 0.175075 0.017194 0.000000 0.000000 0.000000
1.209147 0.181926 0.040982 0.000000 0.000000 0.000000
1.163703 0.678445 -0.250682 0.000000 0.000000 0.000000
1.050200 0.334770 -0.115668 0.000000 0.000000 0.000000
1.158792 0.673333 -0.250134 0.000000 0.000000 0.000000
1.112613 0.630058 -0.235563 0.000000 0.000000 0.000000
1.285693 0.442605 -0.242321 0.000000 0.000000 0.000000
1.096942 0.238576 -0.037911 0.000000 0.000000 0.000000
1.244047 0.528860 -0.249571 0.000000 0.000000 0.000000
1.086972 0.531254 -0.215342 0.000000 0.000000 0.000000
1.133149 0.215037 0.000540 0.000000 0.000000 0.000000
1.282509 0.193719 -0.035647 0.000000 0.000000 0.000000
1.059588 0.276209 -0.071220 0.000000 0.000000 0.000000
1.216310 0.626337 -0.265879 0.000000 0.000000 0.000000
1.076675 0.405577 -0.162847 0.000000 0.000000 0.000000
1.181875 0.677517 -0.260712 0.000000 0.000000 0.000000
1.095634 0.480653 -0.197383 0.000000 0.000000 0.000000
1.074195 0.560056 -0.221275 0.000000 0.000000 0.000000
1.281315 0.440791 -0.239414 0.000000 0.000000 0.000000
1.263564 0.458568 -0.245459 0.000000 0.000000 0.000000
1.258375 0.454471 -0.242734 0.000000 0.000000 0.000000
1.253575 0.251222 -0.078643 0.000000 0.000000 0.000000
1.055153 0.487273 -0.194381 0.000000 0.000000 0.000000
1.271256 0.192909 -0.023906 0.000000 0.000000 0.000000
1.143316 0.597499 -0.251693 0.000000 0.000000 0.000000
1.217318 0.294655 -0.122435 0.000000 0.000000 0.000000
1.230161 0.419176 -0.209615 0.000000 0.000000 0.000000
1.250992 0.561706 -0.273586 0.000000 0.000000 0.000000
1.164973 0.473786 -0.225456 0.000000 0.000000 0.000000
1.068864 0.526271 -0.213873 0.000000 0.000000 0.000000
1.181461 0.200411 -0.005356 0.000000 0.000000 0.000000
1.234722 0.491874 -0.234909 0.000000 0.000000 0.000000
1.255141 0.438742 -0.223207 0.000000 0.000000 0.000000
1.114613 0.219295 -0.013416 0.000000 0.000000 0.000000
1.237050 0.519923 -0.254706 0.000000 0.000000 0.000000
1.190728 0.167794 0.052510 0.000000 0.000000 0.000000
1.259267 0.187741 0.002511 0.000000 0.000000 0.000000
1.078586 0.523154 -0.210422 0.000000 0.000000 0.000000
1.082673 0.259238 -0.053926 0.000000 0.000000 0.000000
1.147616 0.587377 -0.251620 0.000000 0.000000 0.000000
1.050261 0.281183 -0.078626 0.000000 0.000000 0.000000
1.133493 0.613887 -0.242534 0.000000 0.000000 0.000000
1.073535 0.576553 -0.224054 0.000000 0.000000 0.000000
1.195808 0.657970 -0.259698 0.000000 0.000000 0.000000
1.177949 0.202981 -0.002887 0.000000 0.000000 0.000000
1.174490 0.196921 0.010680 0.000000 0.000000 0.000000
1.296448 0.394822 -0.211462 0.000000 0.000000 0.000000
1.170666 0.207178 -0.001723 0.000000 0.000000 0.000000
1.209488 0.476421 -0.235125 0.000000 0.000000 0.000000
1.191816 0.642668 -0.255520 0.000000 0.000000 0.000000
1.207140 0.161597 0.063694 0.000000 0.000000 0.000000
1.144718 0.234323 -0.030785 0.000000 0.000000 0.000000
1.240916 0.510716 -0.243716 0.000000 0.000000 0.000000
1.213857 0.443602 -0.224267 0.000000 0.000000 0.000000
1.162764 0.545170 -0.235893 0.000000 0.000000 0.000000
1.090969 0.391107 -0.161471 0.000000 0.000000 0.000000
1.303656 0.308673 -0.139003 0.000000 0.000000 0.000000
1.275555 0.448744 -0.241219 0.000000 0.000000 0.000000
1.269270 0.465338 -0.238716 0.000000 0.000000 0.000000
1.078372 0.240361 -0.040287 0.000000 0.000000 0.000000
1.078972 0.237474 -0.036252 0.000000 0.000000 0.000000
1.220946 0.167901 0.064383 0.000000 0.000000 0.000000
1.102585 0.223070 -0.020121 0.000000 0.000000 0.000000
1.045506 0.368890 -0.141671 0.000000 0.000000 0.000000
1.046078 0.345889 -0.123733 0.000000 0.000000 0.000000
1.053941 0.329740 -0.112454 0.000000 0.000000 0.000000
1.232316 0.164518 0.069888 0.000000 0.000000 0.000000
1.090059 0.583511 -0.231945 0.000000 0.000000 0.000000
1.299887 0.385417 -0.205166 0.000000 0.000000 0.000000
1.317872 0.273950 -0.129855 0.000000 0.000000 0.000000
1.313851 0.244414 -0.100613 0.000000 0.000000 0.000000
1.317052 0.249335 -0.110999 0.000000 0.000000 0.000000
1.197662 0.319557 -0.125600 0.000000 0.000000 0.000000
1.057915 0.277055 -0.072347 0.000000 0.000000 0.000000
1.050113 0.269264 -0.065003 0.000000 0.000000 0.000000
1.283097 0.227542 -0.071671 0.000000 0.000000 0.000000
1.048365 0.384772 -0.150827 0.000000 0.000000 0.000000
1.121281 0.228460 -0.024372 0.000000 0.000000 0.000000
1.267432 0.467174 -0.243136 0.000000 0.000000 0.000000
1.176672 0.182796 0.048538 0.000000 0.000000 0.000000
1.157679 0.206150 0.000188 0.000000 0.000000 0.000000
1.076052 0.251041 -0.048894 0.000000 0.000000 0.000000
1.113731 0.221316 -0.018524 0.000000 0.000000 0.000000
1.097911 0.601290 -0.232628 0.000000 0.000000 0.000000
1.279265 0.436147 -0.235993 0.000000 0.000000 0.000000
1.245488 0.567100 -0.271265 0.000000 0.000000 0.000000
1.293414 0.248526 -0.093308 0.000000 0.000000 0.000000
1.113372 0.212728 -0.006438 0.000000 0.000000 0.000000
1.129372 0.250641 -0.049469 0.000000 0.000000 0.000000
1.172482 0.318911 -0.120150 0.000000 0.000000 0.000000
1.274410 0.343454 -0.162669 0.000000 0.000000 0.000000
1.248961 0.510918 -0.241261 0.000000 0.000000 0.000000
1.104616 0.338642 -0.122954 0.000000 0.000000 0.000000
1.283251 0.236556 -0.077175 0.000000 0.000000 0.000000
1.114256 0.621121 -0.242700 0.000000 0.000000 0.000000
1.247547 0.168550 0.036248 0.000000 0.000000 0.000000
1.249509 0.415981 -0.215479 0.000000 0.000000 0.000000
1.108641 0.231453 -0.026375 0.000000 0.000000 0.000000
1.296615 0.318638 -0.151148 0.000000 0.000000 0.000000
1.265310 0.425142 -0.220851 0.000000 0.000000 0.000000
1.208349 0.173051 0.062703 0.000000 0.000000 0.000000
1.213247 0.171328 0.065145 0.000000 0.000000 0.000000
1.073521 0.255223 -0.051300 0.000000 0.000000 0.000000
1.190104 0.191332 0.013290 0.000000 0.000000 0.000000
1.080554 0.255588 -0.053140 0.000000 0.000000 0.000000
1.297274 0.212720 -0.065991 0.000000 0.000000 0.000000
1.043554 0.443899 -0.181332 0.000000 0.000000 0.000000
1.319182 0.327167 -0.169595 0.000000 0.000000 0.000000
1.294236 0.421478 -0.228712 0.000000 0.000000 0.000000
1.067493 0.356375 -0.131727 0.000000 0.000000 0.000000
1.219732 0.179227 0.046767 0.000000 0.000000 0.000000
1.205484 0.199696 -0.003515 0.000000 0.000000 0.000000
1.148990 0.669590 -0.244865 0.000000 0.000000 0.000000
1.281065 0.441675 -0.239939 0.000000 0.000000 0.000000
1.269392 0.182131 -0.006474 0.000000 0.000000 0.000000
1.178417 0.684265 -0.252996 0.000000 0.000000 0.000000
1.195335 0.394083 -0.182799 0.000000 0.000000 0.000000
1.211902 0.421723 -0.213007 0.000000 0.000000 0.000000
1.129338 0.536637 -0.233951 0.000000 0.000000 0.000000
1.079885 0.409363 -0.167965 0.000000 0.000000 0.000000
1.208789 0.425473 -0.212977 0.000000 0.000000 0.000000
1.076345 0.575145 -0.224197 0.000000 0.000000 0.000000
1.254045 0.405965 -0.196492 0.000000 0.000000 0.000000
1.122546 0.416191 -0.175834 0.000000 0.000000 0.000000
1.158624 0.183662 0.035735 0.000000 0.000000 0.000000
1.273477 0.183888 -0.017898 0.000000 0.000000 0.000000
1.161650 0.672193 -0.251437 0.000000 0.000000 0.000000
1.150993 0.677859 -0.244823 0.000000 0.000000 0.000000
1.130558 0.653528 -0.245513 0.000000 0.000000 0.000000
1.273277 0.474128 -0.250445 0.000000 0.000000 0.000000
1.256220 0.507501 -0.254555 0.000000 0.000000 0.000000
1.203752 0.414718 -0.182035 0.000000 0.000000 0.000000
1.198551 0.587775 -0.259764 0.000000 0.000000 0.000000
1.115434 0.290339 -0.083912 0.000000 0.000000 0.000000
1.108308 0.216935 -0.011166 0.000000 0.000000 0.000000
1.195912 0.580533 -0.261110 0.000000 0.000000 0.000000
1.280811 0.298749 -0.134238 0.000000 0.000000 0.000000
1.069327 0.540069 -0.213172 0.000000 0.000000 0.000000
1.279214 0.399510 -0.208984 0.000000 0.000000 0.000000
1.136090 0.219593 -0.018901 0.000000 0.000000 0.000000
1.292372 0.195608 -0.043648 0.000000 0.000000 0.000000
1.210467 0.449143 -0.219994 0.000000 0.000000 0.000000
1.274788 0.180612 -0.010072 0.000000 0.000000 0.000000
1.188390 0.189312 0.024507 0.000000 0.000000 0.000000
1.051769 0.429571 -0.172183 0.000000 0.000000 0.000000
1.313408 0.362394 -0.193833 0.000000 0.000000 0.000000
1.044752 0.418341 -0.175285 0.000000 0.000000 0.000000
1.046440 0.437935 -0.179865 0.000000 0.000000 0.000000
1.289618 0.453135 -0.239130 0.000000 0.000000 0.000000
1.253817 0.548685 -0.269463 0.000000 0.000000 0.000000
1.047146 0.368351 -0.134085 0.000000 0.000000 0.000000
1.157241 0.199186 0.019982 0.000000 0.000000 0.000000
1.309500 0.360723 -0.190323 0.000000 0.000000 0.000000
1.299388 0.371435 -0.191105 0.000000 0.000000 0.000000
1.228924 0.165048 0.068701 0.000000 0.000000 0.000000
1.258652 0.522568 -0.264365 0.000000 0.000000 0.000000
1.065244 0.413996 -0.169004 0.000000 0.000000 0.000000
1.158206 0.511306 -0.232281 0.000000 0.000000 0.000000
1.222695 0.475031 -0.229204 0.000000 0.000000 0.000000
1.168078 0.428248 -0.193328 0.000000 0.000000 0.000000
1.061390 0.396046 -0.161704 0.000000 0.000000 0.000000
1.105544 0.578230 -0.230602 0.000000 0.000000 0.000000
1.094370 0.577239 -0.231390 0.000000 0.000000 0.000000
1.254274 0.523248 -0.261161 0.000000 0.000000 0.000000
1.281717 0.361740 -0.168291 0.000000 0.000000 0.000000
1.300581 0.379421 -0.199837 0.000000 0.000000 0.000000
1.301518 0.372753 -0.194728 0.000000 0.000000 0.000000
1.265401 0.406589 -0.211806 0.000000 0.000000 0.000000
1.251229 0.481950 -0.244728 0.000000 0.000000 0.000000
1.174523 0.689956 -0.252101 0.000000 0.000000 0.000000
1.064417 0.403880 -0.177099 0.000000 0.000000 0.000000
1.142905 0.401739 -0.168300 0.000000 0.000000 0.000000
1.255836 0.520040 -0.258203 0.000000 0.000000 0.000000
1.266913 0.436698 -0.233306 0.000000 0.000000 0.000000
1.097865 0.570546 -0.229102 0.000000 0.000000 0.000000
1.158393 0.520938 -0.236129 0.000000 0.000000 0.000000
1.258639 0.494506 -0.244581 0.000000 0.000000 0.000000
1.178665 0.410724 -0.193461 0.000000 0.000000 0.000000
1.281046 0.189178 -0.019705 0.000000 0.000000 0.000000
1.251890 0.528338 -0.260239 0.000000 0.000000 0.000000
1.163657 0.198818 0.005927 0.000000 0.000000 0.000000
1.277608 0.375444 -0.190181 0.000000 0.000000 0.000000
1.257275 0.448076 -0.212943 0.000000 0.000000 0.000000
1.290551 0.191608 -0.033630 0.000000 0.000000 0.000000
1.294889 0.199803 -0.048814 0.000000 0.000000 0.000000
1.153412 0.191081 0.025589 0.000000 0.000000 0.000000
1.083161 0.566484 -0.219278 0.000000 0.000000 0.000000
1.108219 0.414419 -0.174086 0.000000 0.000000 0.000000
1.182829 0.682170 -0.267738 0.000000 0.000000 0.000000
1.291285 0.433822 -0.236245 0.000000 0.000000 0.000000
1.317933 0.301319 -0.149183 0.000000 0.000000 0.000000
1.038972 0.346353 -0.127749 0.000000 0.000000 0.000000
1.068118 0.400092 -0.163032 0.000000 0.000000 0.000000
1.189163 0.160750 0.061050 0.000000 0.000000 0.000000
1.303163 0.368405 -0.192214 0.000000 0.000000 0.000000
1.076603 0.566569 -0.224592 0.000000 0.000000 0.000000
1.245018 0.565159 -0.262568 0.000000 0.000000 0.000000
1.255365 0.550564 -0.272711 0.000000 0.000000 0.000000
1.159490 0.603725 -0.258334 0.000000 0.000000 0.000000
1.217752 0.162360 0.063460 0.000000 0.000000 0.000000
1.302626 0.237721 -0.092865 0.000000 0.000000 0.000000
1.254243 0.229900 -0.056705 0.000000 0.000000 0.000000
1.194939 0.224920 -0.037045 0.000000 0.000000 0.000000
1.153421 0.679351 -0.244945 0.000000 0.000000 0.000000
1.215274 0.215719 -0.020786 0.000000 0.000000 0.000000
1.064364 0.329064 -0.111130 0.000000 0.000000 0.000000
1.289733 0.185168 -0.028273 0.000000 0.000000 0.000000
1.131723 0.537354 -0.234575 0.000000 0.000000 0.000000
1.140082 0.671366 -0.244127 0.000000 0.000000 0.000000
1.262882 0.480975 -0.245099 0.000000 0.000000 0.000000
1.135972 0.666772 -0.244197 0.000000 0.000000 0.000000
1.245798 0.157694 0.033494 0.000000 0.000000 0.000000
1.186856 0.185612 0.022264 0.000000 0.000000 0.000000
1.267308 0.207925 -0.027157 0.000000 0.000000 0.000000
1.198655 0.219500 -0.023115 0.000000 0.000000 0.000000
1.207933 0.235115 -0.050709 0.000000 0.000000 0.000000
1.291066 0.222761 -0.074606 0.000000 0.000000 0.000000
1.048924 0.333526 -0.114423 0.000000 0.000000 0.000000
1.260075 0.452713 -0.223057 0.000000 0.000000 0.000000
1.098738 0.228939 -0.032902 0.000000 0.000000 0.000000
1.190441 0.489418 -0.241759 0.000000 0.000000 0.000000
1.116259 0.231808 -0.028292 0.000000 0.000000 0.000000
1.281356 0.475291 -0.254711 0.000000 0.000000 0.000000
1.046760 0.347919 -0.128154 0.000000 0.000000 0.000000
1.254771 0.523127 -0.265273 0.000000 0.000000 0.000000
1.279636 0.433025 -0.229192 0.000000 0.000000 0.000000
1.311623 0.226590 -0.084783 0.000000 0.000000 0.000000
1.071869 0.419315 -0.167931 0.000000 0.000000 0.000000
1.072340 0.239405 -0.038846 0.000000 0.000000 0.000000
1.071125 0.299704 -0.087472 0.000000 0.000000 0.000000
1.243829 0.552830 -0.266096 0.000000 0.000000 0.000000
1.044976 0.349723 -0.128178 0.000000 0.000000 0.000000
1.236175 0.182839 0.023453 0.000000 0.000000 0.000000
1.041293 0.279761 -0.072251 0.000000 0.000000 0.000000
1.314924 0.223824 -0.088983 0.000000 0.000000 0.000000
1.258437 0.525233 -0.260322 0.000000 0.000000 0.000000
1.241167 0.449735 -0.236724 0.000000 0.000000 0.000000
1.133633 0.525007 -0.227570 0.000000 0.000000 0.000000
1.078291 0.238372 -0.042409 0.000000 0.000000 0.000000
1.105468 0.600968 -0.237494 0.000000 0.000000 0.000000
1.088548 0.582010 -0.233455 0.000000 0.000000 0.000000
1.190825 0.386976 -0.178262 0.000000 0.000000 0.000000
1.191702 0.165348 0.056197 0.000000 0.000000 0.000000
1.183745 0.185546 0.031139 0.000000 0.000000 0.000000
1.155943 0.507456 -0.230672 0.000000 0.000000 0.000000
1.205575 0.272128 -0.091124 0.000000 0.000000 0.000000
1.131050 0.527089 -0.225784 0.000000 0.000000 0.000000
1.203102 0.184486 0.033581 0.000000 0.000000 0.000000
1.098735 0.587370 -0.232023 0.000000 0.000000 0.000000
1.168588 0.661067 -0.254523 0.000000 0.000000 0.000000
1.126288 0.640865 -0.242972 0.000000 0.000000 0.000000
1.155601 0.690131 -0.248925 0.000000 0.000000 0.000000
1.300404 0.241747 -0.089322 0.000000 0.000000 0.000000
1.075841 0.243121 -0.044397 0.000000 0.000000 0.000000
1.158655 0.672881 -0.250754 0.000000 0.000000 0.000000
1.033220 0.322363 -0.107731 0.000000 0.000000 0.000000
1.099759 0.480944 -0.197916 0.000000 0.000000 0.000000
1.200923 0.161926 0.064695 0.000000 0.000000 0.000000
1.170780 0.657063 -0.263040 0.000000 0.000000 0.000000
1.174783 0.656319 -0.255495 0.000000 0.000000 0.000000
1.157341 0.620300 -0.257522 0.000000 0.000000 0.000000
1.163988 0.669111 -0.254747 0.000000 0.000000 0.000000
1.164734 0.681933 -0.249867 0.000000 0.000000 0.000000
1.165332 0.638347 -0.258399 0.000000 0.000000 0.000000
1.271826 0.483415 -0.248384 0.000000 0.000000 0.000000
1.220237 0.351745 -0.166510 0.000000 0.000000 0.000000
1.200737 0.263258 -0.080322 0.000000 0.000000 0.000000
1.166713 0.198795 0.000564 0.000000 0.000000 0.000000
1.119123 0.630234 -0.237992 0.000000 0.000000 0.000000
1.266617 0.157134 0.019437 0.000000 0.000000 0.000000
1.126017 0.226268 -0.021699 0.000000 0.000000 0.000000
1.240912 0.167521 0.038403 0.000000 0.000000 0.000000
1.202887 0.476788 -0.232195 0.000000 0.000000 0.000000
1.217122 0.173049 0.057501 0.000000 0.000000 0.000000
1.160663 0.600297 -0.254112 0.000000 0.000000 0.000000
1.150416 0.203552 0.006135 0.000000 0.000000 0.000000
1.187096 0.178420 0.042306 0.000000 0.000000 0.000000
1.081208 0.251103 -0.045340 0.000000 0.000000 0.000000
1.226469 0.181159 0.035973 0.000000 0.000000 0.000000
1.294165 0.389384 -0.206313 0.000000 0.000000 0.000000
1.059988 0.339837 -0.117834 0.000000 0.000000 0.000000
1.206325 0.177389 0.056316 0.000000 0.000000 0.000000
1.167112 0.657396 -0.252650 0.000000 0.000000 0.000000
