ply
format ascii 1.0
comment VCGLIB generated
obj_info Generated by SPFormer!
element vertex 492
property float x
property float y
property float z
property float nx
property float ny
property float nz
end_header
0.732627 0.258938 2.363109 0.000000 0.000000 0.000000
0.720287 0.277901 2.366007 0.000000 0.000000 0.000000
0.729458 0.236472 2.369699 0.000000 0.000000 0.000000
0.731891 0.252483 2.364141 0.000000 0.000000 0.000000
0.722986 0.268644 2.386705 0.000000 0.000000 0.000000
0.728700 0.253907 2.374791 0.000000 0.000000 0.000000
0.731021 0.260331 2.376395 0.000000 0.000000 0.000000
0.277777 0.706346 3.285152 0.000000 0.000000 0.000000
0.279839 0.713397 3.283395 0.000000 0.000000 0.000000
0.713093 0.273928 2.388273 0.000000 0.000000 0.000000
0.727526 0.275626 2.364673 0.000000 0.000000 0.000000
0.725956 0.266094 2.391065 0.000000 0.000000 0.000000
0.735087 0.259966 2.372819 0.000000 0.000000 0.000000
0.727074 0.256385 2.372224 0.000000 0.000000 0.000000
0.733761 0.269977 2.374558 0.000000 0.000000 0.000000
0.731719 0.256319 2.372985 0.000000 0.000000 0.000000
0.721554 0.277693 2.363730 0.000000 0.000000 0.000000
0.727794 0.259033 2.361615 0.000000 0.000000 0.000000
0.734996 0.256481 2.370768 0.000000 0.000000 0.000000
0.731401 0.272148 2.369016 0.000000 0.000000 0.000000
0.723023 0.273540 2.389396 0.000000 0.000000 0.000000
0.727780 0.275443 2.387821 0.000000 0.000000 0.000000
0.728622 0.257951 2.369762 0.000000 0.000000 0.000000
0.735951 0.248783 2.376085 0.000000 0.000000 0.000000
0.733284 0.258178 2.367870 0.000000 0.000000 0.000000
0.731257 0.248038 2.367052 0.000000 0.000000 0.000000
0.726130 0.270493 2.386357 0.000000 0.000000 0.000000
0.731311 0.251028 2.365987 0.000000 0.000000 0.000000
0.734072 0.271775 2.369453 0.000000 0.000000 0.000000
0.275459 0.704328 3.281251 0.000000 0.000000 0.000000
0.730557 0.253961 2.366871 0.000000 0.000000 0.000000
0.725405 0.270199 2.384623 0.000000 0.000000 0.000000
0.725104 0.268056 2.365523 0.000000 0.000000 0.000000
0.722318 0.270335 2.363976 0.000000 0.000000 0.000000
0.733488 0.265729 2.368220 0.000000 0.000000 0.000000
0.734073 0.251918 2.364006 0.000000 0.000000 0.000000
0.726583 0.270245 2.388116 0.000000 0.000000 0.000000
0.725365 0.264065 2.365544 0.000000 0.000000 0.000000
0.277794 0.718711 3.281107 0.000000 0.000000 0.000000
0.724992 0.279522 2.383259 0.000000 0.000000 0.000000
0.727662 0.270170 2.393890 0.000000 0.000000 0.000000
0.723060 0.266201 2.388188 0.000000 0.000000 0.000000
0.722289 0.274928 2.383202 0.000000 0.000000 0.000000
0.735299 0.261312 2.364569 0.000000 0.000000 0.000000
0.728957 0.246847 2.374269 0.000000 0.000000 0.000000
0.728107 0.273096 2.383464 0.000000 0.000000 0.000000
0.737112 0.261928 2.367040 0.000000 0.000000 0.000000
0.727861 0.260740 2.365366 0.000000 0.000000 0.000000
0.731318 0.243044 2.366738 0.000000 0.000000 0.000000
0.725079 0.265467 2.362850 0.000000 0.000000 0.000000
0.730733 0.250235 2.369188 0.000000 0.000000 0.000000
0.731083 0.246599 2.370130 0.000000 0.000000 0.000000
0.730778 0.249731 2.370382 0.000000 0.000000 0.000000
0.732770 0.264128 2.368409 0.000000 0.000000 0.000000
0.732001 0.247422 2.363714 0.000000 0.000000 0.000000
0.729124 0.249236 2.363124 0.000000 0.000000 0.000000
0.726062 0.245179 2.363583 0.000000 0.000000 0.000000
0.727224 0.276454 2.385687 0.000000 0.000000 0.000000
0.733285 0.272319 2.370677 0.000000 0.000000 0.000000
0.728125 0.265681 2.372064 0.000000 0.000000 0.000000
0.729615 0.250939 2.368513 0.000000 0.000000 0.000000
0.270677 0.710990 3.282165 0.000000 0.000000 0.000000
0.730522 0.244216 2.370430 0.000000 0.000000 0.000000
0.730886 0.256104 2.368678 0.000000 0.000000 0.000000
0.730584 0.262889 2.369503 0.000000 0.000000 0.000000
0.728883 0.257812 2.369097 0.000000 0.000000 0.000000
0.729131 0.249424 2.361126 0.000000 0.000000 0.000000
0.728389 0.264572 2.365302 0.000000 0.000000 0.000000
0.729620 0.241696 2.367404 0.000000 0.000000 0.000000
0.732534 0.267571 2.368687 0.000000 0.000000 0.000000
0.729969 0.245740 2.365894 0.000000 0.000000 0.000000
0.732614 0.269465 2.387469 0.000000 0.000000 0.000000
0.716087 0.271855 2.365179 0.000000 0.000000 0.000000
0.727781 0.253822 2.363911 0.000000 0.000000 0.000000
0.721109 0.272218 2.387330 0.000000 0.000000 0.000000
0.724134 0.269137 2.387302 0.000000 0.000000 0.000000
0.726123 0.259845 2.396559 0.000000 0.000000 0.000000
0.719048 0.274577 2.378805 0.000000 0.000000 0.000000
0.730532 0.274980 2.391658 0.000000 0.000000 0.000000
0.731867 0.250287 2.368152 0.000000 0.000000 0.000000
0.724306 0.277733 2.381202 0.000000 0.000000 0.000000
0.274220 0.719565 3.304916 0.000000 0.000000 0.000000
0.276580 0.703995 3.281521 0.000000 0.000000 0.000000
0.279762 0.706104 3.287035 0.000000 0.000000 0.000000
0.257327 0.719110 3.300214 0.000000 0.000000 0.000000
0.276409 0.707641 3.289259 0.000000 0.000000 0.000000
0.275516 0.706556 3.284827 0.000000 0.000000 0.000000
0.728055 0.268464 2.366967 0.000000 0.000000 0.000000
0.724704 0.268797 2.387659 0.000000 0.000000 0.000000
0.730517 0.260429 2.392108 0.000000 0.000000 0.000000
0.725602 0.276350 2.385804 0.000000 0.000000 0.000000
0.725660 0.267352 2.386477 0.000000 0.000000 0.000000
0.727194 0.262051 2.390053 0.000000 0.000000 0.000000
0.727121 0.264725 2.389044 0.000000 0.000000 0.000000
0.733542 0.273031 2.369496 0.000000 0.000000 0.000000
0.733506 0.273466 2.369138 0.000000 0.000000 0.000000
0.728761 0.278497 2.368280 0.000000 0.000000 0.000000
0.732582 0.272497 2.370285 0.000000 0.000000 0.000000
0.727583 0.269839 2.365572 0.000000 0.000000 0.000000
0.723513 0.267542 2.394349 0.000000 0.000000 0.000000
0.737371 0.252741 2.366509 0.000000 0.000000 0.000000
0.731094 0.262937 2.366669 0.000000 0.000000 0.000000
0.736458 0.258070 2.367530 0.000000 0.000000 0.000000
0.730817 0.251111 2.368628 0.000000 0.000000 0.000000
0.731966 0.270643 2.370107 0.000000 0.000000 0.000000
0.727550 0.268136 2.365095 0.000000 0.000000 0.000000
0.733269 0.263120 2.368796 0.000000 0.000000 0.000000
0.220633 0.685596 3.345453 0.000000 0.000000 0.000000
0.227051 0.689496 3.350776 0.000000 0.000000 0.000000
0.191905 0.673790 3.387475 0.000000 0.000000 0.000000
0.230983 0.700547 3.350385 0.000000 0.000000 0.000000
0.223866 0.696984 3.350833 0.000000 0.000000 0.000000
0.243094 0.704922 3.331419 0.000000 0.000000 0.000000
0.235658 0.698154 3.362238 0.000000 0.000000 0.000000
0.234805 0.711854 3.332362 0.000000 0.000000 0.000000
0.270129 0.702112 3.284011 0.000000 0.000000 0.000000
0.213430 0.683060 3.354969 0.000000 0.000000 0.000000
0.220830 0.697977 3.364012 0.000000 0.000000 0.000000
0.221525 0.687612 3.359409 0.000000 0.000000 0.000000
0.211821 0.669791 3.360550 0.000000 0.000000 0.000000
0.233679 0.696679 3.320083 0.000000 0.000000 0.000000
0.214091 0.687158 3.365131 0.000000 0.000000 0.000000
0.217242 0.689022 3.371487 0.000000 0.000000 0.000000
0.235131 0.699548 3.331856 0.000000 0.000000 0.000000
0.220785 0.686906 3.360633 0.000000 0.000000 0.000000
0.224700 0.699506 3.371258 0.000000 0.000000 0.000000
0.195632 0.670989 3.386081 0.000000 0.000000 0.000000
0.234281 0.691948 3.341425 0.000000 0.000000 0.000000
0.227658 0.687522 3.337731 0.000000 0.000000 0.000000
0.197911 0.677353 3.375792 0.000000 0.000000 0.000000
0.257296 0.709929 3.321564 0.000000 0.000000 0.000000
0.240181 0.708488 3.338694 0.000000 0.000000 0.000000
0.206500 0.679432 3.367977 0.000000 0.000000 0.000000
0.199360 0.680223 3.382240 0.000000 0.000000 0.000000
0.238228 0.701610 3.348490 0.000000 0.000000 0.000000
0.238158 0.709019 3.324965 0.000000 0.000000 0.000000
0.207652 0.692857 3.386512 0.000000 0.000000 0.000000
0.262668 0.708702 3.310989 0.000000 0.000000 0.000000
0.213818 0.695640 3.371782 0.000000 0.000000 0.000000
0.241115 0.701109 3.322667 0.000000 0.000000 0.000000
0.277077 0.699880 3.283154 0.000000 0.000000 0.000000
0.191346 0.670820 3.371747 0.000000 0.000000 0.000000
0.265393 0.703225 3.282040 0.000000 0.000000 0.000000
0.238201 0.699156 3.324047 0.000000 0.000000 0.000000
0.249471 0.699634 3.307523 0.000000 0.000000 0.000000
0.204764 0.686859 3.359254 0.000000 0.000000 0.000000
0.220544 0.698922 3.364798 0.000000 0.000000 0.000000
0.233121 0.696291 3.351262 0.000000 0.000000 0.000000
0.228991 0.697485 3.358815 0.000000 0.000000 0.000000
0.239570 0.702434 3.323331 0.000000 0.000000 0.000000
0.217707 0.688509 3.331968 0.000000 0.000000 0.000000
0.223128 0.691393 3.360029 0.000000 0.000000 0.000000
0.258598 0.707148 3.309688 0.000000 0.000000 0.000000
0.252196 0.703902 3.323617 0.000000 0.000000 0.000000
0.264309 0.705434 3.300871 0.000000 0.000000 0.000000
0.249592 0.698593 3.313964 0.000000 0.000000 0.000000
0.263339 0.704071 3.318985 0.000000 0.000000 0.000000
0.255506 0.709266 3.313630 0.000000 0.000000 0.000000
0.201341 0.666131 3.363248 0.000000 0.000000 0.000000
0.235876 0.701886 3.345556 0.000000 0.000000 0.000000
0.270528 0.702900 3.282464 0.000000 0.000000 0.000000
0.199289 0.682192 3.371918 0.000000 0.000000 0.000000
0.254393 0.708347 3.323186 0.000000 0.000000 0.000000
0.212564 0.676445 3.344729 0.000000 0.000000 0.000000
0.200358 0.683663 3.363586 0.000000 0.000000 0.000000
0.201941 0.676081 3.375489 0.000000 0.000000 0.000000
0.205501 0.684474 3.379753 0.000000 0.000000 0.000000
0.239642 0.698175 3.325189 0.000000 0.000000 0.000000
0.222053 0.691583 3.354223 0.000000 0.000000 0.000000
0.251701 0.704505 3.311318 0.000000 0.000000 0.000000
0.232241 0.692004 3.327827 0.000000 0.000000 0.000000
0.203563 0.678265 3.352147 0.000000 0.000000 0.000000
0.262519 0.707645 3.308800 0.000000 0.000000 0.000000
0.221272 0.696877 3.369939 0.000000 0.000000 0.000000
0.266387 0.700842 3.297980 0.000000 0.000000 0.000000
0.248087 0.707781 3.309693 0.000000 0.000000 0.000000
0.252913 0.708145 3.317866 0.000000 0.000000 0.000000
0.252270 0.706073 3.330317 0.000000 0.000000 0.000000
0.230500 0.690443 3.335384 0.000000 0.000000 0.000000
0.234336 0.693810 3.323080 0.000000 0.000000 0.000000
0.236125 0.699105 3.337551 0.000000 0.000000 0.000000
0.248789 0.707347 3.317565 0.000000 0.000000 0.000000
0.230845 0.699008 3.354290 0.000000 0.000000 0.000000
0.252067 0.707699 3.326860 0.000000 0.000000 0.000000
0.238831 0.705274 3.333821 0.000000 0.000000 0.000000
0.243827 0.707096 3.318657 0.000000 0.000000 0.000000
0.222464 0.690246 3.364217 0.000000 0.000000 0.000000
0.219973 0.699120 3.374981 0.000000 0.000000 0.000000
0.208934 0.685908 3.366135 0.000000 0.000000 0.000000
0.194242 0.683993 3.381834 0.000000 0.000000 0.000000
0.223115 0.695997 3.357046 0.000000 0.000000 0.000000
0.208798 0.685278 3.365588 0.000000 0.000000 0.000000
0.205694 0.678131 3.354271 0.000000 0.000000 0.000000
0.260625 0.700446 3.293462 0.000000 0.000000 0.000000
0.266957 0.703430 3.285901 0.000000 0.000000 0.000000
0.224446 0.707679 3.360035 0.000000 0.000000 0.000000
0.233461 0.698297 3.344368 0.000000 0.000000 0.000000
0.233816 0.702507 3.358622 0.000000 0.000000 0.000000
0.243353 0.692463 3.322966 0.000000 0.000000 0.000000
0.234152 0.695822 3.324635 0.000000 0.000000 0.000000
0.248566 0.710735 3.331134 0.000000 0.000000 0.000000
0.214442 0.680357 3.343766 0.000000 0.000000 0.000000
0.233565 0.694342 3.323886 0.000000 0.000000 0.000000
0.215056 0.677572 3.348760 0.000000 0.000000 0.000000
0.234403 0.705205 3.325459 0.000000 0.000000 0.000000
0.230957 0.691187 3.324401 0.000000 0.000000 0.000000
0.265654 0.700628 3.295477 0.000000 0.000000 0.000000
0.230286 0.695139 3.329389 0.000000 0.000000 0.000000
0.219160 0.686604 3.331491 0.000000 0.000000 0.000000
0.243766 0.711527 3.351632 0.000000 0.000000 0.000000
0.262646 0.701905 3.295765 0.000000 0.000000 0.000000
0.241937 0.697559 3.318081 0.000000 0.000000 0.000000
0.234840 0.688665 3.333390 0.000000 0.000000 0.000000
0.245997 0.713922 3.347090 0.000000 0.000000 0.000000
0.236882 0.697883 3.345686 0.000000 0.000000 0.000000
0.267324 0.706906 3.282240 0.000000 0.000000 0.000000
0.201313 0.672132 3.368822 0.000000 0.000000 0.000000
0.226603 0.690700 3.334788 0.000000 0.000000 0.000000
0.204369 0.681362 3.378548 0.000000 0.000000 0.000000
0.195578 0.676200 3.373412 0.000000 0.000000 0.000000
0.206202 0.683837 3.377336 0.000000 0.000000 0.000000
0.210436 0.687550 3.354763 0.000000 0.000000 0.000000
0.234568 0.703873 3.341625 0.000000 0.000000 0.000000
0.205353 0.693614 3.362751 0.000000 0.000000 0.000000
0.195331 0.676292 3.367471 0.000000 0.000000 0.000000
0.205801 0.671808 3.353687 0.000000 0.000000 0.000000
0.234424 0.704816 3.351416 0.000000 0.000000 0.000000
0.218753 0.686111 3.364898 0.000000 0.000000 0.000000
0.228690 0.688477 3.346347 0.000000 0.000000 0.000000
0.208011 0.682583 3.375140 0.000000 0.000000 0.000000
0.214369 0.700277 3.386147 0.000000 0.000000 0.000000
0.207282 0.698255 3.374236 0.000000 0.000000 0.000000
0.222292 0.684914 3.344012 0.000000 0.000000 0.000000
0.234107 0.695891 3.350412 0.000000 0.000000 0.000000
0.202105 0.676014 3.361334 0.000000 0.000000 0.000000
0.231282 0.693710 3.352238 0.000000 0.000000 0.000000
0.198725 0.672210 3.376192 0.000000 0.000000 0.000000
0.249287 0.704139 3.312562 0.000000 0.000000 0.000000
0.241999 0.699807 3.352848 0.000000 0.000000 0.000000
0.222871 0.691360 3.350203 0.000000 0.000000 0.000000
0.222000 0.684663 3.337764 0.000000 0.000000 0.000000
0.247182 0.706131 3.316077 0.000000 0.000000 0.000000
0.215367 0.686276 3.349440 0.000000 0.000000 0.000000
0.217650 0.683013 3.338478 0.000000 0.000000 0.000000
0.236719 0.687312 3.323782 0.000000 0.000000 0.000000
0.261518 0.705909 3.304222 0.000000 0.000000 0.000000
0.250683 0.700970 3.301408 0.000000 0.000000 0.000000
0.244320 0.698041 3.307765 0.000000 0.000000 0.000000
0.247965 0.708875 3.314886 0.000000 0.000000 0.000000
0.237516 0.703662 3.321907 0.000000 0.000000 0.000000
0.249025 0.700091 3.313392 0.000000 0.000000 0.000000
0.265253 0.707459 3.293339 0.000000 0.000000 0.000000
0.225806 0.687506 3.351762 0.000000 0.000000 0.000000
0.220812 0.686684 3.356512 0.000000 0.000000 0.000000
0.263321 0.706188 3.302428 0.000000 0.000000 0.000000
0.222237 0.687511 3.356645 0.000000 0.000000 0.000000
0.255938 0.704500 3.306699 0.000000 0.000000 0.000000
0.224611 0.690117 3.353536 0.000000 0.000000 0.000000
0.225370 0.684641 3.343730 0.000000 0.000000 0.000000
0.248551 0.706061 3.335365 0.000000 0.000000 0.000000
0.253765 0.707908 3.315547 0.000000 0.000000 0.000000
0.245765 0.699397 3.322994 0.000000 0.000000 0.000000
0.227240 0.704406 3.373145 0.000000 0.000000 0.000000
0.198012 0.674562 3.379360 0.000000 0.000000 0.000000
0.267406 0.701879 3.291783 0.000000 0.000000 0.000000
0.231009 0.691720 3.334098 0.000000 0.000000 0.000000
0.260533 0.702785 3.287765 0.000000 0.000000 0.000000
0.198349 0.676319 3.370368 0.000000 0.000000 0.000000
0.265311 0.711344 3.298763 0.000000 0.000000 0.000000
0.205335 0.676509 3.364792 0.000000 0.000000 0.000000
0.199772 0.677410 3.372229 0.000000 0.000000 0.000000
0.246674 0.703388 3.328019 0.000000 0.000000 0.000000
0.217294 0.681467 3.343301 0.000000 0.000000 0.000000
0.235324 0.690924 3.325542 0.000000 0.000000 0.000000
0.206669 0.678231 3.346601 0.000000 0.000000 0.000000
0.219053 0.675244 3.337819 0.000000 0.000000 0.000000
0.206244 0.678687 3.352734 0.000000 0.000000 0.000000
0.222796 0.683907 3.335991 0.000000 0.000000 0.000000
0.211707 0.686170 3.375696 0.000000 0.000000 0.000000
0.225180 0.702936 3.359516 0.000000 0.000000 0.000000
0.234029 0.688555 3.329849 0.000000 0.000000 0.000000
0.233937 0.704109 3.358704 0.000000 0.000000 0.000000
0.230015 0.704545 3.367748 0.000000 0.000000 0.000000
0.221060 0.704006 3.375081 0.000000 0.000000 0.000000
0.227669 0.693699 3.353079 0.000000 0.000000 0.000000
0.239754 0.710548 3.359314 0.000000 0.000000 0.000000
0.233703 0.714988 3.360947 0.000000 0.000000 0.000000
0.238832 0.699264 3.350168 0.000000 0.000000 0.000000
0.242482 0.697942 3.331814 0.000000 0.000000 0.000000
0.226469 0.693317 3.360322 0.000000 0.000000 0.000000
0.213980 0.676394 3.344111 0.000000 0.000000 0.000000
0.206704 0.684252 3.354488 0.000000 0.000000 0.000000
0.271975 0.697183 3.311528 0.000000 0.000000 0.000000
0.209333 0.676338 3.358430 0.000000 0.000000 0.000000
0.205198 0.678335 3.355527 0.000000 0.000000 0.000000
0.207964 0.677168 3.353990 0.000000 0.000000 0.000000
0.205384 0.677728 3.357282 0.000000 0.000000 0.000000
0.202699 0.676588 3.359573 0.000000 0.000000 0.000000
0.204586 0.677498 3.355427 0.000000 0.000000 0.000000
0.195797 0.672662 3.374399 0.000000 0.000000 0.000000
0.269339 0.703975 3.296132 0.000000 0.000000 0.000000
0.231210 0.690297 3.339481 0.000000 0.000000 0.000000
0.208050 0.676540 3.352511 0.000000 0.000000 0.000000
0.195682 0.671445 3.373856 0.000000 0.000000 0.000000
0.227331 0.688972 3.348948 0.000000 0.000000 0.000000
0.201978 0.679960 3.358743 0.000000 0.000000 0.000000
0.202335 0.682961 3.384144 0.000000 0.000000 0.000000
0.219136 0.687009 3.364666 0.000000 0.000000 0.000000
0.231239 0.697161 3.350321 0.000000 0.000000 0.000000
0.210229 0.670692 3.354005 0.000000 0.000000 0.000000
0.219123 0.694442 3.378798 0.000000 0.000000 0.000000
0.194807 0.672343 3.368303 0.000000 0.000000 0.000000
0.206454 0.683772 3.379517 0.000000 0.000000 0.000000
0.210235 0.689126 3.379589 0.000000 0.000000 0.000000
0.236215 0.694953 3.322545 0.000000 0.000000 0.000000
0.258407 0.703707 3.306190 0.000000 0.000000 0.000000
0.201289 0.671164 3.361986 0.000000 0.000000 0.000000
0.209458 0.678058 3.346307 0.000000 0.000000 0.000000
0.210289 0.677992 3.353466 0.000000 0.000000 0.000000
0.200406 0.670069 3.355457 0.000000 0.000000 0.000000
0.205154 0.673468 3.359496 0.000000 0.000000 0.000000
0.191512 0.673959 3.382873 0.000000 0.000000 0.000000
0.201457 0.680540 3.383634 0.000000 0.000000 0.000000
0.220387 0.698378 3.377216 0.000000 0.000000 0.000000
0.212353 0.676333 3.339675 0.000000 0.000000 0.000000
0.195284 0.671906 3.379446 0.000000 0.000000 0.000000
0.234408 0.692436 3.320928 0.000000 0.000000 0.000000
0.199842 0.671903 3.385933 0.000000 0.000000 0.000000
0.255324 0.708416 3.325617 0.000000 0.000000 0.000000
0.241477 0.709587 3.340332 0.000000 0.000000 0.000000
0.256381 0.704036 3.308290 0.000000 0.000000 0.000000
0.198399 0.668031 3.371795 0.000000 0.000000 0.000000
0.243178 0.711300 3.336585 0.000000 0.000000 0.000000
0.231020 0.701476 3.374137 0.000000 0.000000 0.000000
0.225904 0.702548 3.372042 0.000000 0.000000 0.000000
0.241730 0.711403 3.330513 0.000000 0.000000 0.000000
0.197970 0.665413 3.360452 0.000000 0.000000 0.000000
0.244230 0.710956 3.322171 0.000000 0.000000 0.000000
0.239772 0.697503 3.339681 0.000000 0.000000 0.000000
0.211342 0.681852 3.335567 0.000000 0.000000 0.000000
0.212042 0.685695 3.374734 0.000000 0.000000 0.000000
0.267732 0.697422 3.307886 0.000000 0.000000 0.000000
0.276836 0.697504 3.308097 0.000000 0.000000 0.000000
0.261489 0.703939 3.301799 0.000000 0.000000 0.000000
0.199429 0.677200 3.352356 0.000000 0.000000 0.000000
0.257384 0.707445 3.295798 0.000000 0.000000 0.000000
0.215981 0.684508 3.328520 0.000000 0.000000 0.000000
0.221801 0.692360 3.376767 0.000000 0.000000 0.000000
0.257420 0.706383 3.309338 0.000000 0.000000 0.000000
0.242036 0.710410 3.353952 0.000000 0.000000 0.000000
0.256116 0.708366 3.329201 0.000000 0.000000 0.000000
0.257501 0.711062 3.314684 0.000000 0.000000 0.000000
0.246788 0.714014 3.348808 0.000000 0.000000 0.000000
0.255476 0.710853 3.333756 0.000000 0.000000 0.000000
0.251322 0.714381 3.338534 0.000000 0.000000 0.000000
0.204680 0.685599 3.379292 0.000000 0.000000 0.000000
0.200046 0.678606 3.382107 0.000000 0.000000 0.000000
0.208746 0.687745 3.380414 0.000000 0.000000 0.000000
0.260117 0.709173 3.316135 0.000000 0.000000 0.000000
0.208776 0.684752 3.378441 0.000000 0.000000 0.000000
0.226169 0.692027 3.365434 0.000000 0.000000 0.000000
0.268732 0.701901 3.286556 0.000000 0.000000 0.000000
0.268169 0.703219 3.283367 0.000000 0.000000 0.000000
0.255990 0.703123 3.301093 0.000000 0.000000 0.000000
0.260138 0.699083 3.294724 0.000000 0.000000 0.000000
0.258108 0.699383 3.303837 0.000000 0.000000 0.000000
0.215175 0.678782 3.340409 0.000000 0.000000 0.000000
0.204647 0.673424 3.352456 0.000000 0.000000 0.000000
0.263244 0.701358 3.296780 0.000000 0.000000 0.000000
0.219908 0.682328 3.343632 0.000000 0.000000 0.000000
0.202388 0.673099 3.344654 0.000000 0.000000 0.000000
0.209609 0.686429 3.378019 0.000000 0.000000 0.000000
0.249051 0.699665 3.307342 0.000000 0.000000 0.000000
0.253305 0.698941 3.307118 0.000000 0.000000 0.000000
0.209230 0.685775 3.380561 0.000000 0.000000 0.000000
0.268361 0.702545 3.292494 0.000000 0.000000 0.000000
0.270282 0.704984 3.281895 0.000000 0.000000 0.000000
0.201481 0.688610 3.374225 0.000000 0.000000 0.000000
0.270737 0.702189 3.283830 0.000000 0.000000 0.000000
0.207165 0.689713 3.378381 0.000000 0.000000 0.000000
0.266573 0.704147 3.295299 0.000000 0.000000 0.000000
0.272999 0.698047 3.285026 0.000000 0.000000 0.000000
0.273846 0.700941 3.292209 0.000000 0.000000 0.000000
0.264860 0.706155 3.291705 0.000000 0.000000 0.000000
0.267926 0.703621 3.299226 0.000000 0.000000 0.000000
0.270882 0.702289 3.287750 0.000000 0.000000 0.000000
0.267440 0.703990 3.290788 0.000000 0.000000 0.000000
0.266550 0.704800 3.285053 0.000000 0.000000 0.000000
0.223648 0.694127 3.370618 0.000000 0.000000 0.000000
0.226066 0.691972 3.360157 0.000000 0.000000 0.000000
0.228228 0.697440 3.365701 0.000000 0.000000 0.000000
0.234136 0.708793 3.367087 0.000000 0.000000 0.000000
0.244026 0.714250 3.357386 0.000000 0.000000 0.000000
0.232972 0.705729 3.369135 0.000000 0.000000 0.000000
0.218614 0.695289 3.371123 0.000000 0.000000 0.000000
0.231490 0.708544 3.370517 0.000000 0.000000 0.000000
0.242813 0.705023 3.361177 0.000000 0.000000 0.000000
0.208182 0.685050 3.368616 0.000000 0.000000 0.000000
0.232050 0.695853 3.362036 0.000000 0.000000 0.000000
0.195897 0.676720 3.383447 0.000000 0.000000 0.000000
0.220109 0.683398 3.336193 0.000000 0.000000 0.000000
0.197565 0.660184 3.371485 0.000000 0.000000 0.000000
0.219205 0.683871 3.335424 0.000000 0.000000 0.000000
0.193141 0.664789 3.379333 0.000000 0.000000 0.000000
0.212996 0.677060 3.345389 0.000000 0.000000 0.000000
0.265915 0.697584 3.296442 0.000000 0.000000 0.000000
0.259897 0.708832 3.292446 0.000000 0.000000 0.000000
0.259289 0.702245 3.291838 0.000000 0.000000 0.000000
0.264081 0.701163 3.293655 0.000000 0.000000 0.000000
0.265138 0.703438 3.294787 0.000000 0.000000 0.000000
0.266575 0.702491 3.293145 0.000000 0.000000 0.000000
0.250570 0.706061 3.307039 0.000000 0.000000 0.000000
0.243598 0.704198 3.347516 0.000000 0.000000 0.000000
0.249432 0.702822 3.309035 0.000000 0.000000 0.000000
0.240436 0.719590 3.355842 0.000000 0.000000 0.000000
0.235170 0.701590 3.340361 0.000000 0.000000 0.000000
0.248074 0.697960 3.306122 0.000000 0.000000 0.000000
0.238299 0.696114 3.318649 0.000000 0.000000 0.000000
0.237979 0.695598 3.312848 0.000000 0.000000 0.000000
0.234276 0.701757 3.322963 0.000000 0.000000 0.000000
0.244430 0.702398 3.314318 0.000000 0.000000 0.000000
0.239932 0.698190 3.317918 0.000000 0.000000 0.000000
0.232940 0.695786 3.324763 0.000000 0.000000 0.000000
0.247541 0.717923 3.329510 0.000000 0.000000 0.000000
0.223335 0.685144 3.331504 0.000000 0.000000 0.000000
0.246368 0.697952 3.312361 0.000000 0.000000 0.000000
0.251346 0.711004 3.338202 0.000000 0.000000 0.000000
0.248906 0.714695 3.342595 0.000000 0.000000 0.000000
0.250636 0.710920 3.345989 0.000000 0.000000 0.000000
0.241909 0.698148 3.317565 0.000000 0.000000 0.000000
0.239214 0.699252 3.320279 0.000000 0.000000 0.000000
0.234730 0.693008 3.320580 0.000000 0.000000 0.000000
0.238218 0.692638 3.328886 0.000000 0.000000 0.000000
0.257744 0.701338 3.298846 0.000000 0.000000 0.000000
0.245286 0.713899 3.341524 0.000000 0.000000 0.000000
0.247522 0.709285 3.339025 0.000000 0.000000 0.000000
0.251848 0.706029 3.343090 0.000000 0.000000 0.000000
0.246410 0.694779 3.309875 0.000000 0.000000 0.000000
0.242233 0.698236 3.315334 0.000000 0.000000 0.000000
0.251956 0.702079 3.305711 0.000000 0.000000 0.000000
0.229818 0.691483 3.326655 0.000000 0.000000 0.000000
0.215871 0.698447 3.377872 0.000000 0.000000 0.000000
0.226282 0.680862 3.331698 0.000000 0.000000 0.000000
0.217571 0.689765 3.376320 0.000000 0.000000 0.000000
0.235154 0.707615 3.367459 0.000000 0.000000 0.000000
0.224266 0.695953 3.378961 0.000000 0.000000 0.000000
0.229914 0.700101 3.375450 0.000000 0.000000 0.000000
0.254961 0.705044 3.302568 0.000000 0.000000 0.000000
0.243224 0.697756 3.311772 0.000000 0.000000 0.000000
0.253345 0.704529 3.312122 0.000000 0.000000 0.000000
0.236859 0.695010 3.320467 0.000000 0.000000 0.000000
0.221463 0.702041 3.377525 0.000000 0.000000 0.000000
0.230589 0.677392 3.333102 0.000000 0.000000 0.000000
0.215969 0.697073 3.381667 0.000000 0.000000 0.000000
0.224748 0.701980 3.372276 0.000000 0.000000 0.000000
0.213704 0.687757 3.382722 0.000000 0.000000 0.000000
0.223137 0.708057 3.380771 0.000000 0.000000 0.000000
0.251890 0.699061 3.304815 0.000000 0.000000 0.000000
0.244683 0.692030 3.316551 0.000000 0.000000 0.000000
0.258738 0.707990 3.307821 0.000000 0.000000 0.000000
0.254474 0.705683 3.306809 0.000000 0.000000 0.000000
0.251824 0.701297 3.310645 0.000000 0.000000 0.000000
0.259834 0.712957 3.309588 0.000000 0.000000 0.000000
0.207401 0.675502 3.348865 0.000000 0.000000 0.000000
0.239433 0.711819 3.362817 0.000000 0.000000 0.000000
0.236320 0.698010 3.333994 0.000000 0.000000 0.000000
0.217582 0.674230 3.343908 0.000000 0.000000 0.000000
0.230590 0.688497 3.320775 0.000000 0.000000 0.000000
0.248291 0.715587 3.348626 0.000000 0.000000 0.000000
0.232109 0.705909 3.363836 0.000000 0.000000 0.000000
0.237785 0.709680 3.365540 0.000000 0.000000 0.000000
0.247396 0.704853 3.326040 0.000000 0.000000 0.000000
0.222863 0.674730 3.338697 0.000000 0.000000 0.000000
0.224123 0.684951 3.325938 0.000000 0.000000 0.000000
0.250909 0.710426 3.332355 0.000000 0.000000 0.000000
0.243649 0.710836 3.359461 0.000000 0.000000 0.000000
0.264906 0.705264 3.299717 0.000000 0.000000 0.000000
0.259843 0.701047 3.303354 0.000000 0.000000 0.000000
0.262214 0.702530 3.298313 0.000000 0.000000 0.000000
0.265338 0.703717 3.295812 0.000000 0.000000 0.000000
0.265161 0.704938 3.292215 0.000000 0.000000 0.000000
0.262481 0.702544 3.285434 0.000000 0.000000 0.000000
0.265266 0.694482 3.299080 0.000000 0.000000 0.000000
0.261352 0.703539 3.299796 0.000000 0.000000 0.000000
0.265994 0.704613 3.293685 0.000000 0.000000 0.000000
0.255075 0.703934 3.305506 0.000000 0.000000 0.000000
0.265189 0.699908 3.292903 0.000000 0.000000 0.000000
0.260242 0.701066 3.297121 0.000000 0.000000 0.000000
0.256627 0.712659 3.312647 0.000000 0.000000 0.000000
0.253979 0.695482 3.307531 0.000000 0.000000 0.000000
0.267746 0.702779 3.287379 0.000000 0.000000 0.000000
0.198849 0.679041 3.373257 0.000000 0.000000 0.000000
