ply
format ascii 1.0
comment VCGLIB generated
obj_info Generated by SPFormer!
element vertex 868
property float x
property float y
property float z
property float nx
property float ny
property float nz
end_header
0.672923 -0.161530 1.390585 0.000000 0.000000 0.000000
0.945618 -0.216102 1.043209 0.000000 0.000000 0.000000
0.653662 -0.164996 1.470445 0.000000 0.000000 0.000000
0.650245 -0.163611 1.472545 0.000000 0.000000 0.000000
0.665177 -0.166192 1.416385 0.000000 0.000000 0.000000
0.643081 -0.141481 1.449305 0.000000 0.000000 0.000000
0.691686 -0.270303 1.370714 0.000000 0.000000 0.000000
0.916655 -0.153246 1.048478 0.000000 0.000000 0.000000
0.727488 -0.279331 1.338293 0.000000 0.000000 0.000000
0.754434 -0.059085 1.264886 0.000000 0.000000 0.000000
0.757764 -0.061508 1.254141 0.000000 0.000000 0.000000
0.964329 -0.306883 1.087169 0.000000 0.000000 0.000000
0.733752 -0.052430 1.276539 0.000000 0.000000 0.000000
0.953307 -0.315462 1.105950 0.000000 0.000000 0.000000
0.927822 -0.299677 1.095059 0.000000 0.000000 0.000000
0.910728 -0.325374 1.136315 0.000000 0.000000 0.000000
0.672556 -0.193115 1.456867 0.000000 0.000000 0.000000
0.894030 -0.330878 1.137193 0.000000 0.000000 0.000000
0.744139 -0.063098 1.262296 0.000000 0.000000 0.000000
0.895065 -0.280873 1.139876 0.000000 0.000000 0.000000
0.765283 -0.053409 1.251222 0.000000 0.000000 0.000000
0.958048 -0.323387 1.099159 0.000000 0.000000 0.000000
0.945460 -0.311955 1.091836 0.000000 0.000000 0.000000
0.785567 -0.092150 1.247769 0.000000 0.000000 0.000000
0.939403 -0.337205 1.119735 0.000000 0.000000 0.000000
0.751687 -0.049470 1.265879 0.000000 0.000000 0.000000
0.695886 -0.054683 1.348793 0.000000 0.000000 0.000000
0.664828 -0.081068 1.395490 0.000000 0.000000 0.000000
0.944440 -0.251367 1.065095 0.000000 0.000000 0.000000
0.699251 -0.106374 1.323807 0.000000 0.000000 0.000000
0.646278 -0.149507 1.452129 0.000000 0.000000 0.000000
0.695698 -0.058816 1.358660 0.000000 0.000000 0.000000
0.803807 -0.217523 1.186681 0.000000 0.000000 0.000000
0.955068 -0.245192 1.056105 0.000000 0.000000 0.000000
0.698172 -0.056354 1.348760 0.000000 0.000000 0.000000
0.929074 -0.166574 1.042034 0.000000 0.000000 0.000000
0.690800 -0.066820 1.360666 0.000000 0.000000 0.000000
0.698862 -0.064397 1.333663 0.000000 0.000000 0.000000
0.954680 -0.329460 1.108251 0.000000 0.000000 0.000000
0.656221 -0.134682 1.429373 0.000000 0.000000 0.000000
0.799582 -0.248185 1.205009 0.000000 0.000000 0.000000
0.657585 -0.098783 1.402774 0.000000 0.000000 0.000000
0.689462 -0.274859 1.372979 0.000000 0.000000 0.000000
0.706558 -0.057797 1.323530 0.000000 0.000000 0.000000
0.825108 -0.074896 1.190269 0.000000 0.000000 0.000000
0.740142 -0.309712 1.320513 0.000000 0.000000 0.000000
0.925242 -0.160359 1.043071 0.000000 0.000000 0.000000
0.722860 -0.044278 1.285085 0.000000 0.000000 0.000000
0.750637 -0.307633 1.313564 0.000000 0.000000 0.000000
0.766041 -0.314544 1.308050 0.000000 0.000000 0.000000
0.682041 -0.202435 1.443036 0.000000 0.000000 0.000000
0.841095 -0.087420 1.166978 0.000000 0.000000 0.000000
0.846132 -0.076655 1.146028 0.000000 0.000000 0.000000
0.924900 -0.161732 1.047576 0.000000 0.000000 0.000000
0.762213 -0.206127 1.233661 0.000000 0.000000 0.000000
0.847466 -0.077265 1.139193 0.000000 0.000000 0.000000
0.673435 -0.191473 1.461750 0.000000 0.000000 0.000000
0.923121 -0.164457 1.045199 0.000000 0.000000 0.000000
0.700736 -0.059042 1.342209 0.000000 0.000000 0.000000
0.637338 -0.112442 1.444692 0.000000 0.000000 0.000000
0.636164 -0.102047 1.445527 0.000000 0.000000 0.000000
0.664162 -0.079267 1.398578 0.000000 0.000000 0.000000
0.942935 -0.213388 1.047359 0.000000 0.000000 0.000000
0.901959 -0.129258 1.070728 0.000000 0.000000 0.000000
0.942317 -0.206342 1.046889 0.000000 0.000000 0.000000
0.680561 -0.199625 1.440678 0.000000 0.000000 0.000000
0.908532 -0.134269 1.054205 0.000000 0.000000 0.000000
0.637454 -0.106760 1.443946 0.000000 0.000000 0.000000
0.673942 -0.076857 1.387612 0.000000 0.000000 0.000000
0.912977 -0.146508 1.068451 0.000000 0.000000 0.000000
0.926369 -0.163190 1.052941 0.000000 0.000000 0.000000
0.877932 -0.093666 1.088534 0.000000 0.000000 0.000000
0.969490 -0.312682 1.087698 0.000000 0.000000 0.000000
0.953537 -0.245771 1.055050 0.000000 0.000000 0.000000
0.935145 -0.196320 1.041374 0.000000 0.000000 0.000000
0.932806 -0.197627 1.056880 0.000000 0.000000 0.000000
0.815441 -0.202534 1.166762 0.000000 0.000000 0.000000
0.631310 -0.104183 1.456185 0.000000 0.000000 0.000000
0.874334 -0.089690 1.088477 0.000000 0.000000 0.000000
0.953683 -0.230725 1.049280 0.000000 0.000000 0.000000
0.869962 -0.086743 1.097883 0.000000 0.000000 0.000000
0.946955 -0.230766 1.053578 0.000000 0.000000 0.000000
0.869167 -0.088581 1.096449 0.000000 0.000000 0.000000
0.956871 -0.335873 1.105865 0.000000 0.000000 0.000000
0.950489 -0.235280 1.051129 0.000000 0.000000 0.000000
0.940506 -0.199753 1.043030 0.000000 0.000000 0.000000
0.869805 -0.076329 1.107563 0.000000 0.000000 0.000000
0.881545 -0.098335 1.089248 0.000000 0.000000 0.000000
0.968712 -0.310144 1.088040 0.000000 0.000000 0.000000
0.942923 -0.220482 1.049309 0.000000 0.000000 0.000000
0.872311 -0.088329 1.093698 0.000000 0.000000 0.000000
0.697110 -0.286944 1.348425 0.000000 0.000000 0.000000
0.883136 -0.104893 1.075648 0.000000 0.000000 0.000000
0.873113 -0.107882 1.086490 0.000000 0.000000 0.000000
0.778278 -0.064158 1.230192 0.000000 0.000000 0.000000
0.945499 -0.244296 1.055968 0.000000 0.000000 0.000000
0.945055 -0.218092 1.050427 0.000000 0.000000 0.000000
0.800140 -0.095339 1.185257 0.000000 0.000000 0.000000
0.961088 -0.248816 1.050779 0.000000 0.000000 0.000000
0.719333 -0.296357 1.325907 0.000000 0.000000 0.000000
0.876002 -0.095536 1.089714 0.000000 0.000000 0.000000
0.716701 -0.053880 1.289689 0.000000 0.000000 0.000000
0.720463 -0.300461 1.327716 0.000000 0.000000 0.000000
0.708024 -0.292471 1.332363 0.000000 0.000000 0.000000
0.714824 -0.300996 1.331161 0.000000 0.000000 0.000000
0.693380 -0.260316 1.369399 0.000000 0.000000 0.000000
0.934721 -0.209255 1.051440 0.000000 0.000000 0.000000
0.692578 -0.271722 1.368299 0.000000 0.000000 0.000000
0.669097 -0.087676 1.393488 0.000000 0.000000 0.000000
0.695880 -0.061051 1.360590 0.000000 0.000000 0.000000
0.674596 -0.190840 1.444669 0.000000 0.000000 0.000000
0.904168 -0.139363 1.077518 0.000000 0.000000 0.000000
0.720067 -0.291949 1.321458 0.000000 0.000000 0.000000
0.887770 -0.101319 1.068921 0.000000 0.000000 0.000000
0.692407 -0.267934 1.370148 0.000000 0.000000 0.000000
0.690561 -0.264960 1.377989 0.000000 0.000000 0.000000
0.904633 -0.153019 1.058292 0.000000 0.000000 0.000000
0.688797 -0.192599 1.436406 0.000000 0.000000 0.000000
0.725380 -0.299293 1.322450 0.000000 0.000000 0.000000
0.901353 -0.129851 1.057768 0.000000 0.000000 0.000000
0.740128 -0.047872 1.274115 0.000000 0.000000 0.000000
0.690689 -0.235313 1.415357 0.000000 0.000000 0.000000
0.750696 -0.047818 1.267636 0.000000 0.000000 0.000000
0.797763 -0.067843 1.217978 0.000000 0.000000 0.000000
0.858480 -0.071897 1.119554 0.000000 0.000000 0.000000
0.755099 -0.050488 1.259951 0.000000 0.000000 0.000000
0.686486 -0.241973 1.408823 0.000000 0.000000 0.000000
0.959899 -0.249368 1.050421 0.000000 0.000000 0.000000
0.687652 -0.232343 1.401327 0.000000 0.000000 0.000000
0.687226 -0.224828 1.407856 0.000000 0.000000 0.000000
0.691011 -0.242438 1.404108 0.000000 0.000000 0.000000
0.748035 -0.055049 1.264177 0.000000 0.000000 0.000000
0.834188 -0.193269 1.140915 0.000000 0.000000 0.000000
0.834169 -0.269965 1.181942 0.000000 0.000000 0.000000
0.690190 -0.224262 1.420855 0.000000 0.000000 0.000000
0.847174 -0.247728 1.151640 0.000000 0.000000 0.000000
0.674745 -0.181558 1.464175 0.000000 0.000000 0.000000
0.765611 -0.051910 1.253701 0.000000 0.000000 0.000000
0.686643 -0.229559 1.414867 0.000000 0.000000 0.000000
0.663107 -0.180346 1.467858 0.000000 0.000000 0.000000
0.686643 -0.238864 1.412834 0.000000 0.000000 0.000000
0.689381 -0.229507 1.410874 0.000000 0.000000 0.000000
0.756139 -0.052038 1.263437 0.000000 0.000000 0.000000
0.837087 -0.248154 1.163122 0.000000 0.000000 0.000000
0.878657 -0.254851 1.137602 0.000000 0.000000 0.000000
0.840224 -0.231151 1.158359 0.000000 0.000000 0.000000
0.682778 -0.208415 1.438589 0.000000 0.000000 0.000000
0.712784 -0.302258 1.333929 0.000000 0.000000 0.000000
0.765414 -0.052274 1.252702 0.000000 0.000000 0.000000
0.688872 -0.243567 1.406214 0.000000 0.000000 0.000000
0.745772 -0.116133 1.247224 0.000000 0.000000 0.000000
0.673068 -0.189968 1.447311 0.000000 0.000000 0.000000
0.703332 -0.061399 1.332990 0.000000 0.000000 0.000000
0.737001 -0.044412 1.274455 0.000000 0.000000 0.000000
0.803113 -0.057881 1.208849 0.000000 0.000000 0.000000
0.739001 -0.054011 1.270231 0.000000 0.000000 0.000000
0.695771 -0.268464 1.373436 0.000000 0.000000 0.000000
0.705038 -0.054997 1.338485 0.000000 0.000000 0.000000
0.703626 -0.056519 1.335165 0.000000 0.000000 0.000000
0.690637 -0.229113 1.411881 0.000000 0.000000 0.000000
0.624773 -0.126989 1.482063 0.000000 0.000000 0.000000
0.725985 -0.061913 1.283017 0.000000 0.000000 0.000000
0.690263 -0.236820 1.402461 0.000000 0.000000 0.000000
0.710245 -0.056462 1.317927 0.000000 0.000000 0.000000
0.889033 -0.110805 1.067143 0.000000 0.000000 0.000000
0.741444 -0.050033 1.271818 0.000000 0.000000 0.000000
0.944293 -0.306905 1.107177 0.000000 0.000000 0.000000
0.691243 -0.280789 1.365535 0.000000 0.000000 0.000000
0.709209 -0.055381 1.322336 0.000000 0.000000 0.000000
0.707288 -0.055211 1.327173 0.000000 0.000000 0.000000
0.624629 -0.120288 1.479956 0.000000 0.000000 0.000000
0.732677 -0.048869 1.277383 0.000000 0.000000 0.000000
0.687480 -0.249672 1.400689 0.000000 0.000000 0.000000
0.629747 -0.115340 1.472967 0.000000 0.000000 0.000000
0.710239 -0.061921 1.295804 0.000000 0.000000 0.000000
0.708365 -0.054484 1.326458 0.000000 0.000000 0.000000
0.699318 -0.282658 1.352082 0.000000 0.000000 0.000000
0.878525 -0.111960 1.078103 0.000000 0.000000 0.000000
0.736528 -0.057275 1.269186 0.000000 0.000000 0.000000
0.764466 -0.052652 1.250787 0.000000 0.000000 0.000000
0.637097 -0.144086 1.486845 0.000000 0.000000 0.000000
0.853184 -0.068976 1.131972 0.000000 0.000000 0.000000
0.707621 -0.061936 1.310038 0.000000 0.000000 0.000000
0.708224 -0.049272 1.306887 0.000000 0.000000 0.000000
0.785685 -0.047527 1.234065 0.000000 0.000000 0.000000
0.861164 -0.076045 1.118798 0.000000 0.000000 0.000000
0.798227 -0.057942 1.212829 0.000000 0.000000 0.000000
0.948440 -0.267026 1.071557 0.000000 0.000000 0.000000
0.703961 -0.049531 1.341658 0.000000 0.000000 0.000000
0.754564 -0.091838 1.272611 0.000000 0.000000 0.000000
0.717528 -0.135856 1.306523 0.000000 0.000000 0.000000
0.700275 -0.245014 1.344377 0.000000 0.000000 0.000000
0.683711 -0.111165 1.408551 0.000000 0.000000 0.000000
0.864507 -0.143227 1.135076 0.000000 0.000000 0.000000
0.681839 -0.115174 1.376768 0.000000 0.000000 0.000000
0.728450 -0.228652 1.295620 0.000000 0.000000 0.000000
0.912594 -0.214597 1.069706 0.000000 0.000000 0.000000
0.798179 -0.185500 1.213750 0.000000 0.000000 0.000000
0.769206 -0.305256 1.281828 0.000000 0.000000 0.000000
0.688066 -0.100438 1.371914 0.000000 0.000000 0.000000
0.814487 -0.271389 1.241364 0.000000 0.000000 0.000000
0.815977 -0.342768 1.252555 0.000000 0.000000 0.000000
0.626477 -0.119294 1.478666 0.000000 0.000000 0.000000
0.705062 -0.184115 1.327376 0.000000 0.000000 0.000000
0.694985 -0.154942 1.345162 0.000000 0.000000 0.000000
0.692132 -0.156481 1.336182 0.000000 0.000000 0.000000
0.753144 -0.196995 1.246748 0.000000 0.000000 0.000000
0.688743 -0.104537 1.353453 0.000000 0.000000 0.000000
0.718056 -0.106465 1.288527 0.000000 0.000000 0.000000
0.922425 -0.160552 1.056039 0.000000 0.000000 0.000000
0.698974 -0.067283 1.332563 0.000000 0.000000 0.000000
0.913913 -0.206741 1.097942 0.000000 0.000000 0.000000
0.936284 -0.189756 1.044461 0.000000 0.000000 0.000000
0.696029 -0.173766 1.340227 0.000000 0.000000 0.000000
0.927455 -0.283461 1.100355 0.000000 0.000000 0.000000
0.718053 -0.161305 1.295713 0.000000 0.000000 0.000000
0.738079 -0.106298 1.258604 0.000000 0.000000 0.000000
0.899675 -0.164413 1.066402 0.000000 0.000000 0.000000
0.874225 -0.350766 1.199735 0.000000 0.000000 0.000000
0.862859 -0.166556 1.103232 0.000000 0.000000 0.000000
0.790059 -0.124338 1.187202 0.000000 0.000000 0.000000
0.855640 -0.071568 1.121413 0.000000 0.000000 0.000000
0.867951 -0.087737 1.105015 0.000000 0.000000 0.000000
0.711189 -0.059965 1.302388 0.000000 0.000000 0.000000
0.803903 -0.269478 1.211625 0.000000 0.000000 0.000000
0.750494 -0.061550 1.259003 0.000000 0.000000 0.000000
0.816306 -0.306043 1.250043 0.000000 0.000000 0.000000
0.895432 -0.312116 1.140371 0.000000 0.000000 0.000000
0.736822 -0.211868 1.276628 0.000000 0.000000 0.000000
0.861593 -0.271127 1.154339 0.000000 0.000000 0.000000
0.900397 -0.157188 1.063912 0.000000 0.000000 0.000000
0.854743 -0.155173 1.159581 0.000000 0.000000 0.000000
0.691647 -0.138333 1.356075 0.000000 0.000000 0.000000
0.702032 -0.223604 1.334945 0.000000 0.000000 0.000000
0.670657 -0.140357 1.386671 0.000000 0.000000 0.000000
0.685717 -0.148191 1.345917 0.000000 0.000000 0.000000
0.904357 -0.236240 1.090829 0.000000 0.000000 0.000000
0.886842 -0.259732 1.168573 0.000000 0.000000 0.000000
0.826201 -0.091600 1.155103 0.000000 0.000000 0.000000
0.925838 -0.287102 1.111293 0.000000 0.000000 0.000000
0.854136 -0.153909 1.167853 0.000000 0.000000 0.000000
0.740984 -0.088384 1.255954 0.000000 0.000000 0.000000
0.767862 -0.072759 1.234166 0.000000 0.000000 0.000000
0.712071 -0.061243 1.303625 0.000000 0.000000 0.000000
0.708865 -0.055989 1.334267 0.000000 0.000000 0.000000
0.740258 -0.176333 1.259600 0.000000 0.000000 0.000000
0.770041 -0.303519 1.317860 0.000000 0.000000 0.000000
0.882383 -0.225790 1.122997 0.000000 0.000000 0.000000
0.798567 -0.075357 1.199555 0.000000 0.000000 0.000000
0.696661 -0.059926 1.348328 0.000000 0.000000 0.000000
0.929144 -0.212602 1.057420 0.000000 0.000000 0.000000
0.755416 -0.086980 1.240319 0.000000 0.000000 0.000000
0.815473 -0.330510 1.268051 0.000000 0.000000 0.000000
0.768783 -0.055791 1.247287 0.000000 0.000000 0.000000
0.718811 -0.071007 1.288991 0.000000 0.000000 0.000000
0.750438 -0.212667 1.266468 0.000000 0.000000 0.000000
0.705774 -0.230926 1.332644 0.000000 0.000000 0.000000
0.673071 -0.102800 1.420103 0.000000 0.000000 0.000000
0.896104 -0.179524 1.112948 0.000000 0.000000 0.000000
0.684930 -0.130737 1.358670 0.000000 0.000000 0.000000
0.699961 -0.206072 1.336861 0.000000 0.000000 0.000000
0.813966 -0.255326 1.192598 0.000000 0.000000 0.000000
0.750642 -0.255266 1.302811 0.000000 0.000000 0.000000
0.684130 -0.102310 1.372769 0.000000 0.000000 0.000000
0.694409 -0.177953 1.368334 0.000000 0.000000 0.000000
0.798665 -0.205516 1.245709 0.000000 0.000000 0.000000
0.628450 -0.126253 1.486467 0.000000 0.000000 0.000000
0.747059 -0.206986 1.267968 0.000000 0.000000 0.000000
0.800741 -0.201166 1.180637 0.000000 0.000000 0.000000
0.697554 -0.154665 1.324275 0.000000 0.000000 0.000000
0.675927 -0.127372 1.366876 0.000000 0.000000 0.000000
0.817782 -0.338937 1.253312 0.000000 0.000000 0.000000
0.796991 -0.329194 1.274242 0.000000 0.000000 0.000000
0.742069 -0.169493 1.258014 0.000000 0.000000 0.000000
0.727856 -0.185439 1.300086 0.000000 0.000000 0.000000
0.709934 -0.108665 1.309451 0.000000 0.000000 0.000000
0.936112 -0.232079 1.080225 0.000000 0.000000 0.000000
0.921298 -0.287849 1.134620 0.000000 0.000000 0.000000
0.941139 -0.201201 1.043196 0.000000 0.000000 0.000000
0.683342 -0.123369 1.352849 0.000000 0.000000 0.000000
0.880880 -0.181257 1.087789 0.000000 0.000000 0.000000
0.732701 -0.124676 1.265582 0.000000 0.000000 0.000000
0.746356 -0.154952 1.251057 0.000000 0.000000 0.000000
0.866659 -0.221327 1.176570 0.000000 0.000000 0.000000
0.908980 -0.191490 1.061774 0.000000 0.000000 0.000000
0.731735 -0.249902 1.295796 0.000000 0.000000 0.000000
0.893495 -0.146515 1.068545 0.000000 0.000000 0.000000
0.887634 -0.170480 1.079348 0.000000 0.000000 0.000000
0.818528 -0.319716 1.224159 0.000000 0.000000 0.000000
0.781995 -0.223219 1.212856 0.000000 0.000000 0.000000
0.769525 -0.071330 1.234051 0.000000 0.000000 0.000000
0.807850 -0.236274 1.242256 0.000000 0.000000 0.000000
0.909928 -0.291454 1.111254 0.000000 0.000000 0.000000
0.874479 -0.206019 1.102052 0.000000 0.000000 0.000000
0.910465 -0.178270 1.058537 0.000000 0.000000 0.000000
0.878974 -0.150553 1.121610 0.000000 0.000000 0.000000
0.690428 -0.140640 1.365303 0.000000 0.000000 0.000000
0.690546 -0.180556 1.347741 0.000000 0.000000 0.000000
0.688568 -0.089965 1.349641 0.000000 0.000000 0.000000
0.640247 -0.126151 1.435490 0.000000 0.000000 0.000000
0.837223 -0.115420 1.135543 0.000000 0.000000 0.000000
0.932016 -0.288658 1.107469 0.000000 0.000000 0.000000
0.777030 -0.072677 1.233914 0.000000 0.000000 0.000000
0.798345 -0.126802 1.178657 0.000000 0.000000 0.000000
0.704609 -0.058437 1.320440 0.000000 0.000000 0.000000
0.768714 -0.313043 1.300685 0.000000 0.000000 0.000000
0.768083 -0.082126 1.230955 0.000000 0.000000 0.000000
0.876460 -0.142885 1.087135 0.000000 0.000000 0.000000
0.700100 -0.072311 1.330304 0.000000 0.000000 0.000000
0.943794 -0.232634 1.057138 0.000000 0.000000 0.000000
0.745544 -0.081290 1.261046 0.000000 0.000000 0.000000
0.713257 -0.057631 1.302873 0.000000 0.000000 0.000000
0.943627 -0.217889 1.046185 0.000000 0.000000 0.000000
0.886273 -0.114554 1.070709 0.000000 0.000000 0.000000
0.942018 -0.227753 1.047420 0.000000 0.000000 0.000000
0.941708 -0.214872 1.048914 0.000000 0.000000 0.000000
0.898890 -0.122575 1.060067 0.000000 0.000000 0.000000
0.676529 -0.077615 1.388596 0.000000 0.000000 0.000000
0.697969 -0.058730 1.355066 0.000000 0.000000 0.000000
0.785037 -0.297865 1.309052 0.000000 0.000000 0.000000
0.684635 -0.065331 1.373954 0.000000 0.000000 0.000000
0.697765 -0.110762 1.342161 0.000000 0.000000 0.000000
0.912269 -0.243252 1.086031 0.000000 0.000000 0.000000
0.681149 -0.175254 1.378101 0.000000 0.000000 0.000000
0.808587 -0.066811 1.210073 0.000000 0.000000 0.000000
0.941957 -0.237908 1.058303 0.000000 0.000000 0.000000
0.628954 -0.116114 1.469243 0.000000 0.000000 0.000000
0.947876 -0.298840 1.081209 0.000000 0.000000 0.000000
0.626751 -0.126554 1.488570 0.000000 0.000000 0.000000
0.689083 -0.066127 1.366989 0.000000 0.000000 0.000000
0.692098 -0.060990 1.360741 0.000000 0.000000 0.000000
0.632832 -0.113699 1.461490 0.000000 0.000000 0.000000
0.638165 -0.114084 1.460459 0.000000 0.000000 0.000000
0.924135 -0.241903 1.106155 0.000000 0.000000 0.000000
0.664261 -0.084484 1.404835 0.000000 0.000000 0.000000
0.692505 -0.062848 1.355002 0.000000 0.000000 0.000000
0.787043 -0.211912 1.215373 0.000000 0.000000 0.000000
0.928408 -0.187335 1.043956 0.000000 0.000000 0.000000
0.895512 -0.118447 1.066227 0.000000 0.000000 0.000000
0.898000 -0.120549 1.060319 0.000000 0.000000 0.000000
0.639313 -0.102632 1.440972 0.000000 0.000000 0.000000
0.660936 -0.090303 1.398159 0.000000 0.000000 0.000000
0.695032 -0.061867 1.353323 0.000000 0.000000 0.000000
0.918777 -0.149700 1.046924 0.000000 0.000000 0.000000
0.750962 -0.313759 1.320858 0.000000 0.000000 0.000000
0.667734 -0.078459 1.391059 0.000000 0.000000 0.000000
0.624476 -0.121268 1.482216 0.000000 0.000000 0.000000
0.783936 -0.322546 1.289553 0.000000 0.000000 0.000000
0.709413 -0.056019 1.333486 0.000000 0.000000 0.000000
0.807255 -0.337005 1.266722 0.000000 0.000000 0.000000
0.754614 -0.084995 1.243199 0.000000 0.000000 0.000000
0.702745 -0.087641 1.318980 0.000000 0.000000 0.000000
0.696634 -0.059854 1.350688 0.000000 0.000000 0.000000
0.630056 -0.106033 1.461019 0.000000 0.000000 0.000000
0.939667 -0.238876 1.062261 0.000000 0.000000 0.000000
0.671696 -0.125259 1.377618 0.000000 0.000000 0.000000
0.813480 -0.064444 1.198672 0.000000 0.000000 0.000000
0.924263 -0.235049 1.072214 0.000000 0.000000 0.000000
0.631015 -0.117404 1.468053 0.000000 0.000000 0.000000
0.922053 -0.221614 1.065598 0.000000 0.000000 0.000000
0.629552 -0.132191 1.493949 0.000000 0.000000 0.000000
0.690823 -0.064122 1.369748 0.000000 0.000000 0.000000
0.631642 -0.107156 1.462728 0.000000 0.000000 0.000000
0.638343 -0.105115 1.452192 0.000000 0.000000 0.000000
0.911428 -0.267112 1.132319 0.000000 0.000000 0.000000
0.663100 -0.168446 1.477492 0.000000 0.000000 0.000000
0.660429 -0.081624 1.399639 0.000000 0.000000 0.000000
0.698223 -0.055786 1.346583 0.000000 0.000000 0.000000
0.760311 -0.203612 1.244267 0.000000 0.000000 0.000000
0.797871 -0.220043 1.200287 0.000000 0.000000 0.000000
0.893066 -0.115302 1.070644 0.000000 0.000000 0.000000
0.636749 -0.099585 1.444458 0.000000 0.000000 0.000000
0.672541 -0.091757 1.378952 0.000000 0.000000 0.000000
0.747439 -0.310423 1.328306 0.000000 0.000000 0.000000
0.632591 -0.101669 1.449590 0.000000 0.000000 0.000000
0.699345 -0.279469 1.355355 0.000000 0.000000 0.000000
0.624572 -0.114265 1.471582 0.000000 0.000000 0.000000
0.777204 -0.306987 1.312231 0.000000 0.000000 0.000000
0.804736 -0.338356 1.276109 0.000000 0.000000 0.000000
0.774231 -0.317850 1.299270 0.000000 0.000000 0.000000
0.917869 -0.200638 1.058076 0.000000 0.000000 0.000000
0.771900 -0.312493 1.293715 0.000000 0.000000 0.000000
0.802518 -0.336170 1.272473 0.000000 0.000000 0.000000
0.749583 -0.074297 1.256042 0.000000 0.000000 0.000000
0.697868 -0.058274 1.353181 0.000000 0.000000 0.000000
0.730560 -0.304363 1.325342 0.000000 0.000000 0.000000
0.836186 -0.064013 1.163829 0.000000 0.000000 0.000000
0.735023 -0.305230 1.322692 0.000000 0.000000 0.000000
0.693712 -0.244954 1.406629 0.000000 0.000000 0.000000
0.695259 -0.051226 1.355138 0.000000 0.000000 0.000000
0.696026 -0.057844 1.353899 0.000000 0.000000 0.000000
0.689922 -0.061388 1.356908 0.000000 0.000000 0.000000
0.639567 -0.101274 1.439994 0.000000 0.000000 0.000000
0.740951 -0.308354 1.323589 0.000000 0.000000 0.000000
0.627641 -0.112810 1.469495 0.000000 0.000000 0.000000
0.670100 -0.101137 1.414374 0.000000 0.000000 0.000000
0.758617 -0.304280 1.301978 0.000000 0.000000 0.000000
0.865204 -0.115306 1.095828 0.000000 0.000000 0.000000
0.750636 -0.289486 1.292788 0.000000 0.000000 0.000000
0.746874 -0.305135 1.312811 0.000000 0.000000 0.000000
0.884757 -0.148342 1.077052 0.000000 0.000000 0.000000
0.842230 -0.071164 1.147361 0.000000 0.000000 0.000000
0.726140 -0.200518 1.286195 0.000000 0.000000 0.000000
0.747292 -0.308901 1.319079 0.000000 0.000000 0.000000
0.944164 -0.352216 1.121397 0.000000 0.000000 0.000000
0.868678 -0.143016 1.093775 0.000000 0.000000 0.000000
0.760824 -0.314286 1.307488 0.000000 0.000000 0.000000
0.738906 -0.305416 1.320372 0.000000 0.000000 0.000000
0.760423 -0.298791 1.294011 0.000000 0.000000 0.000000
0.758241 -0.310079 1.309679 0.000000 0.000000 0.000000
0.911842 -0.232424 1.081141 0.000000 0.000000 0.000000
0.847699 -0.066161 1.140432 0.000000 0.000000 0.000000
0.727755 -0.302565 1.334188 0.000000 0.000000 0.000000
0.846547 -0.069449 1.142945 0.000000 0.000000 0.000000
0.852387 -0.068474 1.129704 0.000000 0.000000 0.000000
0.731881 -0.305655 1.323410 0.000000 0.000000 0.000000
0.751724 -0.312085 1.319276 0.000000 0.000000 0.000000
0.949508 -0.355539 1.114997 0.000000 0.000000 0.000000
0.948560 -0.342858 1.113641 0.000000 0.000000 0.000000
0.666357 -0.177917 1.471648 0.000000 0.000000 0.000000
0.884994 -0.144930 1.099688 0.000000 0.000000 0.000000
0.754522 -0.311844 1.314067 0.000000 0.000000 0.000000
0.891573 -0.232394 1.100686 0.000000 0.000000 0.000000
0.645553 -0.092186 1.423307 0.000000 0.000000 0.000000
0.663076 -0.089954 1.412926 0.000000 0.000000 0.000000
0.754557 -0.051604 1.265560 0.000000 0.000000 0.000000
0.641742 -0.105647 1.430064 0.000000 0.000000 0.000000
0.649387 -0.104622 1.427359 0.000000 0.000000 0.000000
0.703713 -0.279575 1.348212 0.000000 0.000000 0.000000
0.649283 -0.099674 1.422510 0.000000 0.000000 0.000000
0.642607 -0.096219 1.432342 0.000000 0.000000 0.000000
0.646838 -0.108914 1.428708 0.000000 0.000000 0.000000
0.942340 -0.203594 1.040097 0.000000 0.000000 0.000000
0.916056 -0.151074 1.047349 0.000000 0.000000 0.000000
0.759650 -0.074495 1.251778 0.000000 0.000000 0.000000
0.932140 -0.189871 1.039063 0.000000 0.000000 0.000000
0.943459 -0.204489 1.042943 0.000000 0.000000 0.000000
0.747793 -0.042984 1.269735 0.000000 0.000000 0.000000
0.706160 -0.051516 1.316373 0.000000 0.000000 0.000000
0.789389 -0.054281 1.224563 0.000000 0.000000 0.000000
0.702420 -0.274498 1.357658 0.000000 0.000000 0.000000
0.637661 -0.125184 1.452668 0.000000 0.000000 0.000000
0.642503 -0.107143 1.435558 0.000000 0.000000 0.000000
0.696300 -0.251564 1.368071 0.000000 0.000000 0.000000
0.744950 -0.065306 1.271466 0.000000 0.000000 0.000000
0.877455 -0.204266 1.107029 0.000000 0.000000 0.000000
0.698974 -0.272046 1.349702 0.000000 0.000000 0.000000
0.694579 -0.254968 1.367256 0.000000 0.000000 0.000000
0.782799 -0.053503 1.232439 0.000000 0.000000 0.000000
0.828527 -0.175967 1.141419 0.000000 0.000000 0.000000
0.692641 -0.270053 1.372719 0.000000 0.000000 0.000000
0.797078 -0.138428 1.178949 0.000000 0.000000 0.000000
0.658301 -0.122360 1.403359 0.000000 0.000000 0.000000
0.653404 -0.098136 1.414149 0.000000 0.000000 0.000000
0.695276 -0.262314 1.364423 0.000000 0.000000 0.000000
0.782858 -0.069471 1.246424 0.000000 0.000000 0.000000
0.968988 -0.289549 1.078327 0.000000 0.000000 0.000000
0.844926 -0.198000 1.130883 0.000000 0.000000 0.000000
0.768886 -0.052988 1.246886 0.000000 0.000000 0.000000
0.694442 -0.269790 1.363238 0.000000 0.000000 0.000000
0.697262 -0.280698 1.354083 0.000000 0.000000 0.000000
0.696783 -0.281946 1.356793 0.000000 0.000000 0.000000
0.863984 -0.071243 1.112946 0.000000 0.000000 0.000000
0.831647 -0.196591 1.138613 0.000000 0.000000 0.000000
0.826915 -0.199247 1.149439 0.000000 0.000000 0.000000
0.706453 -0.054099 1.326692 0.000000 0.000000 0.000000
0.659373 -0.160097 1.422753 0.000000 0.000000 0.000000
0.696325 -0.250997 1.359034 0.000000 0.000000 0.000000
0.749731 -0.066831 1.268939 0.000000 0.000000 0.000000
0.841022 -0.167606 1.126753 0.000000 0.000000 0.000000
0.861345 -0.118302 1.104112 0.000000 0.000000 0.000000
0.701074 -0.263111 1.344444 0.000000 0.000000 0.000000
0.701710 -0.247280 1.341590 0.000000 0.000000 0.000000
0.770218 -0.057955 1.243721 0.000000 0.000000 0.000000
0.855815 -0.188399 1.117666 0.000000 0.000000 0.000000
0.693131 -0.268853 1.364245 0.000000 0.000000 0.000000
0.657407 -0.119362 1.404623 0.000000 0.000000 0.000000
0.642426 -0.098278 1.434416 0.000000 0.000000 0.000000
0.695384 -0.263574 1.368470 0.000000 0.000000 0.000000
0.953883 -0.217053 1.047492 0.000000 0.000000 0.000000
0.775680 -0.070955 1.253713 0.000000 0.000000 0.000000
0.962614 -0.288341 1.072266 0.000000 0.000000 0.000000
0.962032 -0.287790 1.074815 0.000000 0.000000 0.000000
0.937836 -0.191027 1.044317 0.000000 0.000000 0.000000
0.827933 -0.162077 1.139856 0.000000 0.000000 0.000000
0.700607 -0.286129 1.349686 0.000000 0.000000 0.000000
0.770524 -0.059913 1.243022 0.000000 0.000000 0.000000
0.699697 -0.275979 1.350102 0.000000 0.000000 0.000000
0.644051 -0.095367 1.430595 0.000000 0.000000 0.000000
0.838781 -0.068624 1.159644 0.000000 0.000000 0.000000
0.693823 -0.275507 1.364403 0.000000 0.000000 0.000000
0.672318 -0.155000 1.382280 0.000000 0.000000 0.000000
0.897674 -0.205396 1.080545 0.000000 0.000000 0.000000
0.873556 -0.223437 1.114634 0.000000 0.000000 0.000000
0.713815 -0.072091 1.297020 0.000000 0.000000 0.000000
0.627878 -0.124761 1.482955 0.000000 0.000000 0.000000
0.811653 -0.059665 1.204415 0.000000 0.000000 0.000000
0.630037 -0.125830 1.480725 0.000000 0.000000 0.000000
0.630290 -0.131986 1.498468 0.000000 0.000000 0.000000
0.628940 -0.134273 1.493366 0.000000 0.000000 0.000000
0.795016 -0.055701 1.220446 0.000000 0.000000 0.000000
0.679914 -0.195714 1.458435 0.000000 0.000000 0.000000
0.801463 -0.058824 1.211658 0.000000 0.000000 0.000000
0.625492 -0.131017 1.489224 0.000000 0.000000 0.000000
0.807415 -0.060519 1.201250 0.000000 0.000000 0.000000
0.634123 -0.125809 1.480729 0.000000 0.000000 0.000000
0.630423 -0.120634 1.475476 0.000000 0.000000 0.000000
0.919857 -0.343749 1.131956 0.000000 0.000000 0.000000
0.746352 -0.305426 1.327374 0.000000 0.000000 0.000000
0.828955 -0.096456 1.151972 0.000000 0.000000 0.000000
0.925895 -0.169985 1.042826 0.000000 0.000000 0.000000
0.825636 -0.066310 1.175460 0.000000 0.000000 0.000000
0.833038 -0.070989 1.161706 0.000000 0.000000 0.000000
0.634976 -0.124036 1.463705 0.000000 0.000000 0.000000
0.824867 -0.158234 1.144583 0.000000 0.000000 0.000000
0.904587 -0.344524 1.132501 0.000000 0.000000 0.000000
0.928169 -0.178118 1.040102 0.000000 0.000000 0.000000
0.835236 -0.063940 1.160312 0.000000 0.000000 0.000000
0.834562 -0.073756 1.158463 0.000000 0.000000 0.000000
0.790083 -0.061438 1.217844 0.000000 0.000000 0.000000
0.627158 -0.128712 1.494790 0.000000 0.000000 0.000000
0.684945 -0.217756 1.425631 0.000000 0.000000 0.000000
0.644762 -0.154555 1.495175 0.000000 0.000000 0.000000
0.627884 -0.133173 1.498292 0.000000 0.000000 0.000000
0.640039 -0.136065 1.509698 0.000000 0.000000 0.000000
0.678062 -0.197409 1.451899 0.000000 0.000000 0.000000
0.798245 -0.052070 1.219430 0.000000 0.000000 0.000000
0.903285 -0.128690 1.057148 0.000000 0.000000 0.000000
0.634101 -0.104146 1.454074 0.000000 0.000000 0.000000
0.686743 -0.207908 1.445427 0.000000 0.000000 0.000000
0.674675 -0.194107 1.441821 0.000000 0.000000 0.000000
0.687588 -0.214344 1.440517 0.000000 0.000000 0.000000
0.865246 -0.074929 1.108209 0.000000 0.000000 0.000000
0.869649 -0.079119 1.103017 0.000000 0.000000 0.000000
0.856725 -0.074864 1.127367 0.000000 0.000000 0.000000
0.688069 -0.228714 1.426470 0.000000 0.000000 0.000000
0.939552 -0.192020 1.049828 0.000000 0.000000 0.000000
0.670738 -0.184873 1.468279 0.000000 0.000000 0.000000
0.915591 -0.172533 1.048373 0.000000 0.000000 0.000000
0.852762 -0.067478 1.134897 0.000000 0.000000 0.000000
0.913492 -0.143237 1.060241 0.000000 0.000000 0.000000
0.883377 -0.255865 1.139457 0.000000 0.000000 0.000000
0.853070 -0.071650 1.138009 0.000000 0.000000 0.000000
0.626313 -0.108716 1.465792 0.000000 0.000000 0.000000
0.911554 -0.159637 1.052113 0.000000 0.000000 0.000000
0.864154 -0.075707 1.110569 0.000000 0.000000 0.000000
0.872349 -0.080073 1.096810 0.000000 0.000000 0.000000
0.885291 -0.096413 1.083318 0.000000 0.000000 0.000000
0.869563 -0.091598 1.107553 0.000000 0.000000 0.000000
0.953573 -0.261070 1.062068 0.000000 0.000000 0.000000
0.689756 -0.230873 1.423324 0.000000 0.000000 0.000000
0.647527 -0.160126 1.487217 0.000000 0.000000 0.000000
0.859066 -0.070979 1.117816 0.000000 0.000000 0.000000
0.905088 -0.129774 1.062403 0.000000 0.000000 0.000000
0.882043 -0.258308 1.138470 0.000000 0.000000 0.000000
0.633263 -0.111582 1.458990 0.000000 0.000000 0.000000
0.914969 -0.150378 1.042209 0.000000 0.000000 0.000000
0.762489 -0.043309 1.257036 0.000000 0.000000 0.000000
0.781624 -0.047060 1.240546 0.000000 0.000000 0.000000
0.951596 -0.258778 1.062790 0.000000 0.000000 0.000000
0.957467 -0.263825 1.063354 0.000000 0.000000 0.000000
0.883088 -0.097881 1.095158 0.000000 0.000000 0.000000
0.950333 -0.248853 1.065236 0.000000 0.000000 0.000000
0.957667 -0.262414 1.065092 0.000000 0.000000 0.000000
0.677842 -0.084502 1.387356 0.000000 0.000000 0.000000
0.697632 -0.281017 1.354165 0.000000 0.000000 0.000000
0.779182 -0.287779 1.254758 0.000000 0.000000 0.000000
0.877278 -0.088371 1.091247 0.000000 0.000000 0.000000
0.954141 -0.252169 1.062661 0.000000 0.000000 0.000000
0.959197 -0.271138 1.064557 0.000000 0.000000 0.000000
0.948518 -0.261703 1.066280 0.000000 0.000000 0.000000
0.958878 -0.263303 1.062922 0.000000 0.000000 0.000000
0.963424 -0.272269 1.068453 0.000000 0.000000 0.000000
0.888167 -0.105964 1.081229 0.000000 0.000000 0.000000
0.957621 -0.255954 1.057553 0.000000 0.000000 0.000000
0.945585 -0.231399 1.052753 0.000000 0.000000 0.000000
0.866233 -0.073770 1.113641 0.000000 0.000000 0.000000
0.941558 -0.258881 1.070914 0.000000 0.000000 0.000000
0.967558 -0.296336 1.089572 0.000000 0.000000 0.000000
0.954271 -0.245919 1.054903 0.000000 0.000000 0.000000
0.812823 -0.278802 1.210764 0.000000 0.000000 0.000000
0.962385 -0.270290 1.064035 0.000000 0.000000 0.000000
0.888591 -0.112980 1.076335 0.000000 0.000000 0.000000
0.964759 -0.286308 1.071269 0.000000 0.000000 0.000000
0.960389 -0.275270 1.068460 0.000000 0.000000 0.000000
0.952863 -0.262734 1.064368 0.000000 0.000000 0.000000
0.958517 -0.256272 1.059394 0.000000 0.000000 0.000000
0.965851 -0.286617 1.079042 0.000000 0.000000 0.000000
0.888396 -0.104205 1.077593 0.000000 0.000000 0.000000
0.950676 -0.258597 1.059301 0.000000 0.000000 0.000000
0.953970 -0.248388 1.054808 0.000000 0.000000 0.000000
0.854942 -0.062903 1.134433 0.000000 0.000000 0.000000
0.693386 -0.276366 1.369863 0.000000 0.000000 0.000000
0.963101 -0.270656 1.066463 0.000000 0.000000 0.000000
0.695658 -0.277002 1.352578 0.000000 0.000000 0.000000
0.711072 -0.047956 1.299962 0.000000 0.000000 0.000000
0.707013 -0.071462 1.312777 0.000000 0.000000 0.000000
0.628466 -0.132284 1.502839 0.000000 0.000000 0.000000
0.667226 -0.175882 1.473099 0.000000 0.000000 0.000000
0.668746 -0.171126 1.460233 0.000000 0.000000 0.000000
0.695386 -0.269757 1.350675 0.000000 0.000000 0.000000
0.837835 -0.079862 1.149219 0.000000 0.000000 0.000000
0.679446 -0.190004 1.384798 0.000000 0.000000 0.000000
0.836981 -0.063846 1.159890 0.000000 0.000000 0.000000
0.842984 -0.064919 1.145308 0.000000 0.000000 0.000000
0.907402 -0.138613 1.052991 0.000000 0.000000 0.000000
0.654071 -0.148251 1.496258 0.000000 0.000000 0.000000
0.952402 -0.321129 1.093315 0.000000 0.000000 0.000000
0.924478 -0.165942 1.040849 0.000000 0.000000 0.000000
0.665675 -0.168218 1.472591 0.000000 0.000000 0.000000
0.669243 -0.175099 1.403457 0.000000 0.000000 0.000000
0.838192 -0.057272 1.144190 0.000000 0.000000 0.000000
0.907289 -0.128151 1.063282 0.000000 0.000000 0.000000
0.912851 -0.138756 1.054813 0.000000 0.000000 0.000000
0.642667 -0.155498 1.492359 0.000000 0.000000 0.000000
0.660621 -0.168046 1.463627 0.000000 0.000000 0.000000
0.821927 -0.058262 1.186915 0.000000 0.000000 0.000000
0.819620 -0.060889 1.185249 0.000000 0.000000 0.000000
0.820103 -0.064188 1.185419 0.000000 0.000000 0.000000
0.740921 -0.049141 1.273999 0.000000 0.000000 0.000000
0.815103 -0.059572 1.191543 0.000000 0.000000 0.000000
0.760956 -0.056731 1.256882 0.000000 0.000000 0.000000
0.761119 -0.049389 1.258397 0.000000 0.000000 0.000000
0.691874 -0.266758 1.381825 0.000000 0.000000 0.000000
0.689786 -0.266062 1.382983 0.000000 0.000000 0.000000
0.954979 -0.340307 1.107379 0.000000 0.000000 0.000000
0.955301 -0.308604 1.102025 0.000000 0.000000 0.000000
0.948856 -0.334661 1.107697 0.000000 0.000000 0.000000
0.680537 -0.193428 1.444817 0.000000 0.000000 0.000000
0.940050 -0.340297 1.117046 0.000000 0.000000 0.000000
0.952459 -0.338956 1.109743 0.000000 0.000000 0.000000
0.953982 -0.335475 1.102348 0.000000 0.000000 0.000000
0.942999 -0.345227 1.118683 0.000000 0.000000 0.000000
0.905355 -0.128032 1.059534 0.000000 0.000000 0.000000
0.823241 -0.065571 1.185469 0.000000 0.000000 0.000000
0.953776 -0.314230 1.105887 0.000000 0.000000 0.000000
0.957439 -0.324879 1.094867 0.000000 0.000000 0.000000
0.692345 -0.260024 1.378104 0.000000 0.000000 0.000000
0.734344 -0.057928 1.272698 0.000000 0.000000 0.000000
0.963612 -0.312208 1.095332 0.000000 0.000000 0.000000
0.926486 -0.162033 1.045768 0.000000 0.000000 0.000000
0.710464 -0.055464 1.308004 0.000000 0.000000 0.000000
0.958828 -0.312045 1.097474 0.000000 0.000000 0.000000
0.685660 -0.209811 1.440067 0.000000 0.000000 0.000000
0.947383 -0.332053 1.108799 0.000000 0.000000 0.000000
0.953772 -0.339830 1.108841 0.000000 0.000000 0.000000
0.952213 -0.320143 1.107086 0.000000 0.000000 0.000000
0.951837 -0.342784 1.108868 0.000000 0.000000 0.000000
0.905685 -0.128038 1.057897 0.000000 0.000000 0.000000
0.946442 -0.325827 1.096525 0.000000 0.000000 0.000000
0.692018 -0.266394 1.376496 0.000000 0.000000 0.000000
0.726839 -0.052930 1.279244 0.000000 0.000000 0.000000
0.753926 -0.048658 1.261889 0.000000 0.000000 0.000000
0.927510 -0.175370 1.036982 0.000000 0.000000 0.000000
0.958861 -0.335737 1.103314 0.000000 0.000000 0.000000
0.932605 -0.179213 1.042647 0.000000 0.000000 0.000000
0.935392 -0.185079 1.045228 0.000000 0.000000 0.000000
0.710564 -0.054528 1.308300 0.000000 0.000000 0.000000
0.747455 -0.049149 1.269357 0.000000 0.000000 0.000000
0.695238 -0.063536 1.345801 0.000000 0.000000 0.000000
0.661912 -0.130595 1.396708 0.000000 0.000000 0.000000
0.813709 -0.179564 1.166549 0.000000 0.000000 0.000000
0.649812 -0.115724 1.408998 0.000000 0.000000 0.000000
0.843130 -0.296625 1.180366 0.000000 0.000000 0.000000
0.959785 -0.262459 1.061897 0.000000 0.000000 0.000000
0.968424 -0.294909 1.084894 0.000000 0.000000 0.000000
0.968266 -0.293121 1.076924 0.000000 0.000000 0.000000
0.858369 -0.322567 1.174375 0.000000 0.000000 0.000000
0.697626 -0.056939 1.352276 0.000000 0.000000 0.000000
0.858421 -0.247596 1.146531 0.000000 0.000000 0.000000
0.661117 -0.141366 1.399672 0.000000 0.000000 0.000000
0.809544 -0.177192 1.166752 0.000000 0.000000 0.000000
0.678583 -0.146328 1.388200 0.000000 0.000000 0.000000
0.967238 -0.290081 1.080187 0.000000 0.000000 0.000000
0.957319 -0.269974 1.066139 0.000000 0.000000 0.000000
0.962894 -0.292447 1.080657 0.000000 0.000000 0.000000
0.841595 -0.278528 1.181292 0.000000 0.000000 0.000000
0.659413 -0.126754 1.394741 0.000000 0.000000 0.000000
0.965945 -0.279058 1.075496 0.000000 0.000000 0.000000
0.931918 -0.277240 1.108421 0.000000 0.000000 0.000000
0.713981 -0.298346 1.329502 0.000000 0.000000 0.000000
0.689276 -0.238663 1.413643 0.000000 0.000000 0.000000
0.938830 -0.198457 1.038430 0.000000 0.000000 0.000000
0.931853 -0.191448 1.039179 0.000000 0.000000 0.000000
0.941882 -0.244060 1.052619 0.000000 0.000000 0.000000
0.961501 -0.249713 1.054309 0.000000 0.000000 0.000000
0.936669 -0.207110 1.040886 0.000000 0.000000 0.000000
0.928762 -0.180686 1.044874 0.000000 0.000000 0.000000
0.955700 -0.270607 1.069404 0.000000 0.000000 0.000000
0.959058 -0.265006 1.064087 0.000000 0.000000 0.000000
0.749741 -0.266751 1.276675 0.000000 0.000000 0.000000
0.710672 -0.299490 1.333428 0.000000 0.000000 0.000000
0.708718 -0.291735 1.328353 0.000000 0.000000 0.000000
0.716860 -0.283143 1.316389 0.000000 0.000000 0.000000
0.947996 -0.223631 1.043904 0.000000 0.000000 0.000000
0.755458 -0.053990 1.268515 0.000000 0.000000 0.000000
0.793381 -0.049606 1.225542 0.000000 0.000000 0.000000
0.935309 -0.197766 1.047609 0.000000 0.000000 0.000000
0.923892 -0.243752 1.076420 0.000000 0.000000 0.000000
0.954376 -0.225160 1.042679 0.000000 0.000000 0.000000
0.943073 -0.207563 1.041355 0.000000 0.000000 0.000000
0.733387 -0.242856 1.290734 0.000000 0.000000 0.000000
0.714011 -0.300209 1.332125 0.000000 0.000000 0.000000
0.715615 -0.294700 1.324853 0.000000 0.000000 0.000000
0.707760 -0.268231 1.328323 0.000000 0.000000 0.000000
0.950390 -0.229140 1.045342 0.000000 0.000000 0.000000
0.948758 -0.225287 1.046980 0.000000 0.000000 0.000000
0.769516 -0.057066 1.254780 0.000000 0.000000 0.000000
0.837325 -0.065881 1.156528 0.000000 0.000000 0.000000
0.794643 -0.057528 1.219337 0.000000 0.000000 0.000000
0.928629 -0.194329 1.044499 0.000000 0.000000 0.000000
0.928435 -0.251970 1.078136 0.000000 0.000000 0.000000
0.952763 -0.238290 1.050283 0.000000 0.000000 0.000000
0.950142 -0.245224 1.052023 0.000000 0.000000 0.000000
0.878145 -0.091052 1.089839 0.000000 0.000000 0.000000
0.710792 -0.054079 1.311657 0.000000 0.000000 0.000000
0.711562 -0.053316 1.303982 0.000000 0.000000 0.000000
0.882000 -0.096962 1.083536 0.000000 0.000000 0.000000
0.731282 -0.292136 1.328583 0.000000 0.000000 0.000000
0.716477 -0.051969 1.294752 0.000000 0.000000 0.000000
0.676070 -0.136827 1.388979 0.000000 0.000000 0.000000
0.678763 -0.086434 1.367339 0.000000 0.000000 0.000000
0.870088 -0.079451 1.105990 0.000000 0.000000 0.000000
0.877025 -0.096680 1.093369 0.000000 0.000000 0.000000
0.745889 -0.296244 1.320532 0.000000 0.000000 0.000000
0.673372 -0.153143 1.371816 0.000000 0.000000 0.000000
0.872475 -0.085701 1.084698 0.000000 0.000000 0.000000
0.868779 -0.088739 1.111398 0.000000 0.000000 0.000000
0.678043 -0.080561 1.386319 0.000000 0.000000 0.000000
0.969782 -0.298759 1.079484 0.000000 0.000000 0.000000
0.802636 -0.053710 1.210927 0.000000 0.000000 0.000000
0.684873 -0.067278 1.371256 0.000000 0.000000 0.000000
0.684403 -0.072655 1.388640 0.000000 0.000000 0.000000
0.691550 -0.246004 1.408368 0.000000 0.000000 0.000000
0.692568 -0.238767 1.412797 0.000000 0.000000 0.000000
0.784117 -0.131295 1.234076 0.000000 0.000000 0.000000
0.795173 -0.246647 1.267870 0.000000 0.000000 0.000000
0.682045 -0.074663 1.382976 0.000000 0.000000 0.000000
0.972987 -0.298197 1.081762 0.000000 0.000000 0.000000
0.675928 -0.069983 1.390961 0.000000 0.000000 0.000000
0.966196 -0.294989 1.079835 0.000000 0.000000 0.000000
0.666949 -0.080965 1.391569 0.000000 0.000000 0.000000
0.680266 -0.067881 1.376157 0.000000 0.000000 0.000000
0.673774 -0.071848 1.384185 0.000000 0.000000 0.000000
0.883361 -0.098916 1.086752 0.000000 0.000000 0.000000
0.878689 -0.090314 1.083328 0.000000 0.000000 0.000000
0.668338 -0.084846 1.387254 0.000000 0.000000 0.000000
0.826051 -0.222159 1.165375 0.000000 0.000000 0.000000
0.755802 -0.180367 1.236238 0.000000 0.000000 0.000000
0.830640 -0.059575 1.174379 0.000000 0.000000 0.000000
0.777885 -0.184141 1.206670 0.000000 0.000000 0.000000
0.758681 -0.158244 1.278593 0.000000 0.000000 0.000000
0.813190 -0.298615 1.261019 0.000000 0.000000 0.000000
0.683776 -0.067899 1.379577 0.000000 0.000000 0.000000
0.971633 -0.305454 1.083681 0.000000 0.000000 0.000000
0.668712 -0.076243 1.388862 0.000000 0.000000 0.000000
0.964625 -0.286574 1.073562 0.000000 0.000000 0.000000
0.875376 -0.087783 1.089352 0.000000 0.000000 0.000000
0.672096 -0.077364 1.385642 0.000000 0.000000 0.000000
0.674131 -0.082053 1.382408 0.000000 0.000000 0.000000
0.670934 -0.076217 1.386751 0.000000 0.000000 0.000000
0.888696 -0.113408 1.086192 0.000000 0.000000 0.000000
0.871759 -0.089050 1.093972 0.000000 0.000000 0.000000
0.806246 -0.190310 1.167617 0.000000 0.000000 0.000000
0.835079 -0.060556 1.165113 0.000000 0.000000 0.000000
0.868600 -0.086864 1.097938 0.000000 0.000000 0.000000
0.967259 -0.288023 1.072983 0.000000 0.000000 0.000000
0.704041 -0.281227 1.336139 0.000000 0.000000 0.000000
0.846771 -0.085153 1.141335 0.000000 0.000000 0.000000
0.685296 -0.063547 1.364641 0.000000 0.000000 0.000000
0.712631 -0.287796 1.340075 0.000000 0.000000 0.000000
0.848044 -0.069993 1.137546 0.000000 0.000000 0.000000
0.710988 -0.284428 1.326867 0.000000 0.000000 0.000000
0.847442 -0.072310 1.138387 0.000000 0.000000 0.000000
0.707649 -0.293250 1.338252 0.000000 0.000000 0.000000
0.853453 -0.079572 1.136212 0.000000 0.000000 0.000000
0.677042 -0.076473 1.379114 0.000000 0.000000 0.000000
0.850370 -0.070454 1.138990 0.000000 0.000000 0.000000
0.855368 -0.101070 1.130518 0.000000 0.000000 0.000000
0.668556 -0.106335 1.398578 0.000000 0.000000 0.000000
0.634218 -0.129316 1.479120 0.000000 0.000000 0.000000
0.849513 -0.068008 1.137200 0.000000 0.000000 0.000000
0.849004 -0.069149 1.137257 0.000000 0.000000 0.000000
0.831024 -0.065110 1.170357 0.000000 0.000000 0.000000
0.855617 -0.064482 1.128877 0.000000 0.000000 0.000000
0.847723 -0.066122 1.136368 0.000000 0.000000 0.000000
0.961697 -0.244659 1.054808 0.000000 0.000000 0.000000
0.632208 -0.139266 1.479061 0.000000 0.000000 0.000000
0.847689 -0.085666 1.125734 0.000000 0.000000 0.000000
0.699943 -0.292428 1.344170 0.000000 0.000000 0.000000
0.841683 -0.101961 1.131703 0.000000 0.000000 0.000000
0.871236 -0.169853 1.094960 0.000000 0.000000 0.000000
0.841957 -0.074685 1.147382 0.000000 0.000000 0.000000
0.850625 -0.114665 1.116549 0.000000 0.000000 0.000000
0.848102 -0.068025 1.148036 0.000000 0.000000 0.000000
0.829438 -0.112156 1.138897 0.000000 0.000000 0.000000
0.843021 -0.094038 1.130942 0.000000 0.000000 0.000000
0.849468 -0.072216 1.130238 0.000000 0.000000 0.000000
0.692014 -0.095588 1.333126 0.000000 0.000000 0.000000
0.692998 -0.078039 1.340834 0.000000 0.000000 0.000000
0.854706 -0.073310 1.127944 0.000000 0.000000 0.000000
0.679421 -0.075015 1.375993 0.000000 0.000000 0.000000
0.842177 -0.082817 1.140569 0.000000 0.000000 0.000000
0.860779 -0.081171 1.115846 0.000000 0.000000 0.000000
0.826982 -0.132608 1.143177 0.000000 0.000000 0.000000
0.859720 -0.087679 1.112087 0.000000 0.000000 0.000000
0.858947 -0.075959 1.117603 0.000000 0.000000 0.000000
0.860594 -0.085725 1.122008 0.000000 0.000000 0.000000
0.867505 -0.089985 1.119159 0.000000 0.000000 0.000000
0.701214 -0.288662 1.346249 0.000000 0.000000 0.000000
0.699410 -0.292051 1.345184 0.000000 0.000000 0.000000
0.857625 -0.078703 1.114801 0.000000 0.000000 0.000000
0.823691 -0.136863 1.145069 0.000000 0.000000 0.000000
0.692576 -0.064512 1.356015 0.000000 0.000000 0.000000
0.810432 -0.152093 1.163172 0.000000 0.000000 0.000000
0.848816 -0.145025 1.117833 0.000000 0.000000 0.000000
0.856111 -0.069402 1.123551 0.000000 0.000000 0.000000
0.707522 -0.088555 1.327270 0.000000 0.000000 0.000000
0.623077 -0.115769 1.474435 0.000000 0.000000 0.000000
0.855683 -0.097445 1.113799 0.000000 0.000000 0.000000
0.697661 -0.282612 1.345669 0.000000 0.000000 0.000000
0.816109 -0.102270 1.164882 0.000000 0.000000 0.000000
0.857950 -0.136321 1.108486 0.000000 0.000000 0.000000
0.848837 -0.092191 1.130718 0.000000 0.000000 0.000000
0.846022 -0.149597 1.122984 0.000000 0.000000 0.000000
0.847536 -0.070236 1.144862 0.000000 0.000000 0.000000
0.830725 -0.104923 1.140481 0.000000 0.000000 0.000000
0.839962 -0.121835 1.130812 0.000000 0.000000 0.000000
0.849118 -0.069135 1.132038 0.000000 0.000000 0.000000
0.681371 -0.100571 1.354288 0.000000 0.000000 0.000000
0.701088 -0.064770 1.326764 0.000000 0.000000 0.000000
0.674238 -0.095702 1.382251 0.000000 0.000000 0.000000
0.868167 -0.096233 1.108960 0.000000 0.000000 0.000000
0.848115 -0.072721 1.139004 0.000000 0.000000 0.000000
0.850874 -0.081514 1.132713 0.000000 0.000000 0.000000
0.849011 -0.078279 1.125136 0.000000 0.000000 0.000000
0.850000 -0.089061 1.132771 0.000000 0.000000 0.000000
0.859503 -0.076681 1.120827 0.000000 0.000000 0.000000
0.857595 -0.085134 1.135957 0.000000 0.000000 0.000000
0.700656 -0.282335 1.344687 0.000000 0.000000 0.000000
0.705032 -0.295356 1.339487 0.000000 0.000000 0.000000
0.848823 -0.070396 1.139143 0.000000 0.000000 0.000000
0.852606 -0.067232 1.127154 0.000000 0.000000 0.000000
0.821999 -0.108587 1.153224 0.000000 0.000000 0.000000
0.690828 -0.070962 1.349202 0.000000 0.000000 0.000000
0.804745 -0.145881 1.167339 0.000000 0.000000 0.000000
0.821898 -0.184742 1.151404 0.000000 0.000000 0.000000
0.684464 -0.077626 1.354091 0.000000 0.000000 0.000000
0.695724 -0.074154 1.339778 0.000000 0.000000 0.000000
0.894143 -0.119010 1.062282 0.000000 0.000000 0.000000
0.894522 -0.112308 1.064625 0.000000 0.000000 0.000000
0.893829 -0.117502 1.064218 0.000000 0.000000 0.000000
0.968085 -0.287231 1.070152 0.000000 0.000000 0.000000
0.962171 -0.268409 1.062874 0.000000 0.000000 0.000000
0.682210 -0.202374 1.446818 0.000000 0.000000 0.000000
0.680182 -0.205397 1.442276 0.000000 0.000000 0.000000
0.681233 -0.208841 1.435785 0.000000 0.000000 0.000000
0.684828 -0.204476 1.446023 0.000000 0.000000 0.000000
0.830233 -0.186013 1.153150 0.000000 0.000000 0.000000
0.890447 -0.295079 1.138986 0.000000 0.000000 0.000000
0.948020 -0.267184 1.088650 0.000000 0.000000 0.000000
0.784126 -0.124740 1.197029 0.000000 0.000000 0.000000
0.957681 -0.268140 1.074073 0.000000 0.000000 0.000000
0.879818 -0.305564 1.159063 0.000000 0.000000 0.000000
0.874301 -0.347092 1.158967 0.000000 0.000000 0.000000
0.805951 -0.181101 1.166579 0.000000 0.000000 0.000000
0.967414 -0.281013 1.071907 0.000000 0.000000 0.000000
0.850356 -0.188937 1.122293 0.000000 0.000000 0.000000
