ply
format ascii 1.0
comment VCGLIB generated
obj_info Generated by SPFormer!
element vertex 884
property float x
property float y
property float z
property float nx
property float ny
property float nz
end_header
0.419443 0.322967 2.480104 0.000000 0.000000 0.000000
0.298755 0.375816 2.610967 0.000000 0.000000 0.000000
0.502740 0.269035 2.446317 0.000000 0.000000 0.000000
0.436439 0.287686 2.500459 0.000000 0.000000 0.000000
0.284293 0.340010 2.688802 0.000000 0.000000 0.000000
0.410674 0.307358 2.517320 0.000000 0.000000 0.000000
0.528697 0.207350 2.455325 0.000000 0.000000 0.000000
0.426063 0.240775 2.538829 0.000000 0.000000 0.000000
0.307429 0.368500 2.635801 0.000000 0.000000 0.000000
0.398975 0.405388 2.442870 0.000000 0.000000 0.000000
0.382823 0.233712 2.596518 0.000000 0.000000 0.000000
0.343132 0.279290 2.622422 0.000000 0.000000 0.000000
0.477286 0.237158 2.481279 0.000000 0.000000 0.000000
0.443842 0.325217 2.445044 0.000000 0.000000 0.000000
0.299989 0.419941 2.580772 0.000000 0.000000 0.000000
0.283617 0.326458 2.686519 0.000000 0.000000 0.000000
0.413058 0.313787 2.498038 0.000000 0.000000 0.000000
0.464015 0.270617 2.488508 0.000000 0.000000 0.000000
0.385581 0.214007 2.610320 0.000000 0.000000 0.000000
0.360227 0.375526 2.531770 0.000000 0.000000 0.000000
0.342759 0.284954 2.672113 0.000000 0.000000 0.000000
0.482966 0.191496 2.492594 0.000000 0.000000 0.000000
0.356450 0.387942 2.525885 0.000000 0.000000 0.000000
0.387821 0.316557 2.535444 0.000000 0.000000 0.000000
0.331560 0.280110 2.637825 0.000000 0.000000 0.000000
0.480679 0.195125 2.486524 0.000000 0.000000 0.000000
0.328489 0.295350 2.624769 0.000000 0.000000 0.000000
0.323206 0.294272 2.647194 0.000000 0.000000 0.000000
0.396714 0.354654 2.482171 0.000000 0.000000 0.000000
0.396355 0.201121 2.593666 0.000000 0.000000 0.000000
0.340491 0.353112 2.581357 0.000000 0.000000 0.000000
0.378620 0.286765 2.594692 0.000000 0.000000 0.000000
0.428238 0.191145 2.543052 0.000000 0.000000 0.000000
0.320074 0.298280 2.652397 0.000000 0.000000 0.000000
0.424249 0.280785 2.526633 0.000000 0.000000 0.000000
0.391859 0.354334 2.491769 0.000000 0.000000 0.000000
0.440128 0.299094 2.475126 0.000000 0.000000 0.000000
0.342391 0.416893 2.521192 0.000000 0.000000 0.000000
0.446870 0.292471 2.476658 0.000000 0.000000 0.000000
0.412533 0.261637 2.544997 0.000000 0.000000 0.000000
0.406058 0.243821 2.561270 0.000000 0.000000 0.000000
0.491955 0.200668 2.475217 0.000000 0.000000 0.000000
0.360436 0.386287 2.487325 0.000000 0.000000 0.000000
0.412005 0.263451 2.546036 0.000000 0.000000 0.000000
0.487867 0.235216 2.480094 0.000000 0.000000 0.000000
0.360927 0.400691 2.507847 0.000000 0.000000 0.000000
0.432216 0.243915 2.530731 0.000000 0.000000 0.000000
0.475802 0.239865 2.490433 0.000000 0.000000 0.000000
0.407524 0.236708 2.565116 0.000000 0.000000 0.000000
0.498930 0.235543 2.474802 0.000000 0.000000 0.000000
0.463331 0.224402 2.511985 0.000000 0.000000 0.000000
0.483890 0.256534 2.481152 0.000000 0.000000 0.000000
0.478326 0.270768 2.471427 0.000000 0.000000 0.000000
0.496502 0.248540 2.461808 0.000000 0.000000 0.000000
0.322785 0.383315 2.583404 0.000000 0.000000 0.000000
0.333200 0.233605 2.647711 0.000000 0.000000 0.000000
0.438128 0.198271 2.538545 0.000000 0.000000 0.000000
0.317271 0.386395 2.598345 0.000000 0.000000 0.000000
0.439296 0.246378 2.524580 0.000000 0.000000 0.000000
0.330351 0.427231 2.528781 0.000000 0.000000 0.000000
0.325835 0.274061 2.644110 0.000000 0.000000 0.000000
0.354023 0.425939 2.498905 0.000000 0.000000 0.000000
0.374508 0.418810 2.472533 0.000000 0.000000 0.000000
0.327039 0.235688 2.656156 0.000000 0.000000 0.000000
0.370134 0.381933 2.499224 0.000000 0.000000 0.000000
0.435020 0.245194 2.544456 0.000000 0.000000 0.000000
0.431868 0.285646 2.504097 0.000000 0.000000 0.000000
0.433943 0.315814 2.457738 0.000000 0.000000 0.000000
0.315366 0.260749 2.668780 0.000000 0.000000 0.000000
0.455663 0.281001 2.481228 0.000000 0.000000 0.000000
0.317343 0.361515 2.629700 0.000000 0.000000 0.000000
0.375273 0.313925 2.560243 0.000000 0.000000 0.000000
0.445568 0.301278 2.448968 0.000000 0.000000 0.000000
0.438181 0.264311 2.518755 0.000000 0.000000 0.000000
0.405997 0.317071 2.499453 0.000000 0.000000 0.000000
0.518232 0.213550 2.458200 0.000000 0.000000 0.000000
0.387433 0.280616 2.565763 0.000000 0.000000 0.000000
0.452463 0.305645 2.452148 0.000000 0.000000 0.000000
0.459785 0.215989 2.503607 0.000000 0.000000 0.000000
0.428819 0.260522 2.530208 0.000000 0.000000 0.000000
0.408202 0.259016 2.554285 0.000000 0.000000 0.000000
0.402219 0.208824 2.575966 0.000000 0.000000 0.000000
0.398077 0.288410 2.550982 0.000000 0.000000 0.000000
0.329867 0.264566 2.657813 0.000000 0.000000 0.000000
0.342976 0.422415 2.517936 0.000000 0.000000 0.000000
0.384915 0.364993 2.489853 0.000000 0.000000 0.000000
0.366748 0.396501 2.502089 0.000000 0.000000 0.000000
0.460374 0.281910 2.476461 0.000000 0.000000 0.000000
0.342633 0.215049 2.639166 0.000000 0.000000 0.000000
0.448769 0.321464 2.448868 0.000000 0.000000 0.000000
0.349031 0.212078 2.631568 0.000000 0.000000 0.000000
0.480434 0.277329 2.461442 0.000000 0.000000 0.000000
0.375118 0.359726 2.513092 0.000000 0.000000 0.000000
0.320438 0.404482 2.570469 0.000000 0.000000 0.000000
0.320003 0.254091 2.659571 0.000000 0.000000 0.000000
0.321631 0.247676 2.665030 0.000000 0.000000 0.000000
0.353482 0.383505 2.532698 0.000000 0.000000 0.000000
0.404885 0.303334 2.519125 0.000000 0.000000 0.000000
0.416164 0.218132 2.554475 0.000000 0.000000 0.000000
0.333445 0.352604 2.597148 0.000000 0.000000 0.000000
0.320788 0.276610 2.642560 0.000000 0.000000 0.000000
0.386953 0.324866 2.524606 0.000000 0.000000 0.000000
0.427616 0.268266 2.533613 0.000000 0.000000 0.000000
0.330108 0.314635 2.605370 0.000000 0.000000 0.000000
0.443686 0.279520 2.500547 0.000000 0.000000 0.000000
0.420064 0.332527 2.463607 0.000000 0.000000 0.000000
0.451642 0.284234 2.483614 0.000000 0.000000 0.000000
0.391382 0.324226 2.518467 0.000000 0.000000 0.000000
0.345067 0.428569 2.505031 0.000000 0.000000 0.000000
0.339266 0.271970 2.614743 0.000000 0.000000 0.000000
0.396105 0.401767 2.448536 0.000000 0.000000 0.000000
0.390242 0.232474 2.583919 0.000000 0.000000 0.000000
0.352465 0.265183 2.616595 0.000000 0.000000 0.000000
0.308952 0.432919 2.546918 0.000000 0.000000 0.000000
0.320564 0.359191 2.619579 0.000000 0.000000 0.000000
0.311852 0.380109 2.613092 0.000000 0.000000 0.000000
0.424158 0.305995 2.482126 0.000000 0.000000 0.000000
0.294931 0.347727 2.682218 0.000000 0.000000 0.000000
0.361050 0.395404 2.508142 0.000000 0.000000 0.000000
0.382645 0.411610 2.467708 0.000000 0.000000 0.000000
0.483162 0.183797 2.490638 0.000000 0.000000 0.000000
0.326494 0.343835 2.624630 0.000000 0.000000 0.000000
0.317135 0.436482 2.539151 0.000000 0.000000 0.000000
0.289556 0.399228 2.639914 0.000000 0.000000 0.000000
0.412695 0.200215 2.563365 0.000000 0.000000 0.000000
0.359668 0.235808 2.620526 0.000000 0.000000 0.000000
0.400403 0.210091 2.586590 0.000000 0.000000 0.000000
0.400533 0.198945 2.591619 0.000000 0.000000 0.000000
0.332922 0.383400 2.562303 0.000000 0.000000 0.000000
0.440694 0.254621 2.517512 0.000000 0.000000 0.000000
0.358578 0.306161 2.591987 0.000000 0.000000 0.000000
0.534697 0.207027 2.446047 0.000000 0.000000 0.000000
0.518057 0.209560 2.455761 0.000000 0.000000 0.000000
0.517227 0.235880 2.447049 0.000000 0.000000 0.000000
0.290308 0.332047 2.682505 0.000000 0.000000 0.000000
0.522180 0.214270 2.456867 0.000000 0.000000 0.000000
0.527773 0.209048 2.449557 0.000000 0.000000 0.000000
0.510258 0.261927 2.448936 0.000000 0.000000 0.000000
0.518040 0.250208 2.444889 0.000000 0.000000 0.000000
0.390652 0.407942 2.452085 0.000000 0.000000 0.000000
0.394193 0.393472 2.451270 0.000000 0.000000 0.000000
0.381367 0.418919 2.461201 0.000000 0.000000 0.000000
0.338035 0.223701 2.644655 0.000000 0.000000 0.000000
0.460778 0.190945 2.519618 0.000000 0.000000 0.000000
0.301391 0.267336 2.670153 0.000000 0.000000 0.000000
0.489149 0.186651 2.481730 0.000000 0.000000 0.000000
0.438502 0.340003 2.425313 0.000000 0.000000 0.000000
0.330631 0.297511 2.607012 0.000000 0.000000 0.000000
0.320411 0.333927 2.640335 0.000000 0.000000 0.000000
0.281734 0.325107 2.680029 0.000000 0.000000 0.000000
0.323973 0.380491 2.591756 0.000000 0.000000 0.000000
0.406009 0.363403 2.468946 0.000000 0.000000 0.000000
0.297667 0.349766 2.677875 0.000000 0.000000 0.000000
0.389417 0.237011 2.589542 0.000000 0.000000 0.000000
0.518577 0.248054 2.437515 0.000000 0.000000 0.000000
0.419554 0.204140 2.552569 0.000000 0.000000 0.000000
0.287247 0.275151 2.689611 0.000000 0.000000 0.000000
0.314127 0.246059 2.668917 0.000000 0.000000 0.000000
0.525134 0.202515 2.448941 0.000000 0.000000 0.000000
0.306621 0.253262 2.676014 0.000000 0.000000 0.000000
0.313580 0.271432 2.659316 0.000000 0.000000 0.000000
0.308372 0.246522 2.674903 0.000000 0.000000 0.000000
0.298821 0.410321 2.588614 0.000000 0.000000 0.000000
0.415569 0.182047 2.565823 0.000000 0.000000 0.000000
0.327794 0.299140 2.650733 0.000000 0.000000 0.000000
0.381906 0.294658 2.567071 0.000000 0.000000 0.000000
0.349451 0.290109 2.607347 0.000000 0.000000 0.000000
0.326119 0.359755 2.609096 0.000000 0.000000 0.000000
0.395957 0.346145 2.492406 0.000000 0.000000 0.000000
0.292660 0.397117 2.611500 0.000000 0.000000 0.000000
0.313740 0.383277 2.608441 0.000000 0.000000 0.000000
0.305225 0.408356 2.592298 0.000000 0.000000 0.000000
0.380378 0.281627 2.578116 0.000000 0.000000 0.000000
0.362859 0.372012 2.523247 0.000000 0.000000 0.000000
0.352389 0.281920 2.598819 0.000000 0.000000 0.000000
0.341916 0.263071 2.629486 0.000000 0.000000 0.000000
0.341569 0.381708 2.555684 0.000000 0.000000 0.000000
0.349804 0.240979 2.630126 0.000000 0.000000 0.000000
0.292190 0.323553 2.675973 0.000000 0.000000 0.000000
0.338684 0.292133 2.634666 0.000000 0.000000 0.000000
0.403440 0.327823 2.498300 0.000000 0.000000 0.000000
0.489112 0.190268 2.484122 0.000000 0.000000 0.000000
0.396893 0.230290 2.579083 0.000000 0.000000 0.000000
0.529591 0.234070 2.444125 0.000000 0.000000 0.000000
0.296858 0.275048 2.682201 0.000000 0.000000 0.000000
0.526209 0.214211 2.456378 0.000000 0.000000 0.000000
0.410674 0.207039 2.569753 0.000000 0.000000 0.000000
0.307598 0.274380 2.670898 0.000000 0.000000 0.000000
0.305689 0.399603 2.605886 0.000000 0.000000 0.000000
0.287211 0.420394 2.592775 0.000000 0.000000 0.000000
0.499966 0.193646 2.470322 0.000000 0.000000 0.000000
0.349136 0.281479 2.611588 0.000000 0.000000 0.000000
0.383760 0.266304 2.580709 0.000000 0.000000 0.000000
0.294949 0.388616 2.633854 0.000000 0.000000 0.000000
0.439206 0.267407 2.515330 0.000000 0.000000 0.000000
0.412132 0.339179 2.475986 0.000000 0.000000 0.000000
0.312995 0.386917 2.603747 0.000000 0.000000 0.000000
0.452292 0.317654 2.423412 0.000000 0.000000 0.000000
0.379443 0.289548 2.570492 0.000000 0.000000 0.000000
0.370702 0.368746 2.510299 0.000000 0.000000 0.000000
0.474708 0.233665 2.494562 0.000000 0.000000 0.000000
0.325825 0.325892 2.634665 0.000000 0.000000 0.000000
0.341935 0.249452 2.634400 0.000000 0.000000 0.000000
0.326954 0.356128 2.608565 0.000000 0.000000 0.000000
0.355793 0.366569 2.541634 0.000000 0.000000 0.000000
0.344785 0.274098 2.621169 0.000000 0.000000 0.000000
0.346570 0.259346 2.626327 0.000000 0.000000 0.000000
0.298329 0.338130 2.676675 0.000000 0.000000 0.000000
0.324473 0.228809 2.660091 0.000000 0.000000 0.000000
0.428221 0.208093 2.541408 0.000000 0.000000 0.000000
0.324167 0.286998 2.641175 0.000000 0.000000 0.000000
0.318725 0.244169 2.678641 0.000000 0.000000 0.000000
0.374358 0.295290 2.574833 0.000000 0.000000 0.000000
0.418296 0.178391 2.562431 0.000000 0.000000 0.000000
0.315238 0.406532 2.574676 0.000000 0.000000 0.000000
0.402175 0.388969 2.444363 0.000000 0.000000 0.000000
0.326182 0.224689 2.658032 0.000000 0.000000 0.000000
0.310555 0.272770 2.670371 0.000000 0.000000 0.000000
0.310557 0.265579 2.677871 0.000000 0.000000 0.000000
0.417714 0.217304 2.553669 0.000000 0.000000 0.000000
0.360442 0.273744 2.601697 0.000000 0.000000 0.000000
0.265248 0.313043 2.679157 0.000000 0.000000 0.000000
0.402798 0.387264 2.443281 0.000000 0.000000 0.000000
0.393572 0.373108 2.467927 0.000000 0.000000 0.000000
0.372917 0.407241 2.458444 0.000000 0.000000 0.000000
0.398067 0.190706 2.599407 0.000000 0.000000 0.000000
0.417065 0.356232 2.445340 0.000000 0.000000 0.000000
0.424663 0.345543 2.455077 0.000000 0.000000 0.000000
0.394424 0.406527 2.451827 0.000000 0.000000 0.000000
0.389872 0.419358 2.458591 0.000000 0.000000 0.000000
0.384336 0.248819 2.598020 0.000000 0.000000 0.000000
0.308728 0.255791 2.673908 0.000000 0.000000 0.000000
0.494048 0.215022 2.473208 0.000000 0.000000 0.000000
0.320655 0.315474 2.649131 0.000000 0.000000 0.000000
0.361731 0.407730 2.502496 0.000000 0.000000 0.000000
0.419002 0.182515 2.563630 0.000000 0.000000 0.000000
0.319249 0.372168 2.608840 0.000000 0.000000 0.000000
0.415156 0.190839 2.564613 0.000000 0.000000 0.000000
0.410957 0.334946 2.461081 0.000000 0.000000 0.000000
0.479987 0.200294 2.487353 0.000000 0.000000 0.000000
0.396526 0.249857 2.576320 0.000000 0.000000 0.000000
0.422042 0.186008 2.557627 0.000000 0.000000 0.000000
0.280085 0.415474 2.614720 0.000000 0.000000 0.000000
0.427591 0.311603 2.470286 0.000000 0.000000 0.000000
0.398524 0.382921 2.454025 0.000000 0.000000 0.000000
0.384792 0.223678 2.599137 0.000000 0.000000 0.000000
0.445641 0.224161 2.516328 0.000000 0.000000 0.000000
0.337380 0.426924 2.518668 0.000000 0.000000 0.000000
0.321762 0.361779 2.613718 0.000000 0.000000 0.000000
0.339776 0.423637 2.518229 0.000000 0.000000 0.000000
0.432496 0.316022 2.459939 0.000000 0.000000 0.000000
0.386760 0.403427 2.463604 0.000000 0.000000 0.000000
0.338211 0.438633 2.506101 0.000000 0.000000 0.000000
0.329405 0.443744 2.498682 0.000000 0.000000 0.000000
0.395885 0.400873 2.446675 0.000000 0.000000 0.000000
0.409553 0.202120 2.566039 0.000000 0.000000 0.000000
0.325732 0.364884 2.589670 0.000000 0.000000 0.000000
0.394503 0.369453 2.454528 0.000000 0.000000 0.000000
0.299201 0.369339 2.659963 0.000000 0.000000 0.000000
0.362566 0.306354 2.587379 0.000000 0.000000 0.000000
0.320365 0.440793 2.520849 0.000000 0.000000 0.000000
0.290176 0.405206 2.624905 0.000000 0.000000 0.000000
0.319141 0.438642 2.531464 0.000000 0.000000 0.000000
0.498970 0.196230 2.475514 0.000000 0.000000 0.000000
0.501582 0.199603 2.470756 0.000000 0.000000 0.000000
0.358727 0.311919 2.598927 0.000000 0.000000 0.000000
0.299526 0.269351 2.679446 0.000000 0.000000 0.000000
0.335517 0.235592 2.641655 0.000000 0.000000 0.000000
0.447734 0.190960 2.529565 0.000000 0.000000 0.000000
0.322914 0.268416 2.649866 0.000000 0.000000 0.000000
0.428558 0.188792 2.552432 0.000000 0.000000 0.000000
0.399155 0.201197 2.590207 0.000000 0.000000 0.000000
0.498424 0.196591 2.469039 0.000000 0.000000 0.000000
0.350681 0.278463 2.608160 0.000000 0.000000 0.000000
0.283015 0.341907 2.693810 0.000000 0.000000 0.000000
0.289227 0.334703 2.683944 0.000000 0.000000 0.000000
0.300049 0.348536 2.668446 0.000000 0.000000 0.000000
0.289309 0.273442 2.665797 0.000000 0.000000 0.000000
0.379056 0.412341 2.472826 0.000000 0.000000 0.000000
0.392135 0.395733 2.441232 0.000000 0.000000 0.000000
0.307204 0.273472 2.680017 0.000000 0.000000 0.000000
0.321102 0.265411 2.666410 0.000000 0.000000 0.000000
0.469885 0.190960 2.498345 0.000000 0.000000 0.000000
0.388535 0.382814 2.472189 0.000000 0.000000 0.000000
0.420880 0.362103 2.431382 0.000000 0.000000 0.000000
0.296577 0.374846 2.666226 0.000000 0.000000 0.000000
0.381604 0.373557 2.496346 0.000000 0.000000 0.000000
0.306769 0.430005 2.553293 0.000000 0.000000 0.000000
0.346276 0.414168 2.524679 0.000000 0.000000 0.000000
0.412934 0.213122 2.562781 0.000000 0.000000 0.000000
0.304871 0.269855 2.671269 0.000000 0.000000 0.000000
0.305800 0.253920 2.675989 0.000000 0.000000 0.000000
0.391788 0.406905 2.456815 0.000000 0.000000 0.000000
0.320074 0.442523 2.522405 0.000000 0.000000 0.000000
0.292090 0.426971 2.577683 0.000000 0.000000 0.000000
0.396426 0.369724 2.468192 0.000000 0.000000 0.000000
0.338684 0.289158 2.623834 0.000000 0.000000 0.000000
0.396161 0.385238 2.456112 0.000000 0.000000 0.000000
0.363098 0.237212 2.616194 0.000000 0.000000 0.000000
0.530462 0.245671 2.438855 0.000000 0.000000 0.000000
0.308149 0.277778 2.676898 0.000000 0.000000 0.000000
0.535445 0.221875 2.441907 0.000000 0.000000 0.000000
0.326796 0.234545 2.654237 0.000000 0.000000 0.000000
0.534990 0.240590 2.435715 0.000000 0.000000 0.000000
0.315569 0.301558 2.665382 0.000000 0.000000 0.000000
0.399623 0.192650 2.583680 0.000000 0.000000 0.000000
0.432987 0.341706 2.433694 0.000000 0.000000 0.000000
0.370078 0.193787 2.622084 0.000000 0.000000 0.000000
0.362568 0.231816 2.619286 0.000000 0.000000 0.000000
0.293413 0.350629 2.684485 0.000000 0.000000 0.000000
0.284516 0.264950 2.675033 0.000000 0.000000 0.000000
0.429225 0.350078 2.443223 0.000000 0.000000 0.000000
0.299837 0.285883 2.681770 0.000000 0.000000 0.000000
0.292301 0.316525 2.682610 0.000000 0.000000 0.000000
0.441618 0.281106 2.497198 0.000000 0.000000 0.000000
0.384038 0.374181 2.486795 0.000000 0.000000 0.000000
0.390767 0.387624 2.461518 0.000000 0.000000 0.000000
0.384451 0.409765 2.459855 0.000000 0.000000 0.000000
0.373459 0.382302 2.489773 0.000000 0.000000 0.000000
0.316013 0.360089 2.635091 0.000000 0.000000 0.000000
0.298903 0.259452 2.683520 0.000000 0.000000 0.000000
0.505836 0.271131 2.446501 0.000000 0.000000 0.000000
0.286652 0.402492 2.637356 0.000000 0.000000 0.000000
0.411449 0.358747 2.446180 0.000000 0.000000 0.000000
0.413550 0.360749 2.450499 0.000000 0.000000 0.000000
0.425732 0.361336 2.424592 0.000000 0.000000 0.000000
0.360708 0.409737 2.499384 0.000000 0.000000 0.000000
0.280879 0.405527 2.632341 0.000000 0.000000 0.000000
0.440877 0.276401 2.500626 0.000000 0.000000 0.000000
0.457144 0.253110 2.503858 0.000000 0.000000 0.000000
0.293362 0.357463 2.642549 0.000000 0.000000 0.000000
0.459335 0.242744 2.505339 0.000000 0.000000 0.000000
0.385840 0.413987 2.459639 0.000000 0.000000 0.000000
0.354658 0.266401 2.603597 0.000000 0.000000 0.000000
0.483415 0.261501 2.473032 0.000000 0.000000 0.000000
0.419062 0.371447 2.428270 0.000000 0.000000 0.000000
0.303982 0.383640 2.626625 0.000000 0.000000 0.000000
0.291468 0.389538 2.643098 0.000000 0.000000 0.000000
0.368403 0.255843 2.601837 0.000000 0.000000 0.000000
0.334464 0.285372 2.625476 0.000000 0.000000 0.000000
0.308047 0.378428 2.667755 0.000000 0.000000 0.000000
0.293763 0.333737 2.693832 0.000000 0.000000 0.000000
0.305947 0.360006 2.677476 0.000000 0.000000 0.000000
0.301147 0.373879 2.648893 0.000000 0.000000 0.000000
0.471828 0.287121 2.459448 0.000000 0.000000 0.000000
0.374918 0.395639 2.483486 0.000000 0.000000 0.000000
0.319631 0.309270 2.646311 0.000000 0.000000 0.000000
0.482161 0.265877 2.470037 0.000000 0.000000 0.000000
0.349833 0.424815 2.493893 0.000000 0.000000 0.000000
0.384045 0.412023 2.463772 0.000000 0.000000 0.000000
0.389883 0.358987 2.497268 0.000000 0.000000 0.000000
0.301783 0.394915 2.621906 0.000000 0.000000 0.000000
0.291446 0.329660 2.690925 0.000000 0.000000 0.000000
0.429253 0.339687 2.448885 0.000000 0.000000 0.000000
0.281949 0.409673 2.628157 0.000000 0.000000 0.000000
0.415704 0.185397 2.560216 0.000000 0.000000 0.000000
0.369908 0.236610 2.609352 0.000000 0.000000 0.000000
0.367458 0.422792 2.475416 0.000000 0.000000 0.000000
0.446471 0.282918 2.489805 0.000000 0.000000 0.000000
0.486827 0.222035 2.474458 0.000000 0.000000 0.000000
0.496999 0.262203 2.458843 0.000000 0.000000 0.000000
0.484698 0.255296 2.477262 0.000000 0.000000 0.000000
0.277882 0.413502 2.614877 0.000000 0.000000 0.000000
0.309190 0.415364 2.575401 0.000000 0.000000 0.000000
0.475680 0.257262 2.483460 0.000000 0.000000 0.000000
0.280120 0.407283 2.636107 0.000000 0.000000 0.000000
0.284090 0.322254 2.679376 0.000000 0.000000 0.000000
0.376874 0.402320 2.480234 0.000000 0.000000 0.000000
0.365057 0.295505 2.600636 0.000000 0.000000 0.000000
0.332197 0.243742 2.647677 0.000000 0.000000 0.000000
0.313039 0.432379 2.522316 0.000000 0.000000 0.000000
0.429694 0.185736 2.546541 0.000000 0.000000 0.000000
0.399362 0.192191 2.595572 0.000000 0.000000 0.000000
0.424104 0.351432 2.449013 0.000000 0.000000 0.000000
0.302868 0.346688 2.673583 0.000000 0.000000 0.000000
0.412054 0.213332 2.566684 0.000000 0.000000 0.000000
0.327386 0.418070 2.565140 0.000000 0.000000 0.000000
0.371554 0.419750 2.473980 0.000000 0.000000 0.000000
0.326980 0.335819 2.640983 0.000000 0.000000 0.000000
0.294850 0.345154 2.679772 0.000000 0.000000 0.000000
0.376790 0.425720 2.468145 0.000000 0.000000 0.000000
0.472814 0.197678 2.490678 0.000000 0.000000 0.000000
0.341276 0.215457 2.634974 0.000000 0.000000 0.000000
0.444330 0.301294 2.463508 0.000000 0.000000 0.000000
0.348270 0.222272 2.630516 0.000000 0.000000 0.000000
0.469746 0.184676 2.504295 0.000000 0.000000 0.000000
0.406188 0.370359 2.449575 0.000000 0.000000 0.000000
0.451583 0.191870 2.519034 0.000000 0.000000 0.000000
0.435582 0.347808 2.435546 0.000000 0.000000 0.000000
0.491291 0.274806 2.455337 0.000000 0.000000 0.000000
0.426694 0.181647 2.552078 0.000000 0.000000 0.000000
0.440768 0.335806 2.429699 0.000000 0.000000 0.000000
0.312899 0.243023 2.676989 0.000000 0.000000 0.000000
0.471274 0.205002 2.494607 0.000000 0.000000 0.000000
0.270058 0.312304 2.680779 0.000000 0.000000 0.000000
0.457822 0.185920 2.520674 0.000000 0.000000 0.000000
0.424107 0.309916 2.487869 0.000000 0.000000 0.000000
0.340186 0.286381 2.612792 0.000000 0.000000 0.000000
0.352652 0.223282 2.628932 0.000000 0.000000 0.000000
0.478901 0.205336 2.489169 0.000000 0.000000 0.000000
0.452465 0.315792 2.434624 0.000000 0.000000 0.000000
0.414098 0.196488 2.565311 0.000000 0.000000 0.000000
0.313617 0.238891 2.667705 0.000000 0.000000 0.000000
0.525093 0.198773 2.449997 0.000000 0.000000 0.000000
0.420328 0.366327 2.431350 0.000000 0.000000 0.000000
0.328754 0.221774 2.654007 0.000000 0.000000 0.000000
0.340188 0.436539 2.503552 0.000000 0.000000 0.000000
0.321995 0.428870 2.536701 0.000000 0.000000 0.000000
0.477879 0.184612 2.499797 0.000000 0.000000 0.000000
0.300790 0.254293 2.677442 0.000000 0.000000 0.000000
0.356722 0.282769 2.600110 0.000000 0.000000 0.000000
0.319351 0.233314 2.664932 0.000000 0.000000 0.000000
0.422396 0.182304 2.556797 0.000000 0.000000 0.000000
0.288078 0.439887 2.560969 0.000000 0.000000 0.000000
0.403115 0.184620 2.586216 0.000000 0.000000 0.000000
0.324311 0.424204 2.546174 0.000000 0.000000 0.000000
0.332815 0.411450 2.539673 0.000000 0.000000 0.000000
0.466661 0.299537 2.440455 0.000000 0.000000 0.000000
0.327304 0.423618 2.537488 0.000000 0.000000 0.000000
0.303583 0.379692 2.633603 0.000000 0.000000 0.000000
0.400059 0.195186 2.595967 0.000000 0.000000 0.000000
0.319108 0.310862 2.649645 0.000000 0.000000 0.000000
0.273791 0.327334 2.689774 0.000000 0.000000 0.000000
0.285938 0.395786 2.618755 0.000000 0.000000 0.000000
0.302334 0.421193 2.575118 0.000000 0.000000 0.000000
0.342953 0.408322 2.532221 0.000000 0.000000 0.000000
0.425480 0.360591 2.427334 0.000000 0.000000 0.000000
0.309825 0.438440 2.535633 0.000000 0.000000 0.000000
0.412237 0.193787 2.570593 0.000000 0.000000 0.000000
0.340512 0.417554 2.529010 0.000000 0.000000 0.000000
0.484613 0.291606 2.446964 0.000000 0.000000 0.000000
0.321689 0.373991 2.591278 0.000000 0.000000 0.000000
0.406724 0.193280 2.574427 0.000000 0.000000 0.000000
0.281500 0.420659 2.585443 0.000000 0.000000 0.000000
0.436223 0.250078 2.529310 0.000000 0.000000 0.000000
0.315530 0.417160 2.562544 0.000000 0.000000 0.000000
0.352080 0.292892 2.602872 0.000000 0.000000 0.000000
0.346943 0.419453 2.517540 0.000000 0.000000 0.000000
0.316767 0.423389 2.553648 0.000000 0.000000 0.000000
0.514157 0.235608 2.454255 0.000000 0.000000 0.000000
0.523238 0.259612 2.435825 0.000000 0.000000 0.000000
0.516320 0.245003 2.447302 0.000000 0.000000 0.000000
0.536587 0.208237 2.445169 0.000000 0.000000 0.000000
0.321147 0.233765 2.658804 0.000000 0.000000 0.000000
0.344737 0.439549 2.494296 0.000000 0.000000 0.000000
0.378759 0.424767 2.463919 0.000000 0.000000 0.000000
0.361449 0.298222 2.603085 0.000000 0.000000 0.000000
0.318342 0.441103 2.526454 0.000000 0.000000 0.000000
0.371216 0.411250 2.481222 0.000000 0.000000 0.000000
0.320425 0.340614 2.645207 0.000000 0.000000 0.000000
0.305060 0.369985 2.640736 0.000000 0.000000 0.000000
0.347890 0.418154 2.476032 0.000000 0.000000 0.000000
0.298080 0.430113 2.563518 0.000000 0.000000 0.000000
0.456465 0.190083 2.510337 0.000000 0.000000 0.000000
0.296943 0.428216 2.571545 0.000000 0.000000 0.000000
0.372308 0.404173 2.486268 0.000000 0.000000 0.000000
0.408910 0.193845 2.573672 0.000000 0.000000 0.000000
0.295124 0.384464 2.648382 0.000000 0.000000 0.000000
0.434147 0.331463 2.440477 0.000000 0.000000 0.000000
0.524179 0.249106 2.439848 0.000000 0.000000 0.000000
0.534203 0.206786 2.445558 0.000000 0.000000 0.000000
0.313184 0.239144 2.674442 0.000000 0.000000 0.000000
0.319531 0.242594 2.663151 0.000000 0.000000 0.000000
0.403177 0.187105 2.590654 0.000000 0.000000 0.000000
0.387479 0.394957 2.468915 0.000000 0.000000 0.000000
0.293362 0.275320 2.680394 0.000000 0.000000 0.000000
0.305292 0.246758 2.681413 0.000000 0.000000 0.000000
0.421220 0.199259 2.554495 0.000000 0.000000 0.000000
0.382219 0.379569 2.490136 0.000000 0.000000 0.000000
0.389340 0.397466 2.463827 0.000000 0.000000 0.000000
0.429870 0.195783 2.542155 0.000000 0.000000 0.000000
0.374973 0.210023 2.614620 0.000000 0.000000 0.000000
0.316564 0.420930 2.547330 0.000000 0.000000 0.000000
0.430940 0.204837 2.540646 0.000000 0.000000 0.000000
0.414288 0.186966 2.568339 0.000000 0.000000 0.000000
0.289251 0.375837 2.676862 0.000000 0.000000 0.000000
0.366838 0.378642 2.514051 0.000000 0.000000 0.000000
0.362677 0.390512 2.511229 0.000000 0.000000 0.000000
0.390073 0.406410 2.449346 0.000000 0.000000 0.000000
0.287013 0.394993 2.630837 0.000000 0.000000 0.000000
0.302672 0.370544 2.658251 0.000000 0.000000 0.000000
0.404566 0.189065 2.583915 0.000000 0.000000 0.000000
0.292196 0.380371 2.671546 0.000000 0.000000 0.000000
0.284078 0.374432 2.653398 0.000000 0.000000 0.000000
0.421797 0.182941 2.558259 0.000000 0.000000 0.000000
0.375230 0.401821 2.483417 0.000000 0.000000 0.000000
0.286042 0.332987 2.683471 0.000000 0.000000 0.000000
0.524832 0.263724 2.436588 0.000000 0.000000 0.000000
0.417634 0.361651 2.433029 0.000000 0.000000 0.000000
0.428704 0.357121 2.425449 0.000000 0.000000 0.000000
0.400856 0.188270 2.595848 0.000000 0.000000 0.000000
0.416328 0.376419 2.429698 0.000000 0.000000 0.000000
0.285024 0.341202 2.669069 0.000000 0.000000 0.000000
0.276045 0.308270 2.680810 0.000000 0.000000 0.000000
0.403223 0.379887 2.446079 0.000000 0.000000 0.000000
0.302710 0.364333 2.658265 0.000000 0.000000 0.000000
0.414211 0.369126 2.435035 0.000000 0.000000 0.000000
0.402155 0.390884 2.452756 0.000000 0.000000 0.000000
0.328205 0.329451 2.635712 0.000000 0.000000 0.000000
0.310203 0.367035 2.639910 0.000000 0.000000 0.000000
0.473799 0.296725 2.430472 0.000000 0.000000 0.000000
0.411315 0.376725 2.435678 0.000000 0.000000 0.000000
0.407258 0.380247 2.439626 0.000000 0.000000 0.000000
0.301620 0.358607 2.669859 0.000000 0.000000 0.000000
0.422092 0.366638 2.437526 0.000000 0.000000 0.000000
0.402059 0.189648 2.581957 0.000000 0.000000 0.000000
0.323633 0.350465 2.630722 0.000000 0.000000 0.000000
0.500484 0.189137 2.474595 0.000000 0.000000 0.000000
0.519409 0.266099 2.440813 0.000000 0.000000 0.000000
0.336155 0.439754 2.505968 0.000000 0.000000 0.000000
0.282409 0.321057 2.685201 0.000000 0.000000 0.000000
0.319772 0.436435 2.530872 0.000000 0.000000 0.000000
0.397603 0.303261 2.540060 0.000000 0.000000 0.000000
0.392230 0.287073 2.565643 0.000000 0.000000 0.000000
0.400126 0.262576 2.575139 0.000000 0.000000 0.000000
0.428333 0.351924 2.427928 0.000000 0.000000 0.000000
0.290000 0.431605 2.567451 0.000000 0.000000 0.000000
0.322905 0.227529 2.652995 0.000000 0.000000 0.000000
0.421486 0.183983 2.556774 0.000000 0.000000 0.000000
0.393191 0.243281 2.574200 0.000000 0.000000 0.000000
0.304775 0.423426 2.567456 0.000000 0.000000 0.000000
0.366587 0.338104 2.545275 0.000000 0.000000 0.000000
0.295946 0.432919 2.565342 0.000000 0.000000 0.000000
0.408479 0.203763 2.571077 0.000000 0.000000 0.000000
0.373488 0.320999 2.566033 0.000000 0.000000 0.000000
0.285548 0.406989 2.623480 0.000000 0.000000 0.000000
0.535003 0.203123 2.445025 0.000000 0.000000 0.000000
0.539419 0.205891 2.442898 0.000000 0.000000 0.000000
0.536350 0.202776 2.446328 0.000000 0.000000 0.000000
0.415122 0.183036 2.560745 0.000000 0.000000 0.000000
0.434282 0.345517 2.428665 0.000000 0.000000 0.000000
0.428962 0.342281 2.432461 0.000000 0.000000 0.000000
0.330626 0.270726 2.639593 0.000000 0.000000 0.000000
0.331339 0.260245 2.670290 0.000000 0.000000 0.000000
0.460722 0.298698 2.447946 0.000000 0.000000 0.000000
0.434651 0.325646 2.443956 0.000000 0.000000 0.000000
0.460734 0.301030 2.453511 0.000000 0.000000 0.000000
0.477742 0.297380 2.430521 0.000000 0.000000 0.000000
0.478485 0.293329 2.441981 0.000000 0.000000 0.000000
0.467459 0.220877 2.497425 0.000000 0.000000 0.000000
0.317088 0.286530 2.645836 0.000000 0.000000 0.000000
0.369511 0.210424 2.610016 0.000000 0.000000 0.000000
0.322815 0.303777 2.639106 0.000000 0.000000 0.000000
0.295629 0.398902 2.620555 0.000000 0.000000 0.000000
0.319076 0.288302 2.662138 0.000000 0.000000 0.000000
0.477508 0.295137 2.437746 0.000000 0.000000 0.000000
0.484411 0.289963 2.441629 0.000000 0.000000 0.000000
0.288135 0.389499 2.651968 0.000000 0.000000 0.000000
0.277601 0.411816 2.627487 0.000000 0.000000 0.000000
0.319453 0.276171 2.650552 0.000000 0.000000 0.000000
0.434599 0.324288 2.448112 0.000000 0.000000 0.000000
0.318575 0.306449 2.655491 0.000000 0.000000 0.000000
0.461305 0.300164 2.448278 0.000000 0.000000 0.000000
0.281282 0.400183 2.629056 0.000000 0.000000 0.000000
0.474558 0.295646 2.442786 0.000000 0.000000 0.000000
0.276977 0.414570 2.627764 0.000000 0.000000 0.000000
0.320438 0.235834 2.662416 0.000000 0.000000 0.000000
0.317628 0.233647 2.662111 0.000000 0.000000 0.000000
0.319938 0.277457 2.654183 0.000000 0.000000 0.000000
0.423601 0.186376 2.557595 0.000000 0.000000 0.000000
0.355797 0.307144 2.597155 0.000000 0.000000 0.000000
0.394388 0.200178 2.594278 0.000000 0.000000 0.000000
0.534338 0.229533 2.434740 0.000000 0.000000 0.000000
0.337367 0.441963 2.498089 0.000000 0.000000 0.000000
0.300784 0.341789 2.676656 0.000000 0.000000 0.000000
0.287961 0.321738 2.683547 0.000000 0.000000 0.000000
0.278390 0.413484 2.620849 0.000000 0.000000 0.000000
0.287529 0.407668 2.622422 0.000000 0.000000 0.000000
0.291880 0.404145 2.619219 0.000000 0.000000 0.000000
0.292573 0.321102 2.685120 0.000000 0.000000 0.000000
0.288740 0.309845 2.678727 0.000000 0.000000 0.000000
0.367990 0.336896 2.547457 0.000000 0.000000 0.000000
0.294901 0.317214 2.676880 0.000000 0.000000 0.000000
0.275055 0.411598 2.625449 0.000000 0.000000 0.000000
0.296933 0.376704 2.659573 0.000000 0.000000 0.000000
0.283690 0.317254 2.679286 0.000000 0.000000 0.000000
0.327287 0.242589 2.656163 0.000000 0.000000 0.000000
0.329332 0.230776 2.651981 0.000000 0.000000 0.000000
0.314885 0.297046 2.651525 0.000000 0.000000 0.000000
0.323847 0.236130 2.661038 0.000000 0.000000 0.000000
0.425538 0.181213 2.550836 0.000000 0.000000 0.000000
0.354847 0.275635 2.612490 0.000000 0.000000 0.000000
0.392338 0.198029 2.599832 0.000000 0.000000 0.000000
0.406067 0.192674 2.572221 0.000000 0.000000 0.000000
0.286511 0.326407 2.677740 0.000000 0.000000 0.000000
0.334944 0.443909 2.504130 0.000000 0.000000 0.000000
0.357350 0.417538 2.498898 0.000000 0.000000 0.000000
0.530178 0.197228 2.449529 0.000000 0.000000 0.000000
0.414426 0.183389 2.569529 0.000000 0.000000 0.000000
0.300203 0.334110 2.671373 0.000000 0.000000 0.000000
0.297226 0.439942 2.543896 0.000000 0.000000 0.000000
0.286296 0.433984 2.567655 0.000000 0.000000 0.000000
0.355682 0.402064 2.518822 0.000000 0.000000 0.000000
0.523470 0.195148 2.455425 0.000000 0.000000 0.000000
0.291853 0.327680 2.681391 0.000000 0.000000 0.000000
0.321557 0.427745 2.535781 0.000000 0.000000 0.000000
0.294089 0.423040 2.579394 0.000000 0.000000 0.000000
0.410394 0.189505 2.562289 0.000000 0.000000 0.000000
0.438510 0.333843 2.422172 0.000000 0.000000 0.000000
0.396394 0.204175 2.586990 0.000000 0.000000 0.000000
0.284300 0.408016 2.629875 0.000000 0.000000 0.000000
0.295380 0.320498 2.673809 0.000000 0.000000 0.000000
0.332977 0.442647 2.507330 0.000000 0.000000 0.000000
0.279310 0.413920 2.621037 0.000000 0.000000 0.000000
0.319449 0.289280 2.659021 0.000000 0.000000 0.000000
0.287115 0.399074 2.642571 0.000000 0.000000 0.000000
0.296220 0.334917 2.679039 0.000000 0.000000 0.000000
0.346845 0.437505 2.501434 0.000000 0.000000 0.000000
0.441113 0.329958 2.433315 0.000000 0.000000 0.000000
0.293662 0.440455 2.549589 0.000000 0.000000 0.000000
0.520174 0.253166 2.438607 0.000000 0.000000 0.000000
0.479462 0.184999 2.495162 0.000000 0.000000 0.000000
0.318068 0.349640 2.647250 0.000000 0.000000 0.000000
0.296441 0.276927 2.676916 0.000000 0.000000 0.000000
0.303590 0.277445 2.675590 0.000000 0.000000 0.000000
0.389773 0.252881 2.591958 0.000000 0.000000 0.000000
0.301208 0.436876 2.550184 0.000000 0.000000 0.000000
0.529230 0.217181 2.446498 0.000000 0.000000 0.000000
0.401342 0.188577 2.590147 0.000000 0.000000 0.000000
0.536662 0.238211 2.436670 0.000000 0.000000 0.000000
0.427848 0.357363 2.438046 0.000000 0.000000 0.000000
0.303189 0.256580 2.679476 0.000000 0.000000 0.000000
0.291908 0.340661 2.683718 0.000000 0.000000 0.000000
0.375997 0.280190 2.596462 0.000000 0.000000 0.000000
0.323398 0.339809 2.647281 0.000000 0.000000 0.000000
0.339453 0.425910 2.518981 0.000000 0.000000 0.000000
0.337629 0.423454 2.517001 0.000000 0.000000 0.000000
0.336858 0.435880 2.506551 0.000000 0.000000 0.000000
0.292709 0.407364 2.611899 0.000000 0.000000 0.000000
0.282791 0.404610 2.639443 0.000000 0.000000 0.000000
0.407676 0.371897 2.440646 0.000000 0.000000 0.000000
0.399271 0.385003 2.443550 0.000000 0.000000 0.000000
0.283519 0.347264 2.687229 0.000000 0.000000 0.000000
0.292702 0.406091 2.606874 0.000000 0.000000 0.000000
0.415561 0.368387 2.431942 0.000000 0.000000 0.000000
0.431225 0.353199 2.427245 0.000000 0.000000 0.000000
0.393362 0.252906 2.571149 0.000000 0.000000 0.000000
0.361966 0.265829 2.601397 0.000000 0.000000 0.000000
0.282792 0.411086 2.625083 0.000000 0.000000 0.000000
0.323078 0.225818 2.657760 0.000000 0.000000 0.000000
0.377184 0.274349 2.584176 0.000000 0.000000 0.000000
0.310266 0.255550 2.667839 0.000000 0.000000 0.000000
0.379940 0.279358 2.578405 0.000000 0.000000 0.000000
0.330553 0.430681 2.518966 0.000000 0.000000 0.000000
0.349086 0.431821 2.493646 0.000000 0.000000 0.000000
0.301785 0.275345 2.683523 0.000000 0.000000 0.000000
0.378029 0.273893 2.586394 0.000000 0.000000 0.000000
0.281141 0.405702 2.614583 0.000000 0.000000 0.000000
0.422949 0.351735 2.438786 0.000000 0.000000 0.000000
0.344540 0.438453 2.498499 0.000000 0.000000 0.000000
0.421190 0.359279 2.431595 0.000000 0.000000 0.000000
0.408817 0.363059 2.454339 0.000000 0.000000 0.000000
0.292490 0.404682 2.621103 0.000000 0.000000 0.000000
0.323659 0.338157 2.640545 0.000000 0.000000 0.000000
0.293182 0.403604 2.621813 0.000000 0.000000 0.000000
0.415041 0.365360 2.432773 0.000000 0.000000 0.000000
0.417813 0.375076 2.431790 0.000000 0.000000 0.000000
0.405222 0.255272 2.560203 0.000000 0.000000 0.000000
0.375154 0.271750 2.587415 0.000000 0.000000 0.000000
0.278527 0.407179 2.630676 0.000000 0.000000 0.000000
0.289780 0.415965 2.597644 0.000000 0.000000 0.000000
0.284843 0.386188 2.664234 0.000000 0.000000 0.000000
0.408608 0.390351 2.432179 0.000000 0.000000 0.000000
0.399112 0.187574 2.596621 0.000000 0.000000 0.000000
0.532935 0.241505 2.434296 0.000000 0.000000 0.000000
0.343977 0.283655 2.617706 0.000000 0.000000 0.000000
0.319586 0.344228 2.647837 0.000000 0.000000 0.000000
0.365406 0.425137 2.476446 0.000000 0.000000 0.000000
0.420429 0.183918 2.560428 0.000000 0.000000 0.000000
0.522109 0.229608 2.444290 0.000000 0.000000 0.000000
0.313713 0.352094 2.642142 0.000000 0.000000 0.000000
0.288012 0.324551 2.686386 0.000000 0.000000 0.000000
0.352455 0.291514 2.602869 0.000000 0.000000 0.000000
0.340346 0.444798 2.499140 0.000000 0.000000 0.000000
0.326052 0.229880 2.656481 0.000000 0.000000 0.000000
0.409620 0.326321 2.484418 0.000000 0.000000 0.000000
0.412322 0.381160 2.448982 0.000000 0.000000 0.000000
0.404528 0.347693 2.486913 0.000000 0.000000 0.000000
0.409860 0.295011 2.531522 0.000000 0.000000 0.000000
0.404398 0.356401 2.478029 0.000000 0.000000 0.000000
0.317493 0.343701 2.640519 0.000000 0.000000 0.000000
0.333252 0.332660 2.626271 0.000000 0.000000 0.000000
0.293329 0.340573 2.681459 0.000000 0.000000 0.000000
0.398563 0.261659 2.563832 0.000000 0.000000 0.000000
0.507097 0.282853 2.439042 0.000000 0.000000 0.000000
0.420377 0.367936 2.448955 0.000000 0.000000 0.000000
0.427843 0.302618 2.520497 0.000000 0.000000 0.000000
0.410011 0.345276 2.464128 0.000000 0.000000 0.000000
0.324707 0.321180 2.649755 0.000000 0.000000 0.000000
0.325640 0.339186 2.631120 0.000000 0.000000 0.000000
0.289581 0.314691 2.675850 0.000000 0.000000 0.000000
0.327796 0.274845 2.661884 0.000000 0.000000 0.000000
0.276971 0.337499 2.688539 0.000000 0.000000 0.000000
0.520452 0.221703 2.443279 0.000000 0.000000 0.000000
0.315352 0.245598 2.664718 0.000000 0.000000 0.000000
0.432292 0.188199 2.541958 0.000000 0.000000 0.000000
0.300420 0.276169 2.680504 0.000000 0.000000 0.000000
0.459772 0.191495 2.509270 0.000000 0.000000 0.000000
0.367244 0.416480 2.483952 0.000000 0.000000 0.000000
0.485431 0.184960 2.490481 0.000000 0.000000 0.000000
0.457231 0.199226 2.518006 0.000000 0.000000 0.000000
0.478107 0.182472 2.494310 0.000000 0.000000 0.000000
0.471531 0.198058 2.503002 0.000000 0.000000 0.000000
0.477698 0.199639 2.487880 0.000000 0.000000 0.000000
0.466375 0.186805 2.505034 0.000000 0.000000 0.000000
0.477479 0.191563 2.485039 0.000000 0.000000 0.000000
0.291071 0.336258 2.680999 0.000000 0.000000 0.000000
0.318182 0.297115 2.645491 0.000000 0.000000 0.000000
0.519389 0.214601 2.454985 0.000000 0.000000 0.000000
0.489949 0.183080 2.485026 0.000000 0.000000 0.000000
0.462840 0.189212 2.516030 0.000000 0.000000 0.000000
0.426434 0.338865 2.429998 0.000000 0.000000 0.000000
0.279123 0.415111 2.615440 0.000000 0.000000 0.000000
0.284195 0.411030 2.620694 0.000000 0.000000 0.000000
0.347733 0.227845 2.629790 0.000000 0.000000 0.000000
0.341400 0.220035 2.637582 0.000000 0.000000 0.000000
0.370213 0.408182 2.491571 0.000000 0.000000 0.000000
0.285879 0.383323 2.662345 0.000000 0.000000 0.000000
0.285336 0.391254 2.650732 0.000000 0.000000 0.000000
0.285444 0.415418 2.607652 0.000000 0.000000 0.000000
0.294354 0.372980 2.677796 0.000000 0.000000 0.000000
0.281573 0.394307 2.661958 0.000000 0.000000 0.000000
0.280713 0.399132 2.656172 0.000000 0.000000 0.000000
0.289851 0.406245 2.622132 0.000000 0.000000 0.000000
0.433840 0.180915 2.541517 0.000000 0.000000 0.000000
0.333789 0.297527 2.630814 0.000000 0.000000 0.000000
0.329766 0.443507 2.509552 0.000000 0.000000 0.000000
0.511529 0.193045 2.466517 0.000000 0.000000 0.000000
0.320870 0.288750 2.671942 0.000000 0.000000 0.000000
0.297912 0.415787 2.590341 0.000000 0.000000 0.000000
0.519266 0.250350 2.440338 0.000000 0.000000 0.000000
0.422011 0.358129 2.429541 0.000000 0.000000 0.000000
0.391467 0.191066 2.606979 0.000000 0.000000 0.000000
0.402788 0.186242 2.594724 0.000000 0.000000 0.000000
0.367310 0.313875 2.570173 0.000000 0.000000 0.000000
0.379678 0.254056 2.595454 0.000000 0.000000 0.000000
0.400187 0.199387 2.585843 0.000000 0.000000 0.000000
0.375076 0.337309 2.548940 0.000000 0.000000 0.000000
0.420160 0.233582 2.540725 0.000000 0.000000 0.000000
0.376965 0.327107 2.540761 0.000000 0.000000 0.000000
0.392470 0.306959 2.520987 0.000000 0.000000 0.000000
0.372853 0.317054 2.559512 0.000000 0.000000 0.000000
0.441398 0.257455 2.516083 0.000000 0.000000 0.000000
0.320376 0.302169 2.646250 0.000000 0.000000 0.000000
0.487054 0.244622 2.473500 0.000000 0.000000 0.000000
0.438851 0.234149 2.531968 0.000000 0.000000 0.000000
0.342452 0.306713 2.612143 0.000000 0.000000 0.000000
0.361935 0.319261 2.580164 0.000000 0.000000 0.000000
0.366829 0.275180 2.599429 0.000000 0.000000 0.000000
0.353447 0.262610 2.609067 0.000000 0.000000 0.000000
0.387981 0.206469 2.599952 0.000000 0.000000 0.000000
0.421039 0.257044 2.538663 0.000000 0.000000 0.000000
0.389578 0.305593 2.538718 0.000000 0.000000 0.000000
0.349331 0.343251 2.581960 0.000000 0.000000 0.000000
0.430948 0.283782 2.500154 0.000000 0.000000 0.000000
0.365431 0.298827 2.589351 0.000000 0.000000 0.000000
0.314806 0.350787 2.660398 0.000000 0.000000 0.000000
0.377494 0.199793 2.618242 0.000000 0.000000 0.000000
0.449809 0.209386 2.514718 0.000000 0.000000 0.000000
0.433106 0.328672 2.422046 0.000000 0.000000 0.000000
0.473358 0.234825 2.491511 0.000000 0.000000 0.000000
0.425092 0.254716 2.539293 0.000000 0.000000 0.000000
0.299273 0.266728 2.680796 0.000000 0.000000 0.000000
0.531448 0.205818 2.449377 0.000000 0.000000 0.000000
0.504326 0.278005 2.439861 0.000000 0.000000 0.000000
0.502828 0.187052 2.471977 0.000000 0.000000 0.000000
0.359697 0.223191 2.617053 0.000000 0.000000 0.000000
0.539050 0.231053 2.435398 0.000000 0.000000 0.000000
0.409515 0.183886 2.570673 0.000000 0.000000 0.000000
0.530402 0.230792 2.435731 0.000000 0.000000 0.000000
0.400875 0.189691 2.591413 0.000000 0.000000 0.000000
0.406463 0.186115 2.582609 0.000000 0.000000 0.000000
0.361038 0.200966 2.637533 0.000000 0.000000 0.000000
0.341620 0.229519 2.625462 0.000000 0.000000 0.000000
0.384157 0.303427 2.556818 0.000000 0.000000 0.000000
0.378999 0.197778 2.615487 0.000000 0.000000 0.000000
0.355402 0.224865 2.622670 0.000000 0.000000 0.000000
0.286663 0.317963 2.671665 0.000000 0.000000 0.000000
0.294673 0.329111 2.676293 0.000000 0.000000 0.000000
0.318049 0.297097 2.659572 0.000000 0.000000 0.000000
0.471923 0.292322 2.449246 0.000000 0.000000 0.000000
0.369642 0.261404 2.593980 0.000000 0.000000 0.000000
0.298498 0.370268 2.671767 0.000000 0.000000 0.000000
0.370630 0.214050 2.601285 0.000000 0.000000 0.000000
0.540741 0.219317 2.439379 0.000000 0.000000 0.000000
0.486920 0.289737 2.450518 0.000000 0.000000 0.000000
0.333400 0.257397 2.641195 0.000000 0.000000 0.000000
0.380575 0.336296 2.523022 0.000000 0.000000 0.000000
0.360434 0.214104 2.626378 0.000000 0.000000 0.000000
0.382375 0.197548 2.611864 0.000000 0.000000 0.000000
0.292073 0.327433 2.676146 0.000000 0.000000 0.000000
0.297877 0.330037 2.674223 0.000000 0.000000 0.000000
0.317937 0.293459 2.656545 0.000000 0.000000 0.000000
0.474604 0.291698 2.456361 0.000000 0.000000 0.000000
0.292428 0.376294 2.673625 0.000000 0.000000 0.000000
0.404317 0.393028 2.439266 0.000000 0.000000 0.000000
0.542390 0.225718 2.432967 0.000000 0.000000 0.000000
0.285934 0.262561 2.690258 0.000000 0.000000 0.000000
0.361765 0.303743 2.581362 0.000000 0.000000 0.000000
0.530621 0.250101 2.448942 0.000000 0.000000 0.000000
0.374786 0.207376 2.619717 0.000000 0.000000 0.000000
0.415928 0.358978 2.456352 0.000000 0.000000 0.000000
0.280875 0.428519 2.586230 0.000000 0.000000 0.000000
0.415997 0.373071 2.454440 0.000000 0.000000 0.000000
0.539048 0.217422 2.441066 0.000000 0.000000 0.000000
0.472156 0.187969 2.489171 0.000000 0.000000 0.000000
0.398765 0.397327 2.445266 0.000000 0.000000 0.000000
0.288700 0.310119 2.678877 0.000000 0.000000 0.000000
0.332816 0.221827 2.648463 0.000000 0.000000 0.000000
0.289770 0.329168 2.679684 0.000000 0.000000 0.000000
0.434108 0.335017 2.434149 0.000000 0.000000 0.000000
0.342841 0.300346 2.612848 0.000000 0.000000 0.000000
0.380048 0.300336 2.578686 0.000000 0.000000 0.000000
0.303997 0.276180 2.676334 0.000000 0.000000 0.000000
0.364923 0.309346 2.586491 0.000000 0.000000 0.000000
0.286617 0.311795 2.685247 0.000000 0.000000 0.000000
0.369592 0.272414 2.589950 0.000000 0.000000 0.000000
0.529628 0.232182 2.445877 0.000000 0.000000 0.000000
0.417930 0.371353 2.443914 0.000000 0.000000 0.000000
0.527515 0.200424 2.449733 0.000000 0.000000 0.000000
0.352066 0.348756 2.566122 0.000000 0.000000 0.000000
0.278047 0.325192 2.680020 0.000000 0.000000 0.000000
0.325797 0.239560 2.666947 0.000000 0.000000 0.000000
0.288451 0.328818 2.684610 0.000000 0.000000 0.000000
0.288058 0.279682 2.681169 0.000000 0.000000 0.000000
0.296173 0.322750 2.667952 0.000000 0.000000 0.000000
0.294572 0.269085 2.681597 0.000000 0.000000 0.000000
0.292241 0.274103 2.686011 0.000000 0.000000 0.000000
0.398236 0.194082 2.587589 0.000000 0.000000 0.000000
0.449744 0.320294 2.436340 0.000000 0.000000 0.000000
0.280281 0.304593 2.681777 0.000000 0.000000 0.000000
0.369035 0.312070 2.570343 0.000000 0.000000 0.000000
0.528973 0.196585 2.450703 0.000000 0.000000 0.000000
0.453720 0.183137 2.520754 0.000000 0.000000 0.000000
0.345516 0.304274 2.608320 0.000000 0.000000 0.000000
0.437431 0.318513 2.441627 0.000000 0.000000 0.000000
0.319911 0.244888 2.676188 0.000000 0.000000 0.000000
0.363720 0.295655 2.619187 0.000000 0.000000 0.000000
0.534872 0.236300 2.435051 0.000000 0.000000 0.000000
0.406538 0.184868 2.576910 0.000000 0.000000 0.000000
0.365646 0.215720 2.628060 0.000000 0.000000 0.000000
0.537448 0.219226 2.443281 0.000000 0.000000 0.000000
0.398350 0.202554 2.581799 0.000000 0.000000 0.000000
0.377052 0.277683 2.574968 0.000000 0.000000 0.000000
0.297465 0.257950 2.685671 0.000000 0.000000 0.000000
0.435116 0.340570 2.429765 0.000000 0.000000 0.000000
0.422515 0.360077 2.437016 0.000000 0.000000 0.000000
0.469090 0.189623 2.504783 0.000000 0.000000 0.000000
0.343238 0.292483 2.613401 0.000000 0.000000 0.000000
0.317732 0.425561 2.547517 0.000000 0.000000 0.000000
0.377628 0.305115 2.571363 0.000000 0.000000 0.000000
0.282480 0.426947 2.584846 0.000000 0.000000 0.000000
0.392029 0.346333 2.500539 0.000000 0.000000 0.000000
0.314715 0.440683 2.524945 0.000000 0.000000 0.000000
0.343015 0.433803 2.501365 0.000000 0.000000 0.000000
0.397704 0.217371 2.577324 0.000000 0.000000 0.000000
0.304422 0.264191 2.675009 0.000000 0.000000 0.000000
0.422390 0.354488 2.430126 0.000000 0.000000 0.000000
0.429302 0.332736 2.442271 0.000000 0.000000 0.000000
0.447649 0.314044 2.434033 0.000000 0.000000 0.000000
0.448807 0.320667 2.428524 0.000000 0.000000 0.000000
0.308074 0.437476 2.539249 0.000000 0.000000 0.000000
0.392961 0.216484 2.603702 0.000000 0.000000 0.000000
0.312671 0.437178 2.534422 0.000000 0.000000 0.000000
0.377113 0.410620 2.474314 0.000000 0.000000 0.000000
0.481318 0.186403 2.492715 0.000000 0.000000 0.000000
0.374227 0.426236 2.467765 0.000000 0.000000 0.000000
0.288269 0.276973 2.682492 0.000000 0.000000 0.000000
0.381735 0.421002 2.461276 0.000000 0.000000 0.000000
0.297118 0.263038 2.682051 0.000000 0.000000 0.000000
0.380889 0.416634 2.464952 0.000000 0.000000 0.000000
0.388954 0.196267 2.610254 0.000000 0.000000 0.000000
0.442090 0.257975 2.515426 0.000000 0.000000 0.000000
0.278312 0.324906 2.688365 0.000000 0.000000 0.000000
0.354540 0.217286 2.626633 0.000000 0.000000 0.000000
0.299474 0.271904 2.679628 0.000000 0.000000 0.000000
0.369879 0.212942 2.618972 0.000000 0.000000 0.000000
0.320313 0.316709 2.656363 0.000000 0.000000 0.000000
0.425237 0.181433 2.553349 0.000000 0.000000 0.000000
0.441485 0.341343 2.423542 0.000000 0.000000 0.000000
0.375326 0.293135 2.580056 0.000000 0.000000 0.000000
0.301819 0.262354 2.675959 0.000000 0.000000 0.000000
0.368236 0.298094 2.581761 0.000000 0.000000 0.000000
0.419154 0.185432 2.561049 0.000000 0.000000 0.000000
