ply
format ascii 1.0
comment VCGLIB generated
obj_info Generated by SPFormer!
element vertex 884
property float x
property float y
property float z
property float nx
property float ny
property float nz
end_header
0.071138 0.122074 3.005020 0.000000 0.000000 0.000000
0.112355 0.082133 3.042186 0.000000 0.000000 0.000000
0.058808 0.086833 3.072582 0.000000 0.000000 0.000000
0.182214 0.115067 2.942657 0.000000 0.000000 0.000000
0.114703 0.121990 3.006987 0.000000 0.000000 0.000000
0.124938 0.225133 2.816952 0.000000 0.000000 0.000000
0.237564 0.203740 2.777551 0.000000 0.000000 0.000000
0.252103 0.134102 2.834098 0.000000 0.000000 0.000000
0.055497 0.217439 2.872350 0.000000 0.000000 0.000000
0.041584 0.166153 2.940934 0.000000 0.000000 0.000000
0.199950 0.119762 2.914301 0.000000 0.000000 0.000000
0.260090 0.109829 2.859477 0.000000 0.000000 0.000000
0.254909 0.178332 2.781593 0.000000 0.000000 0.000000
0.066988 0.113372 3.011075 0.000000 0.000000 0.000000
0.069584 0.269285 2.781833 0.000000 0.000000 0.000000
0.257523 0.156223 2.792968 0.000000 0.000000 0.000000
0.259309 0.144118 2.803276 0.000000 0.000000 0.000000
0.175330 0.194022 2.848939 0.000000 0.000000 0.000000
0.269188 0.116859 2.829986 0.000000 0.000000 0.000000
0.261033 0.158674 2.790769 0.000000 0.000000 0.000000
0.239439 0.234796 2.749653 0.000000 0.000000 0.000000
0.080954 0.082946 3.053508 0.000000 0.000000 0.000000
0.024476 0.185067 2.924068 0.000000 0.000000 0.000000
0.197180 0.082618 2.981240 0.000000 0.000000 0.000000
0.171948 0.099396 2.986090 0.000000 0.000000 0.000000
0.212649 0.099234 2.935357 0.000000 0.000000 0.000000
0.154384 0.214663 2.833803 0.000000 0.000000 0.000000
0.064316 0.090363 3.059548 0.000000 0.000000 0.000000
0.124270 0.084908 3.033573 0.000000 0.000000 0.000000
0.209112 0.100068 2.939765 0.000000 0.000000 0.000000
0.123696 0.239224 2.797159 0.000000 0.000000 0.000000
0.260893 0.187328 2.763357 0.000000 0.000000 0.000000
0.075702 0.092481 3.047332 0.000000 0.000000 0.000000
0.042745 0.166776 2.950199 0.000000 0.000000 0.000000
0.250821 0.198421 2.765854 0.000000 0.000000 0.000000
0.235933 0.106288 2.898783 0.000000 0.000000 0.000000
0.155736 0.220454 2.814930 0.000000 0.000000 0.000000
0.218639 0.195733 2.802503 0.000000 0.000000 0.000000
0.260678 0.188277 2.767181 0.000000 0.000000 0.000000
0.210212 0.091458 2.950483 0.000000 0.000000 0.000000
0.110754 0.092257 3.034270 0.000000 0.000000 0.000000
0.067816 0.248459 2.810451 0.000000 0.000000 0.000000
0.169390 0.087639 2.986274 0.000000 0.000000 0.000000
0.258598 0.198562 2.756778 0.000000 0.000000 0.000000
0.276256 0.109151 2.831133 0.000000 0.000000 0.000000
0.263912 0.155083 2.795232 0.000000 0.000000 0.000000
0.187352 0.091406 2.975746 0.000000 0.000000 0.000000
0.270944 0.193050 2.743101 0.000000 0.000000 0.000000
0.024176 0.191094 2.913518 0.000000 0.000000 0.000000
0.061176 0.083255 3.060688 0.000000 0.000000 0.000000
0.084940 0.089140 3.045700 0.000000 0.000000 0.000000
0.070317 0.089726 3.052977 0.000000 0.000000 0.000000
0.024547 0.138612 2.987404 0.000000 0.000000 0.000000
0.253935 0.155007 2.806064 0.000000 0.000000 0.000000
0.184070 0.192541 2.834352 0.000000 0.000000 0.000000
0.136648 0.110161 3.005272 0.000000 0.000000 0.000000
0.080928 0.095293 3.044761 0.000000 0.000000 0.000000
0.267190 0.146864 2.784041 0.000000 0.000000 0.000000
0.206145 0.079597 2.974416 0.000000 0.000000 0.000000
0.210551 0.300141 2.721325 0.000000 0.000000 0.000000
0.124609 0.085571 3.032180 0.000000 0.000000 0.000000
0.070401 0.282961 2.764682 0.000000 0.000000 0.000000
0.194769 0.078393 2.986497 0.000000 0.000000 0.000000
0.085476 0.089680 3.045045 0.000000 0.000000 0.000000
0.051979 0.115109 2.997655 0.000000 0.000000 0.000000
0.263989 0.134325 2.807236 0.000000 0.000000 0.000000
0.145997 0.195793 2.863129 0.000000 0.000000 0.000000
0.029791 0.130995 2.980189 0.000000 0.000000 0.000000
0.168383 0.186750 2.857642 0.000000 0.000000 0.000000
0.082090 0.106072 3.026848 0.000000 0.000000 0.000000
0.171989 0.144825 2.914769 0.000000 0.000000 0.000000
0.025359 0.204895 2.895575 0.000000 0.000000 0.000000
0.045132 0.156918 2.958764 0.000000 0.000000 0.000000
0.012533 0.202414 2.896019 0.000000 0.000000 0.000000
0.261404 0.170384 2.784188 0.000000 0.000000 0.000000
0.103171 0.075067 3.052064 0.000000 0.000000 0.000000
0.263105 0.157948 2.776094 0.000000 0.000000 0.000000
0.129878 0.105603 3.011801 0.000000 0.000000 0.000000
0.095858 0.088656 3.042145 0.000000 0.000000 0.000000
0.075629 0.276385 2.771727 0.000000 0.000000 0.000000
0.087618 0.083410 3.049126 0.000000 0.000000 0.000000
0.066636 0.095103 3.044586 0.000000 0.000000 0.000000
0.047434 0.242173 2.827710 0.000000 0.000000 0.000000
0.179996 0.283769 2.737499 0.000000 0.000000 0.000000
0.264372 0.161653 2.764931 0.000000 0.000000 0.000000
0.035060 0.184989 2.921859 0.000000 0.000000 0.000000
0.093311 0.094212 3.038421 0.000000 0.000000 0.000000
0.015622 0.198334 2.902857 0.000000 0.000000 0.000000
0.071831 0.268917 2.789457 0.000000 0.000000 0.000000
0.102124 0.080121 3.047449 0.000000 0.000000 0.000000
0.035217 0.100273 3.007310 0.000000 0.000000 0.000000
0.124618 0.086164 3.033203 0.000000 0.000000 0.000000
0.170990 0.293645 2.726261 0.000000 0.000000 0.000000
0.100836 0.078898 3.047883 0.000000 0.000000 0.000000
0.057130 0.092079 3.034365 0.000000 0.000000 0.000000
0.039400 0.132237 2.966050 0.000000 0.000000 0.000000
0.063948 0.082210 3.068583 0.000000 0.000000 0.000000
0.040738 0.121065 2.995319 0.000000 0.000000 0.000000
0.258525 0.152386 2.803902 0.000000 0.000000 0.000000
0.270906 0.111260 2.837813 0.000000 0.000000 0.000000
0.041396 0.118478 3.004883 0.000000 0.000000 0.000000
0.032138 0.182424 2.928883 0.000000 0.000000 0.000000
0.043895 0.109123 3.009819 0.000000 0.000000 0.000000
0.225161 0.128767 2.883003 0.000000 0.000000 0.000000
0.029041 0.135277 2.974515 0.000000 0.000000 0.000000
0.116599 0.090807 3.031212 0.000000 0.000000 0.000000
0.154481 0.208400 2.841240 0.000000 0.000000 0.000000
0.233110 0.139797 2.857523 0.000000 0.000000 0.000000
0.238627 0.112909 2.878980 0.000000 0.000000 0.000000
0.261768 0.167388 2.777071 0.000000 0.000000 0.000000
0.274572 0.105865 2.841827 0.000000 0.000000 0.000000
0.019878 0.197234 2.895350 0.000000 0.000000 0.000000
0.187368 0.128595 2.915847 0.000000 0.000000 0.000000
0.211121 0.210682 2.792600 0.000000 0.000000 0.000000
0.027537 0.154677 2.971336 0.000000 0.000000 0.000000
0.193035 0.133583 2.899161 0.000000 0.000000 0.000000
0.229160 0.189728 2.795075 0.000000 0.000000 0.000000
0.271009 0.121579 2.820748 0.000000 0.000000 0.000000
0.056642 0.082194 3.055046 0.000000 0.000000 0.000000
0.267388 0.198611 2.747339 0.000000 0.000000 0.000000
0.047488 0.193450 2.912087 0.000000 0.000000 0.000000
0.228950 0.126025 2.878047 0.000000 0.000000 0.000000
0.223252 0.121006 2.904242 0.000000 0.000000 0.000000
0.035860 0.107406 3.005498 0.000000 0.000000 0.000000
0.024496 0.223506 2.866889 0.000000 0.000000 0.000000
0.033327 0.199281 2.899672 0.000000 0.000000 0.000000
0.039519 0.111973 3.001032 0.000000 0.000000 0.000000
0.053674 0.117316 3.002793 0.000000 0.000000 0.000000
0.010439 0.220063 2.873816 0.000000 0.000000 0.000000
0.082009 0.079130 3.058988 0.000000 0.000000 0.000000
0.139026 0.176782 2.901615 0.000000 0.000000 0.000000
0.148123 0.102659 3.004686 0.000000 0.000000 0.000000
0.041834 0.231466 2.850670 0.000000 0.000000 0.000000
0.041882 0.216406 2.875235 0.000000 0.000000 0.000000
0.062973 0.084169 3.064055 0.000000 0.000000 0.000000
0.025813 0.250940 2.822956 0.000000 0.000000 0.000000
0.236163 0.121232 2.879426 0.000000 0.000000 0.000000
0.125526 0.130074 2.976396 0.000000 0.000000 0.000000
0.267447 0.164837 2.768873 0.000000 0.000000 0.000000
0.250420 0.251057 2.744706 0.000000 0.000000 0.000000
0.034152 0.114948 2.998121 0.000000 0.000000 0.000000
0.026914 0.140924 2.984081 0.000000 0.000000 0.000000
0.036219 0.166225 2.938539 0.000000 0.000000 0.000000
0.058614 0.090622 3.040957 0.000000 0.000000 0.000000
0.270787 0.192946 2.748887 0.000000 0.000000 0.000000
0.063206 0.096067 3.035506 0.000000 0.000000 0.000000
0.131261 0.139302 2.972922 0.000000 0.000000 0.000000
0.015820 0.176113 2.941078 0.000000 0.000000 0.000000
0.074594 0.099654 3.029182 0.000000 0.000000 0.000000
0.271214 0.187975 2.748612 0.000000 0.000000 0.000000
0.028349 0.128456 2.990626 0.000000 0.000000 0.000000
0.029859 0.208157 2.874652 0.000000 0.000000 0.000000
0.035284 0.260762 2.803972 0.000000 0.000000 0.000000
0.267518 0.182543 2.758130 0.000000 0.000000 0.000000
0.265337 0.230847 2.730522 0.000000 0.000000 0.000000
0.273548 0.203035 2.740263 0.000000 0.000000 0.000000
0.039638 0.127490 2.998697 0.000000 0.000000 0.000000
0.198997 0.287858 2.731352 0.000000 0.000000 0.000000
0.028794 0.211882 2.884674 0.000000 0.000000 0.000000
0.171001 0.282806 2.737596 0.000000 0.000000 0.000000
0.057080 0.255395 2.804790 0.000000 0.000000 0.000000
0.211169 0.289576 2.726480 0.000000 0.000000 0.000000
0.269782 0.128595 2.835730 0.000000 0.000000 0.000000
0.062538 0.092129 3.045084 0.000000 0.000000 0.000000
0.040011 0.259883 2.804170 0.000000 0.000000 0.000000
0.265082 0.117549 2.842247 0.000000 0.000000 0.000000
0.261967 0.145037 2.792275 0.000000 0.000000 0.000000
0.191009 0.085399 2.988141 0.000000 0.000000 0.000000
0.181012 0.130687 2.924779 0.000000 0.000000 0.000000
0.204630 0.185215 2.821843 0.000000 0.000000 0.000000
0.170676 0.215410 2.812554 0.000000 0.000000 0.000000
0.147305 0.148453 2.945407 0.000000 0.000000 0.000000
0.178570 0.218136 2.805939 0.000000 0.000000 0.000000
0.064794 0.187439 2.912313 0.000000 0.000000 0.000000
0.099397 0.237927 2.814151 0.000000 0.000000 0.000000
0.125577 0.140615 2.956667 0.000000 0.000000 0.000000
0.101339 0.174866 2.933717 0.000000 0.000000 0.000000
0.191326 0.285664 2.732923 0.000000 0.000000 0.000000
0.050193 0.159939 2.962393 0.000000 0.000000 0.000000
0.238183 0.105363 2.895307 0.000000 0.000000 0.000000
0.223738 0.131138 2.870610 0.000000 0.000000 0.000000
0.031237 0.150534 2.970517 0.000000 0.000000 0.000000
0.172005 0.272018 2.749125 0.000000 0.000000 0.000000
0.082688 0.188800 2.909467 0.000000 0.000000 0.000000
0.120581 0.229417 2.817109 0.000000 0.000000 0.000000
0.060977 0.170481 2.929265 0.000000 0.000000 0.000000
0.054874 0.176697 2.934456 0.000000 0.000000 0.000000
0.229015 0.134887 2.861953 0.000000 0.000000 0.000000
0.075775 0.210736 2.873925 0.000000 0.000000 0.000000
0.050374 0.166217 2.947696 0.000000 0.000000 0.000000
0.058451 0.115384 3.004940 0.000000 0.000000 0.000000
0.254297 0.116673 2.856539 0.000000 0.000000 0.000000
0.225603 0.113616 2.893685 0.000000 0.000000 0.000000
0.030383 0.168241 2.948144 0.000000 0.000000 0.000000
0.035567 0.228320 2.853916 0.000000 0.000000 0.000000
0.161395 0.228929 2.803277 0.000000 0.000000 0.000000
0.022048 0.248021 2.829120 0.000000 0.000000 0.000000
0.078543 0.143444 2.981611 0.000000 0.000000 0.000000
0.226577 0.097964 2.899844 0.000000 0.000000 0.000000
0.164916 0.258647 2.765567 0.000000 0.000000 0.000000
0.025267 0.182653 2.927607 0.000000 0.000000 0.000000
0.070052 0.169833 2.942371 0.000000 0.000000 0.000000
0.193284 0.134241 2.905539 0.000000 0.000000 0.000000
0.091129 0.219413 2.856123 0.000000 0.000000 0.000000
0.171831 0.234095 2.791271 0.000000 0.000000 0.000000
0.160876 0.142074 2.920275 0.000000 0.000000 0.000000
0.157787 0.111951 2.987903 0.000000 0.000000 0.000000
0.182095 0.114315 2.943349 0.000000 0.000000 0.000000
0.175016 0.155323 2.900264 0.000000 0.000000 0.000000
0.102880 0.199576 2.870538 0.000000 0.000000 0.000000
0.130257 0.117864 3.003671 0.000000 0.000000 0.000000
0.214184 0.143126 2.875616 0.000000 0.000000 0.000000
0.070032 0.149223 2.969265 0.000000 0.000000 0.000000
0.045490 0.161339 2.960493 0.000000 0.000000 0.000000
0.203135 0.196605 2.813777 0.000000 0.000000 0.000000
0.064434 0.249877 2.807883 0.000000 0.000000 0.000000
0.078690 0.235592 2.834762 0.000000 0.000000 0.000000
0.053075 0.262527 2.799486 0.000000 0.000000 0.000000
0.145641 0.126606 2.968457 0.000000 0.000000 0.000000
0.107642 0.221149 2.842353 0.000000 0.000000 0.000000
0.039311 0.184002 2.925915 0.000000 0.000000 0.000000
0.167145 0.164406 2.881333 0.000000 0.000000 0.000000
0.270506 0.127473 2.821178 0.000000 0.000000 0.000000
0.156260 0.136119 2.942624 0.000000 0.000000 0.000000
0.035372 0.196394 2.907671 0.000000 0.000000 0.000000
0.063099 0.146367 2.981141 0.000000 0.000000 0.000000
0.071535 0.276503 2.776176 0.000000 0.000000 0.000000
0.108503 0.137281 2.981215 0.000000 0.000000 0.000000
0.152620 0.108012 2.991533 0.000000 0.000000 0.000000
0.219295 0.095761 2.936274 0.000000 0.000000 0.000000
0.069343 0.082495 3.055215 0.000000 0.000000 0.000000
0.066780 0.165414 2.945951 0.000000 0.000000 0.000000
0.218844 0.223000 2.783466 0.000000 0.000000 0.000000
0.117743 0.168654 2.933364 0.000000 0.000000 0.000000
0.160204 0.180504 2.867689 0.000000 0.000000 0.000000
0.254370 0.203361 2.762952 0.000000 0.000000 0.000000
0.105984 0.085017 3.042611 0.000000 0.000000 0.000000
0.155844 0.189180 2.878491 0.000000 0.000000 0.000000
0.232276 0.275625 2.729424 0.000000 0.000000 0.000000
0.153115 0.094190 3.007021 0.000000 0.000000 0.000000
0.201573 0.209950 2.806477 0.000000 0.000000 0.000000
0.105580 0.289110 2.751085 0.000000 0.000000 0.000000
0.232479 0.281192 2.733681 0.000000 0.000000 0.000000
0.205252 0.272090 2.741568 0.000000 0.000000 0.000000
0.112432 0.145886 2.973611 0.000000 0.000000 0.000000
0.184139 0.077880 2.998848 0.000000 0.000000 0.000000
0.173647 0.113973 2.960413 0.000000 0.000000 0.000000
0.204025 0.271630 2.748564 0.000000 0.000000 0.000000
0.054133 0.087532 3.039549 0.000000 0.000000 0.000000
0.205545 0.089863 2.945090 0.000000 0.000000 0.000000
0.150817 0.172431 2.902855 0.000000 0.000000 0.000000
0.151204 0.096932 3.007773 0.000000 0.000000 0.000000
0.259536 0.098570 2.878170 0.000000 0.000000 0.000000
0.162681 0.106228 2.990146 0.000000 0.000000 0.000000
0.192795 0.203708 2.817797 0.000000 0.000000 0.000000
0.191942 0.183884 2.838107 0.000000 0.000000 0.000000
0.231703 0.109603 2.895938 0.000000 0.000000 0.000000
0.186083 0.201242 2.821065 0.000000 0.000000 0.000000
0.076193 0.070801 3.064899 0.000000 0.000000 0.000000
0.208022 0.191035 2.822837 0.000000 0.000000 0.000000
0.248440 0.094944 2.907894 0.000000 0.000000 0.000000
0.007926 0.176189 2.932248 0.000000 0.000000 0.000000
0.028814 0.124558 2.995332 0.000000 0.000000 0.000000
0.179702 0.110612 2.960704 0.000000 0.000000 0.000000
0.226721 0.098123 2.926080 0.000000 0.000000 0.000000
0.103181 0.270076 2.776447 0.000000 0.000000 0.000000
0.045228 0.198496 2.899887 0.000000 0.000000 0.000000
0.268859 0.169296 2.764534 0.000000 0.000000 0.000000
0.216987 0.211787 2.785468 0.000000 0.000000 0.000000
0.249302 0.125574 2.849240 0.000000 0.000000 0.000000
0.130124 0.092957 3.019703 0.000000 0.000000 0.000000
0.022841 0.180229 2.933227 0.000000 0.000000 0.000000
0.243213 0.171122 2.800313 0.000000 0.000000 0.000000
0.138100 0.201300 2.865156 0.000000 0.000000 0.000000
0.146102 0.217843 2.835029 0.000000 0.000000 0.000000
0.183868 0.243520 2.780449 0.000000 0.000000 0.000000
0.052035 0.262800 2.799528 0.000000 0.000000 0.000000
0.097146 0.095901 3.038199 0.000000 0.000000 0.000000
0.029758 0.226995 2.858724 0.000000 0.000000 0.000000
0.274398 0.193911 2.751816 0.000000 0.000000 0.000000
0.068213 0.145419 2.979669 0.000000 0.000000 0.000000
0.139446 0.093562 3.016804 0.000000 0.000000 0.000000
0.236500 0.288888 2.727721 0.000000 0.000000 0.000000
0.148316 0.138429 2.962747 0.000000 0.000000 0.000000
0.170721 0.208146 2.832034 0.000000 0.000000 0.000000
0.085534 0.198229 2.889479 0.000000 0.000000 0.000000
0.054510 0.148640 2.965502 0.000000 0.000000 0.000000
0.242405 0.156632 2.813053 0.000000 0.000000 0.000000
0.097385 0.179389 2.921482 0.000000 0.000000 0.000000
0.206478 0.230571 2.783025 0.000000 0.000000 0.000000
0.154152 0.199562 2.850987 0.000000 0.000000 0.000000
0.211043 0.237519 2.770695 0.000000 0.000000 0.000000
0.138812 0.146641 2.960695 0.000000 0.000000 0.000000
0.179528 0.265732 2.755632 0.000000 0.000000 0.000000
0.150363 0.267393 2.759140 0.000000 0.000000 0.000000
0.163110 0.145654 2.929003 0.000000 0.000000 0.000000
0.095468 0.190795 2.899043 0.000000 0.000000 0.000000
0.113299 0.239652 2.796569 0.000000 0.000000 0.000000
0.071528 0.195810 2.892587 0.000000 0.000000 0.000000
0.107702 0.171236 2.932526 0.000000 0.000000 0.000000
0.234969 0.106161 2.894161 0.000000 0.000000 0.000000
0.114098 0.219796 2.844365 0.000000 0.000000 0.000000
0.091594 0.126030 2.990765 0.000000 0.000000 0.000000
0.062167 0.100964 3.022862 0.000000 0.000000 0.000000
0.175956 0.114822 2.942104 0.000000 0.000000 0.000000
0.231989 0.106244 2.901696 0.000000 0.000000 0.000000
0.164685 0.111667 2.975265 0.000000 0.000000 0.000000
0.037042 0.161627 2.948210 0.000000 0.000000 0.000000
0.154273 0.107059 2.998542 0.000000 0.000000 0.000000
0.035055 0.237160 2.841861 0.000000 0.000000 0.000000
0.068849 0.214959 2.848461 0.000000 0.000000 0.000000
0.118938 0.102450 3.017926 0.000000 0.000000 0.000000
0.040132 0.131176 2.988890 0.000000 0.000000 0.000000
0.012228 0.190763 2.915105 0.000000 0.000000 0.000000
0.081884 0.158457 2.939639 0.000000 0.000000 0.000000
0.254526 0.106192 2.877063 0.000000 0.000000 0.000000
0.209547 0.208109 2.799695 0.000000 0.000000 0.000000
0.252142 0.161251 2.799110 0.000000 0.000000 0.000000
0.184615 0.153310 2.883375 0.000000 0.000000 0.000000
0.138049 0.222740 2.831367 0.000000 0.000000 0.000000
0.171752 0.242091 2.781841 0.000000 0.000000 0.000000
0.104926 0.182486 2.910961 0.000000 0.000000 0.000000
0.224098 0.224223 2.768707 0.000000 0.000000 0.000000
0.145788 0.102712 3.000391 0.000000 0.000000 0.000000
0.212773 0.142831 2.861764 0.000000 0.000000 0.000000
0.177253 0.164968 2.891400 0.000000 0.000000 0.000000
0.181392 0.160685 2.876913 0.000000 0.000000 0.000000
0.111358 0.104347 3.021373 0.000000 0.000000 0.000000
0.213234 0.131796 2.894665 0.000000 0.000000 0.000000
0.067669 0.148969 2.971965 0.000000 0.000000 0.000000
0.080638 0.159252 2.960238 0.000000 0.000000 0.000000
0.098452 0.172273 2.931739 0.000000 0.000000 0.000000
0.063379 0.257818 2.796764 0.000000 0.000000 0.000000
0.045029 0.208991 2.884907 0.000000 0.000000 0.000000
0.115844 0.186284 2.895059 0.000000 0.000000 0.000000
0.055232 0.171943 2.937148 0.000000 0.000000 0.000000
0.197776 0.171117 2.838821 0.000000 0.000000 0.000000
0.093266 0.223078 2.843266 0.000000 0.000000 0.000000
0.057879 0.160042 2.963242 0.000000 0.000000 0.000000
0.203902 0.184150 2.838167 0.000000 0.000000 0.000000
0.076813 0.163887 2.957079 0.000000 0.000000 0.000000
0.126017 0.149614 2.963555 0.000000 0.000000 0.000000
0.094152 0.276837 2.766224 0.000000 0.000000 0.000000
0.128891 0.102762 3.012985 0.000000 0.000000 0.000000
0.222869 0.110969 2.915437 0.000000 0.000000 0.000000
0.073919 0.095440 3.041361 0.000000 0.000000 0.000000
0.225676 0.091376 2.936761 0.000000 0.000000 0.000000
0.049918 0.163540 2.953369 0.000000 0.000000 0.000000
0.121159 0.284998 2.746444 0.000000 0.000000 0.000000
0.248643 0.194307 2.781248 0.000000 0.000000 0.000000
0.214858 0.228420 2.779983 0.000000 0.000000 0.000000
0.266710 0.198111 2.749135 0.000000 0.000000 0.000000
0.156483 0.195023 2.864392 0.000000 0.000000 0.000000
0.231159 0.258021 2.744497 0.000000 0.000000 0.000000
0.173410 0.191883 2.841075 0.000000 0.000000 0.000000
0.195312 0.195456 2.817456 0.000000 0.000000 0.000000
0.244711 0.112379 2.881579 0.000000 0.000000 0.000000
0.105320 0.270795 2.781555 0.000000 0.000000 0.000000
0.213641 0.291242 2.722939 0.000000 0.000000 0.000000
0.097230 0.131355 3.001604 0.000000 0.000000 0.000000
0.158313 0.100925 2.999650 0.000000 0.000000 0.000000
0.196446 0.222946 2.794076 0.000000 0.000000 0.000000
0.209083 0.080298 2.949899 0.000000 0.000000 0.000000
0.137988 0.155535 2.934146 0.000000 0.000000 0.000000
0.143308 0.212131 2.841779 0.000000 0.000000 0.000000
0.167603 0.086713 3.001591 0.000000 0.000000 0.000000
0.204057 0.192530 2.823165 0.000000 0.000000 0.000000
0.181017 0.189429 2.830735 0.000000 0.000000 0.000000
0.239258 0.100045 2.907895 0.000000 0.000000 0.000000
0.197652 0.133578 2.900854 0.000000 0.000000 0.000000
0.166387 0.219257 2.811729 0.000000 0.000000 0.000000
0.069684 0.110727 3.015967 0.000000 0.000000 0.000000
0.204567 0.197491 2.810688 0.000000 0.000000 0.000000
0.218853 0.284983 2.729618 0.000000 0.000000 0.000000
0.170753 0.083368 3.001459 0.000000 0.000000 0.000000
0.121392 0.220847 2.834236 0.000000 0.000000 0.000000
0.211717 0.282215 2.738173 0.000000 0.000000 0.000000
0.210648 0.086530 2.950812 0.000000 0.000000 0.000000
0.025490 0.155480 2.966673 0.000000 0.000000 0.000000
0.183973 0.250860 2.771647 0.000000 0.000000 0.000000
0.167884 0.155197 2.901964 0.000000 0.000000 0.000000
0.073544 0.130000 2.988054 0.000000 0.000000 0.000000
0.047063 0.204027 2.890028 0.000000 0.000000 0.000000
0.085080 0.176216 2.928749 0.000000 0.000000 0.000000
0.257933 0.252450 2.732121 0.000000 0.000000 0.000000
0.146161 0.080744 3.016710 0.000000 0.000000 0.000000
0.146726 0.205326 2.845266 0.000000 0.000000 0.000000
0.111803 0.217062 2.845405 0.000000 0.000000 0.000000
0.174102 0.253401 2.772211 0.000000 0.000000 0.000000
0.034526 0.139986 2.967697 0.000000 0.000000 0.000000
0.040323 0.250446 2.819911 0.000000 0.000000 0.000000
0.266129 0.179601 2.757240 0.000000 0.000000 0.000000
0.133217 0.126517 2.985729 0.000000 0.000000 0.000000
0.053656 0.139481 2.982171 0.000000 0.000000 0.000000
0.050661 0.261280 2.798468 0.000000 0.000000 0.000000
0.033461 0.124580 2.996188 0.000000 0.000000 0.000000
0.202658 0.113485 2.937895 0.000000 0.000000 0.000000
0.063308 0.253129 2.805712 0.000000 0.000000 0.000000
0.047073 0.257588 2.804341 0.000000 0.000000 0.000000
0.048880 0.263072 2.799228 0.000000 0.000000 0.000000
0.114518 0.292764 2.733729 0.000000 0.000000 0.000000
0.067703 0.082231 3.067525 0.000000 0.000000 0.000000
0.046454 0.259190 2.798359 0.000000 0.000000 0.000000
0.073181 0.082529 3.063027 0.000000 0.000000 0.000000
0.117948 0.132136 2.988514 0.000000 0.000000 0.000000
0.208225 0.278904 2.735746 0.000000 0.000000 0.000000
0.233193 0.147777 2.844059 0.000000 0.000000 0.000000
0.050534 0.274776 2.782748 0.000000 0.000000 0.000000
0.251784 0.088898 2.906381 0.000000 0.000000 0.000000
0.121767 0.080384 3.042352 0.000000 0.000000 0.000000
0.012330 0.189148 2.912641 0.000000 0.000000 0.000000
0.085143 0.271065 2.778302 0.000000 0.000000 0.000000
0.190034 0.287146 2.729656 0.000000 0.000000 0.000000
0.013051 0.185565 2.919267 0.000000 0.000000 0.000000
0.137129 0.263519 2.764868 0.000000 0.000000 0.000000
0.062664 0.279011 2.773321 0.000000 0.000000 0.000000
0.240326 0.092819 2.919030 0.000000 0.000000 0.000000
0.115024 0.089621 3.035833 0.000000 0.000000 0.000000
0.068012 0.178553 2.924876 0.000000 0.000000 0.000000
0.110163 0.184140 2.917537 0.000000 0.000000 0.000000
0.034043 0.148464 2.975907 0.000000 0.000000 0.000000
0.144148 0.158184 2.927724 0.000000 0.000000 0.000000
0.128260 0.086978 3.028042 0.000000 0.000000 0.000000
0.243267 0.137512 2.834864 0.000000 0.000000 0.000000
0.024168 0.147148 2.977352 0.000000 0.000000 0.000000
0.248555 0.125106 2.884847 0.000000 0.000000 0.000000
0.177786 0.286326 2.732939 0.000000 0.000000 0.000000
0.112287 0.122850 2.995983 0.000000 0.000000 0.000000
0.074055 0.174118 2.933702 0.000000 0.000000 0.000000
0.161739 0.144713 2.937846 0.000000 0.000000 0.000000
0.096396 0.116244 3.017986 0.000000 0.000000 0.000000
0.067386 0.274542 2.775982 0.000000 0.000000 0.000000
0.107447 0.118190 3.008098 0.000000 0.000000 0.000000
0.220446 0.283431 2.728938 0.000000 0.000000 0.000000
0.242768 0.137393 2.840447 0.000000 0.000000 0.000000
0.060336 0.100185 3.025668 0.000000 0.000000 0.000000
0.129643 0.109715 3.006274 0.000000 0.000000 0.000000
0.073016 0.277535 2.775094 0.000000 0.000000 0.000000
0.232134 0.086864 2.925294 0.000000 0.000000 0.000000
0.139992 0.100180 3.009659 0.000000 0.000000 0.000000
0.250752 0.240729 2.738045 0.000000 0.000000 0.000000
0.033823 0.209954 2.884036 0.000000 0.000000 0.000000
0.275531 0.112887 2.818941 0.000000 0.000000 0.000000
0.093147 0.181674 2.921829 0.000000 0.000000 0.000000
0.011315 0.189757 2.912071 0.000000 0.000000 0.000000
0.265972 0.160753 2.772501 0.000000 0.000000 0.000000
0.232871 0.095895 2.925564 0.000000 0.000000 0.000000
0.144577 0.115131 2.979248 0.000000 0.000000 0.000000
0.075659 0.182743 2.919601 0.000000 0.000000 0.000000
0.062188 0.164866 2.947357 0.000000 0.000000 0.000000
0.056671 0.155967 2.967861 0.000000 0.000000 0.000000
0.030363 0.144743 2.979737 0.000000 0.000000 0.000000
0.165524 0.099461 2.995239 0.000000 0.000000 0.000000
0.219175 0.134120 2.874692 0.000000 0.000000 0.000000
0.189501 0.286785 2.733953 0.000000 0.000000 0.000000
0.075547 0.209092 2.868042 0.000000 0.000000 0.000000
0.035123 0.191531 2.911309 0.000000 0.000000 0.000000
0.095497 0.282416 2.758306 0.000000 0.000000 0.000000
0.029901 0.249653 2.821081 0.000000 0.000000 0.000000
0.039092 0.239281 2.834964 0.000000 0.000000 0.000000
0.225595 0.093107 2.932709 0.000000 0.000000 0.000000
0.104380 0.113424 3.018892 0.000000 0.000000 0.000000
0.261528 0.112727 2.848370 0.000000 0.000000 0.000000
0.223014 0.280471 2.735061 0.000000 0.000000 0.000000
0.094732 0.085381 3.045058 0.000000 0.000000 0.000000
0.268020 0.206902 2.739044 0.000000 0.000000 0.000000
0.117801 0.192968 2.885310 0.000000 0.000000 0.000000
0.234287 0.167153 2.816287 0.000000 0.000000 0.000000
0.148135 0.294361 2.728947 0.000000 0.000000 0.000000
0.238054 0.281994 2.741784 0.000000 0.000000 0.000000
0.260340 0.230886 2.742508 0.000000 0.000000 0.000000
0.270295 0.137860 2.781959 0.000000 0.000000 0.000000
0.166515 0.112007 2.974536 0.000000 0.000000 0.000000
0.247848 0.156326 2.813996 0.000000 0.000000 0.000000
0.064453 0.252889 2.807437 0.000000 0.000000 0.000000
0.113173 0.094762 3.030648 0.000000 0.000000 0.000000
0.123335 0.090854 3.026361 0.000000 0.000000 0.000000
0.076809 0.279353 2.768038 0.000000 0.000000 0.000000
0.243432 0.146717 2.825123 0.000000 0.000000 0.000000
0.024923 0.213062 2.882340 0.000000 0.000000 0.000000
0.083102 0.114687 3.016025 0.000000 0.000000 0.000000
0.231902 0.292641 2.724767 0.000000 0.000000 0.000000
0.071074 0.263464 2.788468 0.000000 0.000000 0.000000
0.119239 0.189656 2.880682 0.000000 0.000000 0.000000
0.145203 0.081320 3.027570 0.000000 0.000000 0.000000
0.150592 0.282086 2.743783 0.000000 0.000000 0.000000
0.228242 0.287690 2.729923 0.000000 0.000000 0.000000
0.036095 0.156683 2.968219 0.000000 0.000000 0.000000
0.262877 0.102579 2.863585 0.000000 0.000000 0.000000
0.270493 0.155548 2.764262 0.000000 0.000000 0.000000
0.073655 0.129182 2.994668 0.000000 0.000000 0.000000
0.077257 0.276557 2.778689 0.000000 0.000000 0.000000
0.262637 0.102603 2.865023 0.000000 0.000000 0.000000
0.158828 0.116376 2.970288 0.000000 0.000000 0.000000
0.118521 0.081763 3.040568 0.000000 0.000000 0.000000
0.176629 0.083518 3.003495 0.000000 0.000000 0.000000
0.129580 0.091439 3.022488 0.000000 0.000000 0.000000
0.087008 0.281014 2.763694 0.000000 0.000000 0.000000
0.080143 0.285674 2.759748 0.000000 0.000000 0.000000
0.104099 0.075657 3.051333 0.000000 0.000000 0.000000
0.220506 0.111777 2.911571 0.000000 0.000000 0.000000
0.069113 0.093851 3.043689 0.000000 0.000000 0.000000
0.121973 0.076767 3.046955 0.000000 0.000000 0.000000
0.153214 0.285299 2.736465 0.000000 0.000000 0.000000
0.270719 0.208775 2.744696 0.000000 0.000000 0.000000
0.080738 0.084997 3.052603 0.000000 0.000000 0.000000
0.082417 0.076454 3.060548 0.000000 0.000000 0.000000
0.089860 0.070981 3.056521 0.000000 0.000000 0.000000
0.264189 0.177093 2.772310 0.000000 0.000000 0.000000
0.134928 0.088498 3.027773 0.000000 0.000000 0.000000
0.165960 0.283930 2.746588 0.000000 0.000000 0.000000
0.166563 0.287018 2.739429 0.000000 0.000000 0.000000
0.079138 0.082540 3.057566 0.000000 0.000000 0.000000
0.185394 0.103439 2.958944 0.000000 0.000000 0.000000
0.074493 0.098982 3.033402 0.000000 0.000000 0.000000
0.168157 0.288666 2.733210 0.000000 0.000000 0.000000
0.005123 0.201595 2.892548 0.000000 0.000000 0.000000
0.083139 0.100193 3.035630 0.000000 0.000000 0.000000
0.275193 0.200683 2.741954 0.000000 0.000000 0.000000
0.066337 0.085754 3.059753 0.000000 0.000000 0.000000
0.070091 0.084139 3.056777 0.000000 0.000000 0.000000
0.028181 0.226838 2.860136 0.000000 0.000000 0.000000
0.090804 0.079823 3.053263 0.000000 0.000000 0.000000
0.033827 0.114119 3.001687 0.000000 0.000000 0.000000
0.035312 0.247813 2.822686 0.000000 0.000000 0.000000
0.090897 0.075637 3.056645 0.000000 0.000000 0.000000
0.121047 0.293387 2.731479 0.000000 0.000000 0.000000
0.173868 0.154517 2.895235 0.000000 0.000000 0.000000
0.023504 0.149050 2.976219 0.000000 0.000000 0.000000
0.263602 0.102085 2.865021 0.000000 0.000000 0.000000
0.053755 0.202142 2.896738 0.000000 0.000000 0.000000
0.253702 0.219472 2.747649 0.000000 0.000000 0.000000
0.106751 0.073740 3.056269 0.000000 0.000000 0.000000
0.209642 0.157165 2.863060 0.000000 0.000000 0.000000
0.146667 0.178871 2.894717 0.000000 0.000000 0.000000
0.052798 0.154371 2.968886 0.000000 0.000000 0.000000
0.028183 0.127732 2.989768 0.000000 0.000000 0.000000
0.087224 0.226734 2.847476 0.000000 0.000000 0.000000
0.182336 0.197874 2.833386 0.000000 0.000000 0.000000
0.034466 0.145614 2.983216 0.000000 0.000000 0.000000
0.137654 0.218801 2.843503 0.000000 0.000000 0.000000
0.043414 0.142491 2.985061 0.000000 0.000000 0.000000
0.116232 0.083939 3.039301 0.000000 0.000000 0.000000
0.267993 0.213785 2.733926 0.000000 0.000000 0.000000
0.269370 0.214170 2.731938 0.000000 0.000000 0.000000
0.008111 0.209017 2.885305 0.000000 0.000000 0.000000
0.257161 0.212520 2.755050 0.000000 0.000000 0.000000
0.267358 0.231288 2.737883 0.000000 0.000000 0.000000
0.109713 0.292769 2.738484 0.000000 0.000000 0.000000
0.164256 0.301548 2.716588 0.000000 0.000000 0.000000
0.103699 0.111069 3.026066 0.000000 0.000000 0.000000
0.272802 0.120012 2.815478 0.000000 0.000000 0.000000
0.032031 0.130839 2.985118 0.000000 0.000000 0.000000
0.268053 0.110029 2.842422 0.000000 0.000000 0.000000
0.238354 0.190951 2.784382 0.000000 0.000000 0.000000
0.028590 0.131450 2.994848 0.000000 0.000000 0.000000
0.226101 0.289066 2.723905 0.000000 0.000000 0.000000
0.070391 0.100947 3.025752 0.000000 0.000000 0.000000
0.080408 0.081135 3.059714 0.000000 0.000000 0.000000
0.274000 0.211137 2.739093 0.000000 0.000000 0.000000
0.251858 0.116074 2.894349 0.000000 0.000000 0.000000
0.260788 0.112537 2.850789 0.000000 0.000000 0.000000
0.207418 0.170414 2.835407 0.000000 0.000000 0.000000
0.111299 0.187351 2.901323 0.000000 0.000000 0.000000
0.028296 0.122771 2.998261 0.000000 0.000000 0.000000
0.089487 0.120146 3.015238 0.000000 0.000000 0.000000
0.230896 0.092677 2.954751 0.000000 0.000000 0.000000
0.256594 0.084252 2.911851 0.000000 0.000000 0.000000
0.270253 0.172882 2.757020 0.000000 0.000000 0.000000
0.186861 0.082315 2.991816 0.000000 0.000000 0.000000
0.183064 0.079732 2.997138 0.000000 0.000000 0.000000
0.008572 0.206202 2.889479 0.000000 0.000000 0.000000
0.266511 0.177486 2.765377 0.000000 0.000000 0.000000
0.262862 0.221916 2.742481 0.000000 0.000000 0.000000
0.252226 0.159428 2.796783 0.000000 0.000000 0.000000
0.252850 0.209674 2.768657 0.000000 0.000000 0.000000
0.273093 0.191667 2.743124 0.000000 0.000000 0.000000
0.061005 0.085905 3.053742 0.000000 0.000000 0.000000
0.219337 0.099815 2.931217 0.000000 0.000000 0.000000
0.142532 0.083627 3.035770 0.000000 0.000000 0.000000
0.271099 0.177984 2.756169 0.000000 0.000000 0.000000
0.158326 0.284357 2.741212 0.000000 0.000000 0.000000
0.253072 0.204883 2.761341 0.000000 0.000000 0.000000
0.050352 0.084729 3.061013 0.000000 0.000000 0.000000
0.270790 0.171641 2.762933 0.000000 0.000000 0.000000
0.025454 0.177965 2.936672 0.000000 0.000000 0.000000
0.268538 0.182041 2.757208 0.000000 0.000000 0.000000
0.255052 0.167816 2.784624 0.000000 0.000000 0.000000
0.265329 0.103608 2.851646 0.000000 0.000000 0.000000
0.265859 0.151175 2.778842 0.000000 0.000000 0.000000
0.222261 0.156546 2.839336 0.000000 0.000000 0.000000
0.232181 0.211378 2.777541 0.000000 0.000000 0.000000
0.186138 0.298599 2.721197 0.000000 0.000000 0.000000
0.121384 0.289589 2.739396 0.000000 0.000000 0.000000
0.123571 0.289074 2.737746 0.000000 0.000000 0.000000
0.178948 0.090981 2.995174 0.000000 0.000000 0.000000
0.270787 0.164732 2.757917 0.000000 0.000000 0.000000
0.261711 0.130654 2.821265 0.000000 0.000000 0.000000
0.193192 0.097286 2.963039 0.000000 0.000000 0.000000
0.053151 0.079002 3.045410 0.000000 0.000000 0.000000
0.140120 0.082269 3.028385 0.000000 0.000000 0.000000
0.032857 0.122915 2.988207 0.000000 0.000000 0.000000
0.151885 0.090917 3.011669 0.000000 0.000000 0.000000
0.191877 0.296791 2.717882 0.000000 0.000000 0.000000
0.275930 0.116859 2.821554 0.000000 0.000000 0.000000
0.066423 0.083100 3.065807 0.000000 0.000000 0.000000
0.269870 0.149048 2.772580 0.000000 0.000000 0.000000
0.074466 0.277240 2.776676 0.000000 0.000000 0.000000
0.270979 0.196405 2.748461 0.000000 0.000000 0.000000
0.269272 0.228439 2.735860 0.000000 0.000000 0.000000
0.249372 0.251843 2.739737 0.000000 0.000000 0.000000
0.101736 0.283318 2.759012 0.000000 0.000000 0.000000
0.272555 0.102518 2.844053 0.000000 0.000000 0.000000
0.208177 0.296959 2.722443 0.000000 0.000000 0.000000
0.268604 0.134793 2.798984 0.000000 0.000000 0.000000
0.274065 0.192516 2.742980 0.000000 0.000000 0.000000
0.252080 0.256867 2.734971 0.000000 0.000000 0.000000
0.120214 0.288793 2.738918 0.000000 0.000000 0.000000
0.193156 0.292223 2.722576 0.000000 0.000000 0.000000
0.271078 0.126954 2.798459 0.000000 0.000000 0.000000
0.260149 0.229376 2.739957 0.000000 0.000000 0.000000
0.235436 0.291208 2.721399 0.000000 0.000000 0.000000
0.205979 0.258856 2.758312 0.000000 0.000000 0.000000
0.217660 0.289027 2.726976 0.000000 0.000000 0.000000
0.102338 0.100893 3.034934 0.000000 0.000000 0.000000
0.277371 0.119111 2.807750 0.000000 0.000000 0.000000
0.261508 0.238546 2.739626 0.000000 0.000000 0.000000
0.232134 0.083003 2.941804 0.000000 0.000000 0.000000
0.268476 0.196287 2.749785 0.000000 0.000000 0.000000
0.122103 0.083283 3.038403 0.000000 0.000000 0.000000
0.230303 0.205892 2.780082 0.000000 0.000000 0.000000
0.099750 0.091796 3.043240 0.000000 0.000000 0.000000
0.258471 0.243830 2.735332 0.000000 0.000000 0.000000
0.238784 0.234944 2.761935 0.000000 0.000000 0.000000
0.141818 0.091345 3.018968 0.000000 0.000000 0.000000
0.268469 0.160890 2.767833 0.000000 0.000000 0.000000
0.237254 0.262362 2.738698 0.000000 0.000000 0.000000
0.257316 0.235898 2.748952 0.000000 0.000000 0.000000
0.259793 0.239081 2.730086 0.000000 0.000000 0.000000
0.244741 0.273180 2.732091 0.000000 0.000000 0.000000
0.013176 0.207381 2.888267 0.000000 0.000000 0.000000
0.092030 0.289903 2.752235 0.000000 0.000000 0.000000
0.004183 0.192333 2.904127 0.000000 0.000000 0.000000
0.058120 0.084565 3.052258 0.000000 0.000000 0.000000
0.066873 0.283933 2.776986 0.000000 0.000000 0.000000
0.060468 0.087253 3.054108 0.000000 0.000000 0.000000
0.230303 0.268219 2.742070 0.000000 0.000000 0.000000
0.265877 0.156657 2.783419 0.000000 0.000000 0.000000
0.196701 0.258938 2.758552 0.000000 0.000000 0.000000
0.162769 0.289133 2.732416 0.000000 0.000000 0.000000
0.247395 0.284774 2.728463 0.000000 0.000000 0.000000
0.249060 0.243003 2.738889 0.000000 0.000000 0.000000
0.268859 0.129947 2.816753 0.000000 0.000000 0.000000
0.270589 0.119187 2.818956 0.000000 0.000000 0.000000
0.024106 0.164796 2.952470 0.000000 0.000000 0.000000
0.256118 0.135732 2.824662 0.000000 0.000000 0.000000
0.262465 0.141575 2.802265 0.000000 0.000000 0.000000
0.258010 0.122718 2.845162 0.000000 0.000000 0.000000
0.273453 0.123641 2.809550 0.000000 0.000000 0.000000
0.271048 0.174538 2.756826 0.000000 0.000000 0.000000
0.108979 0.272585 2.767033 0.000000 0.000000 0.000000
0.125203 0.290208 2.739096 0.000000 0.000000 0.000000
0.038568 0.098823 3.006395 0.000000 0.000000 0.000000
0.040383 0.101313 3.008406 0.000000 0.000000 0.000000
0.248969 0.098954 2.882888 0.000000 0.000000 0.000000
0.021217 0.151971 2.973480 0.000000 0.000000 0.000000
0.020704 0.212119 2.882624 0.000000 0.000000 0.000000
0.126694 0.290817 2.734279 0.000000 0.000000 0.000000
0.092146 0.284352 2.762653 0.000000 0.000000 0.000000
0.103706 0.283024 2.764742 0.000000 0.000000 0.000000
0.146737 0.113815 2.992682 0.000000 0.000000 0.000000
0.220098 0.291357 2.721648 0.000000 0.000000 0.000000
0.208121 0.080139 2.962114 0.000000 0.000000 0.000000
0.067645 0.276002 2.776196 0.000000 0.000000 0.000000
0.135686 0.289072 2.734225 0.000000 0.000000 0.000000
0.149402 0.292295 2.729195 0.000000 0.000000 0.000000
0.085224 0.282117 2.768485 0.000000 0.000000 0.000000
0.146023 0.294457 2.731205 0.000000 0.000000 0.000000
0.056341 0.101574 3.018279 0.000000 0.000000 0.000000
0.130830 0.290684 2.734128 0.000000 0.000000 0.000000
0.047926 0.273364 2.784662 0.000000 0.000000 0.000000
0.088739 0.283473 2.767821 0.000000 0.000000 0.000000
0.068676 0.280962 2.771574 0.000000 0.000000 0.000000
0.217050 0.090543 2.943049 0.000000 0.000000 0.000000
0.054708 0.278797 2.774809 0.000000 0.000000 0.000000
0.116928 0.280750 2.753724 0.000000 0.000000 0.000000
0.060840 0.267363 2.790786 0.000000 0.000000 0.000000
0.139128 0.286806 2.736844 0.000000 0.000000 0.000000
0.264561 0.137885 2.802850 0.000000 0.000000 0.000000
0.025785 0.164125 2.955725 0.000000 0.000000 0.000000
0.012009 0.189046 2.915426 0.000000 0.000000 0.000000
0.007186 0.175931 2.937547 0.000000 0.000000 0.000000
0.247536 0.140116 2.832418 0.000000 0.000000 0.000000
0.056065 0.271013 2.784235 0.000000 0.000000 0.000000
0.026902 0.170369 2.945000 0.000000 0.000000 0.000000
0.022473 0.147481 2.981232 0.000000 0.000000 0.000000
0.145399 0.297063 2.722929 0.000000 0.000000 0.000000
0.244765 0.287315 2.733988 0.000000 0.000000 0.000000
0.253743 0.093643 2.905697 0.000000 0.000000 0.000000
0.139524 0.292422 2.733479 0.000000 0.000000 0.000000
0.093007 0.284933 2.759830 0.000000 0.000000 0.000000
0.014957 0.177109 2.938433 0.000000 0.000000 0.000000
0.096620 0.082762 3.058843 0.000000 0.000000 0.000000
0.132739 0.284266 2.750391 0.000000 0.000000 0.000000
0.088519 0.276784 2.777009 0.000000 0.000000 0.000000
0.092387 0.286949 2.753540 0.000000 0.000000 0.000000
0.010518 0.173733 2.945252 0.000000 0.000000 0.000000
0.229936 0.092869 2.917013 0.000000 0.000000 0.000000
0.030681 0.166543 2.956202 0.000000 0.000000 0.000000
0.230471 0.291970 2.722392 0.000000 0.000000 0.000000
0.112522 0.073040 3.048800 0.000000 0.000000 0.000000
0.037948 0.098296 3.002785 0.000000 0.000000 0.000000
0.244929 0.097742 2.902997 0.000000 0.000000 0.000000
0.149197 0.294675 2.728447 0.000000 0.000000 0.000000
0.098341 0.290819 2.747355 0.000000 0.000000 0.000000
0.210394 0.273720 2.750942 0.000000 0.000000 0.000000
0.085819 0.071601 3.060064 0.000000 0.000000 0.000000
0.137085 0.088681 3.022697 0.000000 0.000000 0.000000
0.247040 0.251055 2.737719 0.000000 0.000000 0.000000
0.242343 0.092498 2.917204 0.000000 0.000000 0.000000
0.023303 0.227872 2.858235 0.000000 0.000000 0.000000
0.219830 0.270087 2.745451 0.000000 0.000000 0.000000
0.272385 0.177224 2.748535 0.000000 0.000000 0.000000
0.077658 0.081795 3.064789 0.000000 0.000000 0.000000
0.020404 0.166409 2.962239 0.000000 0.000000 0.000000
0.060316 0.267808 2.787690 0.000000 0.000000 0.000000
0.064130 0.086445 3.073220 0.000000 0.000000 0.000000
0.105997 0.284673 2.752285 0.000000 0.000000 0.000000
0.008825 0.195940 2.901385 0.000000 0.000000 0.000000
0.084269 0.286462 2.756265 0.000000 0.000000 0.000000
0.203252 0.293389 2.722437 0.000000 0.000000 0.000000
0.240491 0.132789 2.844238 0.000000 0.000000 0.000000
0.117122 0.076290 3.046109 0.000000 0.000000 0.000000
0.173096 0.078063 3.019610 0.000000 0.000000 0.000000
0.145204 0.094903 3.006573 0.000000 0.000000 0.000000
0.162801 0.083973 3.017270 0.000000 0.000000 0.000000
0.263449 0.232696 2.742999 0.000000 0.000000 0.000000
0.100105 0.069116 3.050441 0.000000 0.000000 0.000000
0.017315 0.187645 2.917398 0.000000 0.000000 0.000000
0.094902 0.077858 3.051634 0.000000 0.000000 0.000000
0.125314 0.075819 3.045267 0.000000 0.000000 0.000000
0.040693 0.089144 3.017417 0.000000 0.000000 0.000000
0.165448 0.200597 2.855258 0.000000 0.000000 0.000000
0.002626 0.191084 2.900928 0.000000 0.000000 0.000000
0.259425 0.242683 2.736018 0.000000 0.000000 0.000000
0.136550 0.292306 2.729107 0.000000 0.000000 0.000000
0.191264 0.292212 2.730931 0.000000 0.000000 0.000000
0.160700 0.083705 3.014510 0.000000 0.000000 0.000000
0.036904 0.090418 3.017293 0.000000 0.000000 0.000000
0.158215 0.199015 2.854453 0.000000 0.000000 0.000000
0.174201 0.078195 3.010343 0.000000 0.000000 0.000000
0.234533 0.277752 2.736487 0.000000 0.000000 0.000000
0.165999 0.083085 3.011252 0.000000 0.000000 0.000000
0.004992 0.196566 2.899429 0.000000 0.000000 0.000000
0.163153 0.095680 3.000054 0.000000 0.000000 0.000000
0.245389 0.280140 2.725497 0.000000 0.000000 0.000000
0.154426 0.085014 3.016185 0.000000 0.000000 0.000000
0.014069 0.200478 2.904030 0.000000 0.000000 0.000000
0.104389 0.299662 2.734877 0.000000 0.000000 0.000000
0.267256 0.197860 2.749703 0.000000 0.000000 0.000000
0.234701 0.130317 2.854760 0.000000 0.000000 0.000000
0.033095 0.101936 3.010330 0.000000 0.000000 0.000000
0.264689 0.240627 2.727754 0.000000 0.000000 0.000000
0.260765 0.145911 2.800351 0.000000 0.000000 0.000000
0.069330 0.212293 2.878550 0.000000 0.000000 0.000000
0.200198 0.209129 2.801388 0.000000 0.000000 0.000000
0.018380 0.193561 2.909220 0.000000 0.000000 0.000000
0.220091 0.155252 2.846457 0.000000 0.000000 0.000000
0.191622 0.200405 2.832177 0.000000 0.000000 0.000000
0.158429 0.150508 2.904769 0.000000 0.000000 0.000000
0.218476 0.138612 2.858167 0.000000 0.000000 0.000000
0.258228 0.089438 2.900855 0.000000 0.000000 0.000000
0.081367 0.205217 2.854328 0.000000 0.000000 0.000000
0.204247 0.223567 2.783303 0.000000 0.000000 0.000000
0.205168 0.198438 2.793915 0.000000 0.000000 0.000000
0.258704 0.239793 2.729461 0.000000 0.000000 0.000000
0.261633 0.121435 2.821979 0.000000 0.000000 0.000000
0.065381 0.193929 2.901574 0.000000 0.000000 0.000000
0.231638 0.164451 2.815800 0.000000 0.000000 0.000000
0.222949 0.189902 2.782852 0.000000 0.000000 0.000000
0.024171 0.197389 2.904427 0.000000 0.000000 0.000000
0.276313 0.108904 2.837343 0.000000 0.000000 0.000000
0.252111 0.158090 2.804257 0.000000 0.000000 0.000000
0.171579 0.178748 2.861205 0.000000 0.000000 0.000000
0.243543 0.105510 2.884881 0.000000 0.000000 0.000000
0.101990 0.152766 2.913260 0.000000 0.000000 0.000000
0.207621 0.215000 2.792754 0.000000 0.000000 0.000000
0.210867 0.168232 2.838223 0.000000 0.000000 0.000000
0.265967 0.135666 2.799334 0.000000 0.000000 0.000000
0.171092 0.293238 2.725240 0.000000 0.000000 0.000000
0.275539 0.196279 2.743307 0.000000 0.000000 0.000000
0.012031 0.198541 2.894279 0.000000 0.000000 0.000000
0.188730 0.159189 2.867402 0.000000 0.000000 0.000000
0.093259 0.085741 3.045954 0.000000 0.000000 0.000000
0.012320 0.158903 2.971983 0.000000 0.000000 0.000000
0.021349 0.153336 2.974792 0.000000 0.000000 0.000000
0.265805 0.218088 2.734833 0.000000 0.000000 0.000000
0.019566 0.175768 2.940056 0.000000 0.000000 0.000000
0.270933 0.219874 2.731759 0.000000 0.000000 0.000000
0.022735 0.152242 2.969980 0.000000 0.000000 0.000000
0.080206 0.278742 2.768662 0.000000 0.000000 0.000000
0.008478 0.177489 2.938101 0.000000 0.000000 0.000000
0.261195 0.218337 2.733003 0.000000 0.000000 0.000000
0.185983 0.160107 2.876067 0.000000 0.000000 0.000000
0.095256 0.079359 3.049921 0.000000 0.000000 0.000000
0.024088 0.160620 2.965307 0.000000 0.000000 0.000000
0.036846 0.145851 2.975421 0.000000 0.000000 0.000000
0.259573 0.229602 2.732353 0.000000 0.000000 0.000000
0.023319 0.149001 2.973954 0.000000 0.000000 0.000000
0.011407 0.166791 2.965883 0.000000 0.000000 0.000000
0.271002 0.221367 2.735161 0.000000 0.000000 0.000000
0.024624 0.155948 2.960115 0.000000 0.000000 0.000000
0.008058 0.177032 2.940861 0.000000 0.000000 0.000000
0.112558 0.282337 2.752532 0.000000 0.000000 0.000000
0.005714 0.198359 2.893352 0.000000 0.000000 0.000000
0.063110 0.251956 2.805652 0.000000 0.000000 0.000000
0.034486 0.145045 2.979126 0.000000 0.000000 0.000000
0.035821 0.135545 2.985803 0.000000 0.000000 0.000000
0.031172 0.149571 2.970651 0.000000 0.000000 0.000000
0.071673 0.285319 2.764575 0.000000 0.000000 0.000000
0.030018 0.136057 2.990400 0.000000 0.000000 0.000000
0.041479 0.089226 3.021683 0.000000 0.000000 0.000000
0.205766 0.306361 2.716780 0.000000 0.000000 0.000000
0.032734 0.114233 2.998538 0.000000 0.000000 0.000000
0.040405 0.244821 2.821763 0.000000 0.000000 0.000000
0.020922 0.246088 2.826567 0.000000 0.000000 0.000000
0.155014 0.081602 3.023542 0.000000 0.000000 0.000000
0.028561 0.141880 2.979786 0.000000 0.000000 0.000000
0.084893 0.287135 2.757337 0.000000 0.000000 0.000000
0.023698 0.141981 2.986058 0.000000 0.000000 0.000000
0.048887 0.235984 2.837261 0.000000 0.000000 0.000000
0.044312 0.086521 3.024340 0.000000 0.000000 0.000000
0.233546 0.099928 2.914407 0.000000 0.000000 0.000000
0.044826 0.154738 2.976045 0.000000 0.000000 0.000000
0.015633 0.199023 2.899284 0.000000 0.000000 0.000000
0.062776 0.094386 3.039296 0.000000 0.000000 0.000000
0.257848 0.091934 2.897028 0.000000 0.000000 0.000000
0.074300 0.284806 2.764462 0.000000 0.000000 0.000000
0.123348 0.076825 3.043743 0.000000 0.000000 0.000000
0.068439 0.284159 2.763940 0.000000 0.000000 0.000000
0.047555 0.089388 3.025388 0.000000 0.000000 0.000000
0.248504 0.090438 2.914534 0.000000 0.000000 0.000000
0.078926 0.287112 2.761029 0.000000 0.000000 0.000000
0.129658 0.161741 2.938966 0.000000 0.000000 0.000000
0.067162 0.260386 2.796774 0.000000 0.000000 0.000000
0.145331 0.077956 3.029621 0.000000 0.000000 0.000000
0.017555 0.224667 2.865636 0.000000 0.000000 0.000000
0.224421 0.126646 2.889301 0.000000 0.000000 0.000000
0.182766 0.079107 2.998317 0.000000 0.000000 0.000000
0.253617 0.086039 2.913598 0.000000 0.000000 0.000000
0.004411 0.195820 2.899233 0.000000 0.000000 0.000000
0.251448 0.190004 2.775007 0.000000 0.000000 0.000000
0.196431 0.153705 2.879249 0.000000 0.000000 0.000000
0.232825 0.226896 2.758548 0.000000 0.000000 0.000000
0.117652 0.076121 3.048837 0.000000 0.000000 0.000000
0.269114 0.221013 2.733400 0.000000 0.000000 0.000000
0.052910 0.274434 2.782776 0.000000 0.000000 0.000000
0.064272 0.275599 2.776417 0.000000 0.000000 0.000000
0.119726 0.292408 2.735436 0.000000 0.000000 0.000000
0.241513 0.231901 2.744771 0.000000 0.000000 0.000000
0.176897 0.178968 2.863540 0.000000 0.000000 0.000000
0.239134 0.222352 2.756922 0.000000 0.000000 0.000000
0.250938 0.090132 2.909144 0.000000 0.000000 0.000000
0.110601 0.070899 3.052331 0.000000 0.000000 0.000000
0.268152 0.220868 2.740974 0.000000 0.000000 0.000000
0.117748 0.287291 2.743564 0.000000 0.000000 0.000000
0.040130 0.095144 3.012453 0.000000 0.000000 0.000000
0.271473 0.206287 2.739249 0.000000 0.000000 0.000000
0.260613 0.217913 2.745181 0.000000 0.000000 0.000000
0.210419 0.274556 2.745384 0.000000 0.000000 0.000000
0.076264 0.083796 3.058608 0.000000 0.000000 0.000000
0.195806 0.273452 2.747035 0.000000 0.000000 0.000000
0.270011 0.212565 2.747536 0.000000 0.000000 0.000000
0.137948 0.081099 3.042783 0.000000 0.000000 0.000000
0.194846 0.296645 2.725144 0.000000 0.000000 0.000000
0.244255 0.273895 2.725510 0.000000 0.000000 0.000000
0.237171 0.290968 2.723886 0.000000 0.000000 0.000000
0.218579 0.276606 2.740360 0.000000 0.000000 0.000000
0.127719 0.085703 3.032365 0.000000 0.000000 0.000000
0.176515 0.296080 2.722231 0.000000 0.000000 0.000000
0.250344 0.263318 2.720825 0.000000 0.000000 0.000000
0.194979 0.295952 2.718827 0.000000 0.000000 0.000000
0.007809 0.203046 2.894181 0.000000 0.000000 0.000000
0.014325 0.206181 2.890688 0.000000 0.000000 0.000000
