ply
format ascii 1.0
comment VCGLIB generated
obj_info Generated by SPFormer!
element vertex 882
property float x
property float y
property float z
property float nx
property float ny
property float nz
end_header
0.653685 0.450328 0.142323 0.000000 0.000000 0.000000
0.524611 0.676458 -0.050227 0.000000 0.000000 0.000000
0.699156 0.647268 -0.004564 0.000000 0.000000 0.000000
0.733367 0.527532 0.070024 0.000000 0.000000 0.000000
0.225517 0.732264 0.200144 0.000000 0.000000 0.000000
0.296422 0.582058 0.281843 0.000000 0.000000 0.000000
0.740012 0.531630 0.072458 0.000000 0.000000 0.000000
0.308206 0.500249 0.290722 0.000000 0.000000 0.000000
0.295237 0.551540 0.274290 0.000000 0.000000 0.000000
0.762840 0.565769 0.084027 0.000000 0.000000 0.000000
0.513478 0.431113 0.209255 0.000000 0.000000 0.000000
0.531107 0.443673 0.186227 0.000000 0.000000 0.000000
0.231912 0.674558 0.254037 0.000000 0.000000 0.000000
0.282882 0.537899 0.297396 0.000000 0.000000 0.000000
0.540014 0.427064 0.160248 0.000000 0.000000 0.000000
0.291208 0.668770 0.167516 0.000000 0.000000 0.000000
0.296559 0.773530 0.035386 0.000000 0.000000 0.000000
0.230405 0.672518 0.234835 0.000000 0.000000 0.000000
0.237295 0.736258 0.178386 0.000000 0.000000 0.000000
0.567669 0.421775 0.125640 0.000000 0.000000 0.000000
0.741155 0.522889 0.069109 0.000000 0.000000 0.000000
0.567232 0.458912 0.109972 0.000000 0.000000 0.000000
0.581547 0.416670 0.124917 0.000000 0.000000 0.000000
0.281259 0.567107 0.277804 0.000000 0.000000 0.000000
0.259394 0.562596 0.285662 0.000000 0.000000 0.000000
0.730145 0.539156 0.067309 0.000000 0.000000 0.000000
0.282280 0.773961 0.045600 0.000000 0.000000 0.000000
0.517753 0.435356 0.196228 0.000000 0.000000 0.000000
0.533493 0.434421 0.171159 0.000000 0.000000 0.000000
0.297125 0.767367 0.001478 0.000000 0.000000 0.000000
0.228066 0.676469 0.239942 0.000000 0.000000 0.000000
0.568130 0.416959 0.135884 0.000000 0.000000 0.000000
0.637405 0.444618 0.128593 0.000000 0.000000 0.000000
0.781490 0.595440 0.051785 0.000000 0.000000 0.000000
0.610020 0.642743 -0.023940 0.000000 0.000000 0.000000
0.290518 0.535528 0.297911 0.000000 0.000000 0.000000
0.415320 0.457239 0.287904 0.000000 0.000000 0.000000
0.660538 0.440526 0.145042 0.000000 0.000000 0.000000
0.405507 0.464590 0.276566 0.000000 0.000000 0.000000
0.411726 0.456929 0.302305 0.000000 0.000000 0.000000
0.726182 0.530038 0.064816 0.000000 0.000000 0.000000
0.754999 0.553922 0.076099 0.000000 0.000000 0.000000
0.341871 0.751544 -0.004297 0.000000 0.000000 0.000000
0.752551 0.543282 0.074370 0.000000 0.000000 0.000000
0.347548 0.747554 0.002314 0.000000 0.000000 0.000000
0.747888 0.536518 0.071168 0.000000 0.000000 0.000000
0.460812 0.690613 -0.010470 0.000000 0.000000 0.000000
0.295965 0.538385 0.292140 0.000000 0.000000 0.000000
0.388280 0.470448 0.294645 0.000000 0.000000 0.000000
0.284998 0.543964 0.282223 0.000000 0.000000 0.000000
0.601457 0.654166 -0.032410 0.000000 0.000000 0.000000
0.485227 0.712358 -0.053011 0.000000 0.000000 0.000000
0.756805 0.566988 0.058029 0.000000 0.000000 0.000000
0.754794 0.552003 0.068062 0.000000 0.000000 0.000000
0.372012 0.738053 -0.010036 0.000000 0.000000 0.000000
0.287995 0.534273 0.297613 0.000000 0.000000 0.000000
0.216305 0.739421 0.205902 0.000000 0.000000 0.000000
0.301262 0.505657 0.298055 0.000000 0.000000 0.000000
0.780030 0.572988 0.070843 0.000000 0.000000 0.000000
0.372934 0.543825 0.163500 0.000000 0.000000 0.000000
0.406522 0.459166 0.276853 0.000000 0.000000 0.000000
0.739681 0.524537 0.069633 0.000000 0.000000 0.000000
0.746025 0.544404 0.068904 0.000000 0.000000 0.000000
0.632330 0.638840 -0.002457 0.000000 0.000000 0.000000
0.754783 0.546968 0.071794 0.000000 0.000000 0.000000
0.740884 0.549246 0.063282 0.000000 0.000000 0.000000
0.757553 0.549144 0.074490 0.000000 0.000000 0.000000
0.726905 0.536664 0.065906 0.000000 0.000000 0.000000
0.429293 0.450182 0.289279 0.000000 0.000000 0.000000
0.456177 0.702394 -0.021210 0.000000 0.000000 0.000000
0.548335 0.632195 0.015945 0.000000 0.000000 0.000000
0.531408 0.446919 0.136002 0.000000 0.000000 0.000000
0.292661 0.546268 0.286399 0.000000 0.000000 0.000000
0.563461 0.636487 -0.028740 0.000000 0.000000 0.000000
0.392312 0.465263 0.291569 0.000000 0.000000 0.000000
0.613065 0.645996 -0.018128 0.000000 0.000000 0.000000
0.746736 0.558816 0.057619 0.000000 0.000000 0.000000
0.746530 0.552982 0.064920 0.000000 0.000000 0.000000
0.231637 0.628995 0.245818 0.000000 0.000000 0.000000
0.294914 0.527882 0.295633 0.000000 0.000000 0.000000
0.777575 0.572342 0.063605 0.000000 0.000000 0.000000
0.351603 0.578058 0.153113 0.000000 0.000000 0.000000
0.653346 0.444579 0.152570 0.000000 0.000000 0.000000
0.738401 0.527605 0.071629 0.000000 0.000000 0.000000
0.616820 0.650052 -0.021931 0.000000 0.000000 0.000000
0.251077 0.774123 0.074561 0.000000 0.000000 0.000000
0.746559 0.548458 0.068050 0.000000 0.000000 0.000000
0.399198 0.478791 0.266174 0.000000 0.000000 0.000000
0.752773 0.564352 0.058644 0.000000 0.000000 0.000000
0.734226 0.534633 0.068194 0.000000 0.000000 0.000000
0.578878 0.541343 0.041798 0.000000 0.000000 0.000000
0.775022 0.586778 0.066052 0.000000 0.000000 0.000000
0.441697 0.444986 0.292363 0.000000 0.000000 0.000000
0.300734 0.493303 0.289355 0.000000 0.000000 0.000000
0.597766 0.659037 -0.011720 0.000000 0.000000 0.000000
0.298653 0.525077 0.293754 0.000000 0.000000 0.000000
0.225472 0.762326 0.144773 0.000000 0.000000 0.000000
0.637911 0.452321 0.129614 0.000000 0.000000 0.000000
0.588267 0.425386 0.119093 0.000000 0.000000 0.000000
0.706748 0.646049 -0.003293 0.000000 0.000000 0.000000
0.305922 0.507086 0.299923 0.000000 0.000000 0.000000
0.297597 0.529058 0.295363 0.000000 0.000000 0.000000
0.478462 0.428045 0.254040 0.000000 0.000000 0.000000
0.761642 0.596470 0.033552 0.000000 0.000000 0.000000
0.765167 0.597059 0.039901 0.000000 0.000000 0.000000
0.745302 0.539023 0.074124 0.000000 0.000000 0.000000
0.595392 0.419179 0.108992 0.000000 0.000000 0.000000
0.596305 0.423205 0.115186 0.000000 0.000000 0.000000
0.317003 0.499086 0.296588 0.000000 0.000000 0.000000
0.222064 0.671592 0.238750 0.000000 0.000000 0.000000
0.293215 0.571948 0.280233 0.000000 0.000000 0.000000
0.447291 0.442213 0.289222 0.000000 0.000000 0.000000
0.372024 0.531340 0.183625 0.000000 0.000000 0.000000
0.245140 0.719739 0.208070 0.000000 0.000000 0.000000
0.230750 0.729877 0.206147 0.000000 0.000000 0.000000
0.233136 0.724746 0.221065 0.000000 0.000000 0.000000
0.233539 0.690159 0.233366 0.000000 0.000000 0.000000
0.252733 0.713040 0.203383 0.000000 0.000000 0.000000
0.242325 0.732003 0.183498 0.000000 0.000000 0.000000
0.230904 0.722600 0.222222 0.000000 0.000000 0.000000
0.299289 0.517888 0.293316 0.000000 0.000000 0.000000
0.261768 0.573473 0.276099 0.000000 0.000000 0.000000
0.332254 0.549524 0.234438 0.000000 0.000000 0.000000
0.701471 0.504230 0.080986 0.000000 0.000000 0.000000
0.438392 0.443699 0.278970 0.000000 0.000000 0.000000
0.218337 0.745844 0.200911 0.000000 0.000000 0.000000
0.336411 0.527544 0.237966 0.000000 0.000000 0.000000
0.215863 0.738342 0.200675 0.000000 0.000000 0.000000
0.355022 0.515209 0.233016 0.000000 0.000000 0.000000
0.238345 0.772504 0.105873 0.000000 0.000000 0.000000
0.302147 0.513739 0.295530 0.000000 0.000000 0.000000
0.246061 0.774625 0.086567 0.000000 0.000000 0.000000
0.223771 0.670667 0.241043 0.000000 0.000000 0.000000
0.315057 0.517243 0.284649 0.000000 0.000000 0.000000
0.228375 0.685436 0.248401 0.000000 0.000000 0.000000
0.355074 0.632109 0.136873 0.000000 0.000000 0.000000
0.434895 0.449389 0.278189 0.000000 0.000000 0.000000
0.230160 0.725130 0.224593 0.000000 0.000000 0.000000
0.227387 0.744906 0.210037 0.000000 0.000000 0.000000
0.231067 0.722274 0.229825 0.000000 0.000000 0.000000
0.771856 0.590433 0.063229 0.000000 0.000000 0.000000
0.330914 0.637263 0.150773 0.000000 0.000000 0.000000
0.229059 0.739868 0.188159 0.000000 0.000000 0.000000
0.359599 0.542743 0.212166 0.000000 0.000000 0.000000
0.232022 0.702977 0.226485 0.000000 0.000000 0.000000
0.237661 0.701825 0.229778 0.000000 0.000000 0.000000
0.242198 0.723571 0.202196 0.000000 0.000000 0.000000
0.301957 0.536434 0.283490 0.000000 0.000000 0.000000
0.250400 0.739390 0.146448 0.000000 0.000000 0.000000
0.314021 0.513741 0.292305 0.000000 0.000000 0.000000
0.236858 0.698754 0.235024 0.000000 0.000000 0.000000
0.297801 0.521917 0.296979 0.000000 0.000000 0.000000
0.245041 0.711359 0.215200 0.000000 0.000000 0.000000
0.325089 0.510385 0.288483 0.000000 0.000000 0.000000
0.326994 0.503962 0.291151 0.000000 0.000000 0.000000
0.494552 0.619937 0.019223 0.000000 0.000000 0.000000
0.345865 0.751919 -0.007188 0.000000 0.000000 0.000000
0.691450 0.508643 0.084349 0.000000 0.000000 0.000000
0.301354 0.513838 0.296548 0.000000 0.000000 0.000000
0.312752 0.526072 0.275910 0.000000 0.000000 0.000000
0.287320 0.548189 0.280858 0.000000 0.000000 0.000000
0.356306 0.510119 0.246246 0.000000 0.000000 0.000000
0.295480 0.515901 0.297899 0.000000 0.000000 0.000000
0.219526 0.670272 0.238665 0.000000 0.000000 0.000000
0.299612 0.550293 0.268476 0.000000 0.000000 0.000000
0.239887 0.682913 0.248480 0.000000 0.000000 0.000000
0.483621 0.701532 -0.046887 0.000000 0.000000 0.000000
0.432563 0.453638 0.278580 0.000000 0.000000 0.000000
0.439416 0.446357 0.285542 0.000000 0.000000 0.000000
0.227775 0.721720 0.222537 0.000000 0.000000 0.000000
0.236443 0.713714 0.215128 0.000000 0.000000 0.000000
0.234826 0.714359 0.204436 0.000000 0.000000 0.000000
0.329950 0.649002 0.152975 0.000000 0.000000 0.000000
0.304278 0.532096 0.301251 0.000000 0.000000 0.000000
0.312683 0.501559 0.296670 0.000000 0.000000 0.000000
0.649621 0.428811 0.143992 0.000000 0.000000 0.000000
0.228020 0.761405 0.135786 0.000000 0.000000 0.000000
0.238705 0.765342 0.122597 0.000000 0.000000 0.000000
0.301369 0.771493 0.022903 0.000000 0.000000 0.000000
0.315756 0.768316 0.018166 0.000000 0.000000 0.000000
0.215453 0.725260 0.139724 0.000000 0.000000 0.000000
0.313791 0.496214 0.295976 0.000000 0.000000 0.000000
0.477582 0.706051 -0.028770 0.000000 0.000000 0.000000
0.238377 0.749380 0.156904 0.000000 0.000000 0.000000
0.221680 0.757548 0.137537 0.000000 0.000000 0.000000
0.237084 0.620791 0.248104 0.000000 0.000000 0.000000
0.253482 0.759159 0.125044 0.000000 0.000000 0.000000
0.706830 0.501998 0.074350 0.000000 0.000000 0.000000
0.688622 0.602232 0.024693 0.000000 0.000000 0.000000
0.225617 0.641431 0.240350 0.000000 0.000000 0.000000
0.338355 0.476560 0.307102 0.000000 0.000000 0.000000
0.212570 0.743246 0.181180 0.000000 0.000000 0.000000
0.687861 0.630374 0.003673 0.000000 0.000000 0.000000
0.727017 0.507940 0.073326 0.000000 0.000000 0.000000
0.689729 0.609339 0.011116 0.000000 0.000000 0.000000
0.687565 0.628774 0.000270 0.000000 0.000000 0.000000
0.241805 0.761789 0.134800 0.000000 0.000000 0.000000
0.659578 0.436810 0.131658 0.000000 0.000000 0.000000
0.241262 0.754406 0.129671 0.000000 0.000000 0.000000
0.535270 0.484579 0.091573 0.000000 0.000000 0.000000
0.547400 0.520523 0.077355 0.000000 0.000000 0.000000
0.254410 0.696183 0.192652 0.000000 0.000000 0.000000
0.290050 0.671904 0.159081 0.000000 0.000000 0.000000
0.243620 0.769967 0.103739 0.000000 0.000000 0.000000
0.312477 0.501016 0.290747 0.000000 0.000000 0.000000
0.234867 0.717966 0.224522 0.000000 0.000000 0.000000
0.584344 0.418498 0.116428 0.000000 0.000000 0.000000
0.602148 0.419126 0.114075 0.000000 0.000000 0.000000
0.225326 0.744426 0.163553 0.000000 0.000000 0.000000
0.498386 0.687091 -0.038917 0.000000 0.000000 0.000000
0.235970 0.752409 0.147939 0.000000 0.000000 0.000000
0.228608 0.757845 0.137273 0.000000 0.000000 0.000000
0.240155 0.622520 0.246225 0.000000 0.000000 0.000000
0.243725 0.758867 0.127482 0.000000 0.000000 0.000000
0.714830 0.500603 0.077610 0.000000 0.000000 0.000000
0.679647 0.603845 0.033790 0.000000 0.000000 0.000000
0.226357 0.643281 0.239791 0.000000 0.000000 0.000000
0.347998 0.470414 0.305508 0.000000 0.000000 0.000000
0.690113 0.635106 0.003414 0.000000 0.000000 0.000000
0.723919 0.512836 0.073419 0.000000 0.000000 0.000000
0.698822 0.627835 0.015855 0.000000 0.000000 0.000000
0.664885 0.645422 -0.036747 0.000000 0.000000 0.000000
0.690433 0.635535 -0.001820 0.000000 0.000000 0.000000
0.224674 0.685839 0.239382 0.000000 0.000000 0.000000
0.236437 0.757508 0.135406 0.000000 0.000000 0.000000
0.233904 0.760750 0.137119 0.000000 0.000000 0.000000
0.527793 0.503557 0.086349 0.000000 0.000000 0.000000
0.247914 0.700533 0.194290 0.000000 0.000000 0.000000
0.268777 0.685303 0.187160 0.000000 0.000000 0.000000
0.242114 0.770712 0.107391 0.000000 0.000000 0.000000
0.226400 0.673268 0.231818 0.000000 0.000000 0.000000
0.311945 0.497923 0.296286 0.000000 0.000000 0.000000
0.239207 0.707340 0.221200 0.000000 0.000000 0.000000
0.588833 0.419907 0.119264 0.000000 0.000000 0.000000
0.479201 0.430878 0.223820 0.000000 0.000000 0.000000
0.247911 0.618619 0.252299 0.000000 0.000000 0.000000
0.474486 0.428534 0.222577 0.000000 0.000000 0.000000
0.446914 0.687904 0.070156 0.000000 0.000000 0.000000
0.232000 0.746873 0.170726 0.000000 0.000000 0.000000
0.470615 0.428845 0.229113 0.000000 0.000000 0.000000
0.324630 0.764543 0.016793 0.000000 0.000000 0.000000
0.758373 0.594016 0.041292 0.000000 0.000000 0.000000
0.477983 0.426301 0.245404 0.000000 0.000000 0.000000
0.742564 0.527601 0.070308 0.000000 0.000000 0.000000
0.376137 0.683024 0.061529 0.000000 0.000000 0.000000
0.627082 0.610044 -0.000587 0.000000 0.000000 0.000000
0.449610 0.443918 0.223667 0.000000 0.000000 0.000000
0.456183 0.436958 0.227392 0.000000 0.000000 0.000000
0.728839 0.514671 0.072727 0.000000 0.000000 0.000000
0.410047 0.440455 0.128443 0.000000 0.000000 0.000000
0.282117 0.612404 0.231841 0.000000 0.000000 0.000000
0.609174 0.649023 -0.024812 0.000000 0.000000 0.000000
0.221134 0.753859 0.164652 0.000000 0.000000 0.000000
0.255395 0.764250 0.086956 0.000000 0.000000 0.000000
0.597673 0.652618 -0.033569 0.000000 0.000000 0.000000
0.459596 0.430500 0.229201 0.000000 0.000000 0.000000
0.487213 0.696541 -0.038108 0.000000 0.000000 0.000000
0.566885 0.664071 -0.060572 0.000000 0.000000 0.000000
0.253777 0.760715 0.104995 0.000000 0.000000 0.000000
0.255373 0.763423 0.076684 0.000000 0.000000 0.000000
0.697375 0.634778 0.004699 0.000000 0.000000 0.000000
0.260905 0.766455 0.069411 0.000000 0.000000 0.000000
0.253488 0.774143 0.068029 0.000000 0.000000 0.000000
0.254106 0.594549 0.265049 0.000000 0.000000 0.000000
0.234856 0.699485 0.235942 0.000000 0.000000 0.000000
0.238723 0.765170 0.125294 0.000000 0.000000 0.000000
0.247970 0.766850 0.105255 0.000000 0.000000 0.000000
0.619325 0.587969 0.013313 0.000000 0.000000 0.000000
0.459690 0.447376 0.210286 0.000000 0.000000 0.000000
0.724039 0.519216 0.071518 0.000000 0.000000 0.000000
0.413144 0.441274 0.130844 0.000000 0.000000 0.000000
0.283581 0.617863 0.229390 0.000000 0.000000 0.000000
0.616456 0.648668 -0.019701 0.000000 0.000000 0.000000
0.220221 0.753847 0.153093 0.000000 0.000000 0.000000
0.248618 0.745795 0.142449 0.000000 0.000000 0.000000
0.589554 0.653281 -0.040801 0.000000 0.000000 0.000000
0.489586 0.698855 -0.039252 0.000000 0.000000 0.000000
0.257177 0.625371 0.239820 0.000000 0.000000 0.000000
0.248956 0.770227 0.081567 0.000000 0.000000 0.000000
0.685347 0.633516 -0.002164 0.000000 0.000000 0.000000
0.289193 0.769038 0.054274 0.000000 0.000000 0.000000
0.252236 0.770583 0.079542 0.000000 0.000000 0.000000
0.248086 0.772340 0.083986 0.000000 0.000000 0.000000
0.238813 0.764787 0.120649 0.000000 0.000000 0.000000
0.242142 0.766876 0.112689 0.000000 0.000000 0.000000
0.648272 0.442083 0.104005 0.000000 0.000000 0.000000
0.488594 0.441688 0.232225 0.000000 0.000000 0.000000
0.248924 0.604431 0.264978 0.000000 0.000000 0.000000
0.502524 0.439734 0.213790 0.000000 0.000000 0.000000
0.654219 0.445776 0.102067 0.000000 0.000000 0.000000
0.487568 0.426271 0.221624 0.000000 0.000000 0.000000
0.657110 0.435242 0.117668 0.000000 0.000000 0.000000
0.261039 0.602848 0.261819 0.000000 0.000000 0.000000
0.759813 0.596567 0.033847 0.000000 0.000000 0.000000
0.759279 0.591831 0.012215 0.000000 0.000000 0.000000
0.257807 0.607767 0.267440 0.000000 0.000000 0.000000
0.748337 0.594028 0.030732 0.000000 0.000000 0.000000
0.550685 0.651921 -0.057746 0.000000 0.000000 0.000000
0.493396 0.428180 0.218154 0.000000 0.000000 0.000000
0.405055 0.459848 0.296463 0.000000 0.000000 0.000000
0.649817 0.461220 0.093674 0.000000 0.000000 0.000000
0.651360 0.444256 0.120350 0.000000 0.000000 0.000000
0.410358 0.467274 0.297054 0.000000 0.000000 0.000000
0.555090 0.546292 0.047436 0.000000 0.000000 0.000000
0.404734 0.464082 0.296113 0.000000 0.000000 0.000000
0.218182 0.679242 0.235781 0.000000 0.000000 0.000000
0.474869 0.709202 -0.044432 0.000000 0.000000 0.000000
0.251934 0.621921 0.248659 0.000000 0.000000 0.000000
0.754088 0.598384 0.025570 0.000000 0.000000 0.000000
0.760339 0.597534 0.036160 0.000000 0.000000 0.000000
0.657662 0.448023 0.155652 0.000000 0.000000 0.000000
0.738884 0.595791 0.021399 0.000000 0.000000 0.000000
0.745933 0.595977 0.010087 0.000000 0.000000 0.000000
0.389618 0.464047 0.300537 0.000000 0.000000 0.000000
0.654837 0.458781 0.090533 0.000000 0.000000 0.000000
0.651272 0.448739 0.117214 0.000000 0.000000 0.000000
0.403550 0.467080 0.295994 0.000000 0.000000 0.000000
0.218976 0.688573 0.160827 0.000000 0.000000 0.000000
0.509299 0.444658 0.183680 0.000000 0.000000 0.000000
0.217335 0.705913 0.237667 0.000000 0.000000 0.000000
0.430192 0.445171 0.287824 0.000000 0.000000 0.000000
0.424028 0.459883 0.294758 0.000000 0.000000 0.000000
0.223964 0.689413 0.232254 0.000000 0.000000 0.000000
0.479244 0.714888 -0.038105 0.000000 0.000000 0.000000
0.730831 0.512293 0.073877 0.000000 0.000000 0.000000
0.603549 0.654237 -0.028156 0.000000 0.000000 0.000000
0.325907 0.486331 0.303363 0.000000 0.000000 0.000000
0.703097 0.642129 -0.002764 0.000000 0.000000 0.000000
0.747796 0.593165 0.018147 0.000000 0.000000 0.000000
0.313624 0.770635 0.024732 0.000000 0.000000 0.000000
0.780336 0.578650 0.064446 0.000000 0.000000 0.000000
0.580626 0.405684 0.207113 0.000000 0.000000 0.000000
0.237381 0.586434 0.263237 0.000000 0.000000 0.000000
0.241091 0.594025 0.265387 0.000000 0.000000 0.000000
0.301270 0.504928 0.290861 0.000000 0.000000 0.000000
0.226074 0.666840 0.253833 0.000000 0.000000 0.000000
0.227954 0.673784 0.250351 0.000000 0.000000 0.000000
0.228787 0.747029 0.210408 0.000000 0.000000 0.000000
0.456806 0.720640 -0.024000 0.000000 0.000000 0.000000
0.445087 0.720433 -0.028360 0.000000 0.000000 0.000000
0.469393 0.712698 -0.024114 0.000000 0.000000 0.000000
0.460329 0.717797 -0.021258 0.000000 0.000000 0.000000
0.696666 0.604833 0.011649 0.000000 0.000000 0.000000
0.594301 0.411828 0.163064 0.000000 0.000000 0.000000
0.444954 0.725727 -0.024631 0.000000 0.000000 0.000000
0.680839 0.604058 0.004200 0.000000 0.000000 0.000000
0.225950 0.750995 0.179843 0.000000 0.000000 0.000000
0.333020 0.479722 0.303027 0.000000 0.000000 0.000000
0.563451 0.407558 0.222601 0.000000 0.000000 0.000000
0.740061 0.590012 0.034386 0.000000 0.000000 0.000000
0.698880 0.591514 0.011953 0.000000 0.000000 0.000000
0.647586 0.565377 0.015004 0.000000 0.000000 0.000000
0.548879 0.420296 0.169057 0.000000 0.000000 0.000000
0.507880 0.434777 0.192164 0.000000 0.000000 0.000000
0.706267 0.593659 0.005038 0.000000 0.000000 0.000000
0.439885 0.447540 0.272658 0.000000 0.000000 0.000000
0.432049 0.717893 -0.022808 0.000000 0.000000 0.000000
0.413762 0.610490 0.097860 0.000000 0.000000 0.000000
0.440408 0.724501 -0.024952 0.000000 0.000000 0.000000
0.481081 0.706579 -0.036401 0.000000 0.000000 0.000000
0.742035 0.588947 0.015790 0.000000 0.000000 0.000000
0.217252 0.760614 0.161162 0.000000 0.000000 0.000000
0.753543 0.594822 0.025955 0.000000 0.000000 0.000000
0.240788 0.672896 0.239951 0.000000 0.000000 0.000000
0.445436 0.717248 -0.021913 0.000000 0.000000 0.000000
0.429845 0.721614 -0.020753 0.000000 0.000000 0.000000
0.720221 0.600551 -0.000857 0.000000 0.000000 0.000000
0.226408 0.758153 0.175092 0.000000 0.000000 0.000000
0.521335 0.437156 0.168688 0.000000 0.000000 0.000000
0.567508 0.620115 -0.019789 0.000000 0.000000 0.000000
0.725186 0.511183 0.073669 0.000000 0.000000 0.000000
0.433558 0.729695 -0.022850 0.000000 0.000000 0.000000
0.733885 0.516043 0.072442 0.000000 0.000000 0.000000
0.228656 0.738148 0.208518 0.000000 0.000000 0.000000
0.527991 0.442052 0.173674 0.000000 0.000000 0.000000
0.521367 0.451227 0.142256 0.000000 0.000000 0.000000
0.223815 0.738457 0.193185 0.000000 0.000000 0.000000
0.502367 0.601023 0.023466 0.000000 0.000000 0.000000
0.507896 0.671450 -0.049880 0.000000 0.000000 0.000000
0.755058 0.558749 0.066905 0.000000 0.000000 0.000000
0.437639 0.446701 0.281230 0.000000 0.000000 0.000000
0.372079 0.685811 0.062664 0.000000 0.000000 0.000000
0.741320 0.592100 0.014328 0.000000 0.000000 0.000000
0.508035 0.434459 0.198951 0.000000 0.000000 0.000000
0.455624 0.718266 -0.022034 0.000000 0.000000 0.000000
0.465746 0.718838 -0.029423 0.000000 0.000000 0.000000
0.463018 0.719688 -0.022173 0.000000 0.000000 0.000000
0.699251 0.601142 0.009387 0.000000 0.000000 0.000000
0.689926 0.598776 0.003440 0.000000 0.000000 0.000000
0.218507 0.743971 0.201918 0.000000 0.000000 0.000000
0.725302 0.592859 0.021929 0.000000 0.000000 0.000000
0.680691 0.584575 0.009336 0.000000 0.000000 0.000000
0.654864 0.592112 0.007813 0.000000 0.000000 0.000000
0.539568 0.428808 0.176903 0.000000 0.000000 0.000000
0.530185 0.425110 0.176519 0.000000 0.000000 0.000000
0.713143 0.595304 0.005144 0.000000 0.000000 0.000000
0.559308 0.419348 0.149159 0.000000 0.000000 0.000000
0.432596 0.721758 -0.022273 0.000000 0.000000 0.000000
0.473922 0.712785 -0.028764 0.000000 0.000000 0.000000
0.749725 0.593883 0.018640 0.000000 0.000000 0.000000
0.228395 0.756829 0.158904 0.000000 0.000000 0.000000
0.225308 0.745851 0.186043 0.000000 0.000000 0.000000
0.755200 0.594461 0.031069 0.000000 0.000000 0.000000
0.405429 0.724157 -0.017271 0.000000 0.000000 0.000000
0.429886 0.720303 -0.022577 0.000000 0.000000 0.000000
0.222247 0.761490 0.165349 0.000000 0.000000 0.000000
0.519877 0.441431 0.163605 0.000000 0.000000 0.000000
0.549125 0.642745 -0.027569 0.000000 0.000000 0.000000
0.504291 0.680239 -0.048666 0.000000 0.000000 0.000000
0.231501 0.752672 0.162052 0.000000 0.000000 0.000000
0.717780 0.501211 0.077848 0.000000 0.000000 0.000000
0.737121 0.518011 0.070590 0.000000 0.000000 0.000000
0.225441 0.740124 0.220398 0.000000 0.000000 0.000000
0.533246 0.485005 0.160113 0.000000 0.000000 0.000000
0.528631 0.433008 0.165044 0.000000 0.000000 0.000000
0.508943 0.603065 0.033926 0.000000 0.000000 0.000000
0.526923 0.425740 0.181862 0.000000 0.000000 0.000000
0.538949 0.617279 0.065582 0.000000 0.000000 0.000000
0.519067 0.427254 0.191644 0.000000 0.000000 0.000000
0.226521 0.715618 0.237351 0.000000 0.000000 0.000000
0.780317 0.578695 0.060951 0.000000 0.000000 0.000000
0.782808 0.584419 0.058881 0.000000 0.000000 0.000000
0.789598 0.590835 0.057317 0.000000 0.000000 0.000000
0.794324 0.584358 0.063416 0.000000 0.000000 0.000000
0.487838 0.432263 0.216207 0.000000 0.000000 0.000000
0.789288 0.586130 0.062598 0.000000 0.000000 0.000000
0.218532 0.704574 0.231571 0.000000 0.000000 0.000000
0.786181 0.578678 0.063090 0.000000 0.000000 0.000000
0.786956 0.596526 0.057794 0.000000 0.000000 0.000000
0.780107 0.592227 0.050084 0.000000 0.000000 0.000000
0.786969 0.589085 0.057246 0.000000 0.000000 0.000000
0.790667 0.594418 0.062919 0.000000 0.000000 0.000000
0.790432 0.585158 0.063040 0.000000 0.000000 0.000000
0.231819 0.733800 0.207770 0.000000 0.000000 0.000000
0.543269 0.424948 0.177067 0.000000 0.000000 0.000000
0.236005 0.725711 0.214557 0.000000 0.000000 0.000000
0.691318 0.489649 0.082641 0.000000 0.000000 0.000000
0.222426 0.729826 0.239959 0.000000 0.000000 0.000000
0.787146 0.582294 0.062391 0.000000 0.000000 0.000000
0.794751 0.592814 0.045832 0.000000 0.000000 0.000000
0.780989 0.571074 0.065734 0.000000 0.000000 0.000000
0.691646 0.507436 0.066518 0.000000 0.000000 0.000000
0.680104 0.483433 0.085274 0.000000 0.000000 0.000000
0.227888 0.724948 0.230559 0.000000 0.000000 0.000000
0.270454 0.553019 0.287203 0.000000 0.000000 0.000000
0.267761 0.570849 0.281332 0.000000 0.000000 0.000000
0.230771 0.718952 0.233356 0.000000 0.000000 0.000000
0.267673 0.565194 0.286736 0.000000 0.000000 0.000000
0.716091 0.497145 0.075438 0.000000 0.000000 0.000000
0.660054 0.495288 0.078988 0.000000 0.000000 0.000000
0.685296 0.491093 0.084482 0.000000 0.000000 0.000000
0.217600 0.713713 0.237867 0.000000 0.000000 0.000000
0.224393 0.734817 0.227024 0.000000 0.000000 0.000000
0.558349 0.545006 0.049462 0.000000 0.000000 0.000000
0.223295 0.709652 0.237415 0.000000 0.000000 0.000000
0.276700 0.546729 0.288986 0.000000 0.000000 0.000000
0.359408 0.595004 0.136254 0.000000 0.000000 0.000000
0.248426 0.704460 0.205843 0.000000 0.000000 0.000000
0.225507 0.710359 0.236577 0.000000 0.000000 0.000000
0.219966 0.677235 0.238466 0.000000 0.000000 0.000000
0.742427 0.536383 0.070919 0.000000 0.000000 0.000000
0.237247 0.720693 0.218875 0.000000 0.000000 0.000000
0.487974 0.432521 0.218627 0.000000 0.000000 0.000000
0.226771 0.763968 0.149227 0.000000 0.000000 0.000000
0.500254 0.433491 0.219506 0.000000 0.000000 0.000000
0.662068 0.478372 0.086760 0.000000 0.000000 0.000000
0.227818 0.729102 0.227307 0.000000 0.000000 0.000000
0.788067 0.587065 0.061395 0.000000 0.000000 0.000000
0.781189 0.578729 0.059804 0.000000 0.000000 0.000000
0.609949 0.652153 -0.022099 0.000000 0.000000 0.000000
0.656092 0.481906 0.084271 0.000000 0.000000 0.000000
0.218834 0.711187 0.225191 0.000000 0.000000 0.000000
0.546701 0.659177 -0.057447 0.000000 0.000000 0.000000
0.264805 0.568358 0.283881 0.000000 0.000000 0.000000
0.227004 0.725795 0.238976 0.000000 0.000000 0.000000
0.267196 0.567200 0.282670 0.000000 0.000000 0.000000
0.707294 0.493032 0.080078 0.000000 0.000000 0.000000
0.691719 0.480656 0.081419 0.000000 0.000000 0.000000
0.679955 0.487513 0.081949 0.000000 0.000000 0.000000
0.217386 0.700229 0.239272 0.000000 0.000000 0.000000
0.229662 0.729366 0.224086 0.000000 0.000000 0.000000
0.583613 0.533966 0.044808 0.000000 0.000000 0.000000
0.554682 0.541691 0.046960 0.000000 0.000000 0.000000
0.215753 0.696660 0.238690 0.000000 0.000000 0.000000
0.278563 0.553267 0.282928 0.000000 0.000000 0.000000
0.354450 0.615694 0.137470 0.000000 0.000000 0.000000
0.281573 0.680403 0.179753 0.000000 0.000000 0.000000
0.227437 0.763609 0.124213 0.000000 0.000000 0.000000
0.219178 0.717705 0.239956 0.000000 0.000000 0.000000
0.210040 0.710432 0.232689 0.000000 0.000000 0.000000
0.233744 0.766876 0.129871 0.000000 0.000000 0.000000
0.743715 0.530919 0.069601 0.000000 0.000000 0.000000
0.223167 0.711322 0.237416 0.000000 0.000000 0.000000
0.227096 0.760517 0.142294 0.000000 0.000000 0.000000
0.499607 0.431472 0.214029 0.000000 0.000000 0.000000
0.215140 0.706827 0.238885 0.000000 0.000000 0.000000
0.624073 0.650141 -0.010390 0.000000 0.000000 0.000000
0.327684 0.489988 0.292470 0.000000 0.000000 0.000000
0.662765 0.441058 0.114210 0.000000 0.000000 0.000000
0.285756 0.785704 0.017130 0.000000 0.000000 0.000000
0.318249 0.763424 0.017690 0.000000 0.000000 0.000000
0.236858 0.768597 0.120153 0.000000 0.000000 0.000000
0.430209 0.727031 -0.023739 0.000000 0.000000 0.000000
0.231438 0.609403 0.254153 0.000000 0.000000 0.000000
0.467182 0.718608 -0.021367 0.000000 0.000000 0.000000
0.675534 0.507789 0.101041 0.000000 0.000000 0.000000
0.453979 0.722660 -0.022131 0.000000 0.000000 0.000000
0.265493 0.742411 0.127911 0.000000 0.000000 0.000000
0.618898 0.461185 0.106603 0.000000 0.000000 0.000000
0.668534 0.426621 0.152352 0.000000 0.000000 0.000000
0.284221 0.777501 0.015117 0.000000 0.000000 0.000000
0.290090 0.783434 0.027847 0.000000 0.000000 0.000000
0.662424 0.456954 0.085157 0.000000 0.000000 0.000000
0.754764 0.562067 0.089140 0.000000 0.000000 0.000000
0.436845 0.726610 -0.023440 0.000000 0.000000 0.000000
0.244812 0.587891 0.264872 0.000000 0.000000 0.000000
0.671744 0.428746 0.147013 0.000000 0.000000 0.000000
0.428948 0.729315 -0.023465 0.000000 0.000000 0.000000
0.457888 0.722656 -0.027368 0.000000 0.000000 0.000000
0.275765 0.753055 0.106511 0.000000 0.000000 0.000000
0.232730 0.767323 0.132615 0.000000 0.000000 0.000000
0.542651 0.422227 0.147247 0.000000 0.000000 0.000000
0.543071 0.429128 0.137784 0.000000 0.000000 0.000000
0.236204 0.765701 0.123391 0.000000 0.000000 0.000000
0.237866 0.766711 0.121699 0.000000 0.000000 0.000000
0.458710 0.444475 0.213537 0.000000 0.000000 0.000000
0.670296 0.497812 0.108672 0.000000 0.000000 0.000000
0.462022 0.720990 -0.018724 0.000000 0.000000 0.000000
0.265925 0.742577 0.139042 0.000000 0.000000 0.000000
0.643205 0.485482 0.120802 0.000000 0.000000 0.000000
0.667013 0.432184 0.152308 0.000000 0.000000 0.000000
0.679109 0.449546 0.146216 0.000000 0.000000 0.000000
0.293477 0.773519 0.005562 0.000000 0.000000 0.000000
0.513704 0.454415 0.141738 0.000000 0.000000 0.000000
0.318742 0.490704 0.301552 0.000000 0.000000 0.000000
0.284843 0.784943 0.030728 0.000000 0.000000 0.000000
0.663810 0.453965 0.077515 0.000000 0.000000 0.000000
0.746139 0.553480 0.089267 0.000000 0.000000 0.000000
0.430746 0.728066 -0.026061 0.000000 0.000000 0.000000
0.247311 0.580674 0.269387 0.000000 0.000000 0.000000
0.680656 0.437022 0.144706 0.000000 0.000000 0.000000
0.443361 0.725374 -0.019031 0.000000 0.000000 0.000000
0.436138 0.721279 -0.021384 0.000000 0.000000 0.000000
0.574285 0.446512 0.105545 0.000000 0.000000 0.000000
0.664063 0.444028 0.146409 0.000000 0.000000 0.000000
0.234648 0.770612 0.128947 0.000000 0.000000 0.000000
0.246301 0.768175 0.102176 0.000000 0.000000 0.000000
0.238457 0.768890 0.119405 0.000000 0.000000 0.000000
0.476918 0.437728 0.210810 0.000000 0.000000 0.000000
0.231445 0.692054 0.236792 0.000000 0.000000 0.000000
0.307910 0.515995 0.291507 0.000000 0.000000 0.000000
0.230549 0.704474 0.235294 0.000000 0.000000 0.000000
0.313657 0.494895 0.297179 0.000000 0.000000 0.000000
0.361908 0.742351 -0.012564 0.000000 0.000000 0.000000
0.297558 0.520573 0.300275 0.000000 0.000000 0.000000
0.694682 0.639434 -0.003592 0.000000 0.000000 0.000000
0.466991 0.430445 0.226149 0.000000 0.000000 0.000000
0.306361 0.499341 0.294215 0.000000 0.000000 0.000000
0.705647 0.636157 0.000591 0.000000 0.000000 0.000000
0.294567 0.529365 0.298234 0.000000 0.000000 0.000000
0.304147 0.524203 0.283448 0.000000 0.000000 0.000000
0.300758 0.532896 0.298431 0.000000 0.000000 0.000000
0.307553 0.503876 0.295137 0.000000 0.000000 0.000000
0.221494 0.724252 0.238577 0.000000 0.000000 0.000000
0.308604 0.540467 0.270532 0.000000 0.000000 0.000000
0.533820 0.441416 0.130552 0.000000 0.000000 0.000000
0.422001 0.726373 -0.024724 0.000000 0.000000 0.000000
0.215678 0.750081 0.187879 0.000000 0.000000 0.000000
0.223849 0.740440 0.197347 0.000000 0.000000 0.000000
0.599021 0.655222 -0.025052 0.000000 0.000000 0.000000
0.413616 0.462870 0.299789 0.000000 0.000000 0.000000
0.695417 0.639615 -0.000802 0.000000 0.000000 0.000000
0.223749 0.666496 0.228424 0.000000 0.000000 0.000000
0.553678 0.640435 -0.032376 0.000000 0.000000 0.000000
0.426130 0.453582 0.292043 0.000000 0.000000 0.000000
0.419763 0.451501 0.298103 0.000000 0.000000 0.000000
0.536531 0.419323 0.197739 0.000000 0.000000 0.000000
0.228635 0.669322 0.241939 0.000000 0.000000 0.000000
0.537411 0.440258 0.149218 0.000000 0.000000 0.000000
0.403840 0.725821 -0.022996 0.000000 0.000000 0.000000
0.421013 0.726058 -0.028272 0.000000 0.000000 0.000000
0.234258 0.755574 0.183171 0.000000 0.000000 0.000000
0.617952 0.642754 0.015937 0.000000 0.000000 0.000000
0.434794 0.595701 0.097586 0.000000 0.000000 0.000000
0.222439 0.738064 0.209964 0.000000 0.000000 0.000000
0.605698 0.652611 -0.027651 0.000000 0.000000 0.000000
0.239339 0.723651 0.209550 0.000000 0.000000 0.000000
0.428235 0.453977 0.296882 0.000000 0.000000 0.000000
0.225125 0.661254 0.240862 0.000000 0.000000 0.000000
0.549789 0.647772 -0.037503 0.000000 0.000000 0.000000
0.435660 0.453972 0.292533 0.000000 0.000000 0.000000
0.546541 0.546089 0.050261 0.000000 0.000000 0.000000
0.534426 0.424530 0.187724 0.000000 0.000000 0.000000
0.533926 0.429522 0.150739 0.000000 0.000000 0.000000
0.238378 0.600422 0.261401 0.000000 0.000000 0.000000
0.241121 0.586499 0.268247 0.000000 0.000000 0.000000
0.656045 0.635508 0.016544 0.000000 0.000000 0.000000
0.739090 0.535509 0.069616 0.000000 0.000000 0.000000
0.255265 0.773205 0.075220 0.000000 0.000000 0.000000
0.237290 0.590667 0.264269 0.000000 0.000000 0.000000
0.556155 0.652172 -0.027202 0.000000 0.000000 0.000000
0.285637 0.738992 0.105975 0.000000 0.000000 0.000000
0.259520 0.765327 0.075773 0.000000 0.000000 0.000000
0.281048 0.771504 0.045429 0.000000 0.000000 0.000000
0.296864 0.693087 0.157230 0.000000 0.000000 0.000000
0.267213 0.765004 0.076242 0.000000 0.000000 0.000000
0.266335 0.765920 0.078288 0.000000 0.000000 0.000000
0.269442 0.771886 0.057878 0.000000 0.000000 0.000000
0.578025 0.423871 0.125321 0.000000 0.000000 0.000000
0.301111 0.755915 0.068964 0.000000 0.000000 0.000000
0.258000 0.765147 0.089238 0.000000 0.000000 0.000000
0.316747 0.681783 0.138179 0.000000 0.000000 0.000000
0.278992 0.743656 0.116412 0.000000 0.000000 0.000000
0.316185 0.747460 0.058349 0.000000 0.000000 0.000000
0.323196 0.676071 0.143548 0.000000 0.000000 0.000000
0.314025 0.666340 0.165503 0.000000 0.000000 0.000000
0.277098 0.703326 0.158375 0.000000 0.000000 0.000000
0.297307 0.739211 0.089058 0.000000 0.000000 0.000000
0.327057 0.716500 0.087298 0.000000 0.000000 0.000000
0.271597 0.712448 0.177131 0.000000 0.000000 0.000000
0.264030 0.760571 0.100239 0.000000 0.000000 0.000000
0.742697 0.531839 0.071003 0.000000 0.000000 0.000000
0.753500 0.579262 0.066850 0.000000 0.000000 0.000000
0.225994 0.693128 0.239024 0.000000 0.000000 0.000000
0.263527 0.763024 0.088989 0.000000 0.000000 0.000000
0.234247 0.694690 0.243659 0.000000 0.000000 0.000000
0.449720 0.437048 0.273305 0.000000 0.000000 0.000000
0.295279 0.744497 0.090066 0.000000 0.000000 0.000000
0.407126 0.607935 0.102459 0.000000 0.000000 0.000000
0.491332 0.611804 0.025910 0.000000 0.000000 0.000000
0.542168 0.653232 -0.016361 0.000000 0.000000 0.000000
0.308519 0.735986 0.083035 0.000000 0.000000 0.000000
0.276253 0.771282 0.055910 0.000000 0.000000 0.000000
0.309828 0.677982 0.163408 0.000000 0.000000 0.000000
0.270929 0.767860 0.067576 0.000000 0.000000 0.000000
0.263001 0.769415 0.068020 0.000000 0.000000 0.000000
0.263101 0.772733 0.062300 0.000000 0.000000 0.000000
0.599645 0.423489 0.117595 0.000000 0.000000 0.000000
0.296468 0.762811 0.063116 0.000000 0.000000 0.000000
0.273930 0.774898 0.050621 0.000000 0.000000 0.000000
0.276485 0.761127 0.066117 0.000000 0.000000 0.000000
0.290484 0.692076 0.181853 0.000000 0.000000 0.000000
0.299320 0.685910 0.154649 0.000000 0.000000 0.000000
0.287233 0.717657 0.140339 0.000000 0.000000 0.000000
0.318531 0.727751 0.076808 0.000000 0.000000 0.000000
0.289275 0.708088 0.141565 0.000000 0.000000 0.000000
0.236254 0.731106 0.191346 0.000000 0.000000 0.000000
0.301776 0.708228 0.115430 0.000000 0.000000 0.000000
0.279221 0.738333 0.108976 0.000000 0.000000 0.000000
0.338098 0.725171 0.060765 0.000000 0.000000 0.000000
0.275629 0.709580 0.176263 0.000000 0.000000 0.000000
0.254761 0.763961 0.103694 0.000000 0.000000 0.000000
0.736222 0.524803 0.075582 0.000000 0.000000 0.000000
0.334113 0.518857 0.274367 0.000000 0.000000 0.000000
0.760728 0.580444 0.061888 0.000000 0.000000 0.000000
0.228214 0.703228 0.238933 0.000000 0.000000 0.000000
0.254130 0.768236 0.079975 0.000000 0.000000 0.000000
0.234612 0.692373 0.239591 0.000000 0.000000 0.000000
0.452703 0.434886 0.267291 0.000000 0.000000 0.000000
0.433139 0.586207 0.094413 0.000000 0.000000 0.000000
0.295762 0.754749 0.086016 0.000000 0.000000 0.000000
0.416648 0.605543 0.098046 0.000000 0.000000 0.000000
0.675108 0.447033 0.135999 0.000000 0.000000 0.000000
0.734584 0.512476 0.067832 0.000000 0.000000 0.000000
0.755540 0.598120 0.031264 0.000000 0.000000 0.000000
0.757893 0.593253 0.052193 0.000000 0.000000 0.000000
0.267690 0.609752 0.256563 0.000000 0.000000 0.000000
0.210590 0.726729 0.139869 0.000000 0.000000 0.000000
0.479137 0.437529 0.236347 0.000000 0.000000 0.000000
0.471117 0.430295 0.234870 0.000000 0.000000 0.000000
0.283823 0.782072 0.035904 0.000000 0.000000 0.000000
0.312594 0.766954 0.019784 0.000000 0.000000 0.000000
0.497109 0.436167 0.215085 0.000000 0.000000 0.000000
0.244290 0.580663 0.265702 0.000000 0.000000 0.000000
0.215550 0.722464 0.141977 0.000000 0.000000 0.000000
0.759528 0.597969 0.041079 0.000000 0.000000 0.000000
0.218429 0.659087 0.235411 0.000000 0.000000 0.000000
0.726293 0.509926 0.074087 0.000000 0.000000 0.000000
0.490478 0.436290 0.221264 0.000000 0.000000 0.000000
0.238697 0.594018 0.262335 0.000000 0.000000 0.000000
0.671777 0.625097 0.000306 0.000000 0.000000 0.000000
0.313076 0.727670 0.090617 0.000000 0.000000 0.000000
0.667669 0.643321 -0.016529 0.000000 0.000000 0.000000
0.484998 0.675233 0.029875 0.000000 0.000000 0.000000
0.243723 0.604514 0.255966 0.000000 0.000000 0.000000
0.665418 0.639506 0.000576 0.000000 0.000000 0.000000
0.719675 0.506391 0.075104 0.000000 0.000000 0.000000
0.485621 0.708638 -0.032474 0.000000 0.000000 0.000000
0.640882 0.643652 0.000701 0.000000 0.000000 0.000000
0.295138 0.673948 0.175522 0.000000 0.000000 0.000000
0.439305 0.703235 0.040240 0.000000 0.000000 0.000000
0.236931 0.755293 0.196480 0.000000 0.000000 0.000000
0.372942 0.741296 -0.016673 0.000000 0.000000 0.000000
0.362430 0.624995 0.125431 0.000000 0.000000 0.000000
0.466799 0.426749 0.252868 0.000000 0.000000 0.000000
0.214676 0.729777 0.138151 0.000000 0.000000 0.000000
0.264808 0.776221 0.057701 0.000000 0.000000 0.000000
0.246533 0.609483 0.259319 0.000000 0.000000 0.000000
0.682369 0.620260 -0.000889 0.000000 0.000000 0.000000
0.325438 0.736340 0.054489 0.000000 0.000000 0.000000
0.475866 0.680709 0.035926 0.000000 0.000000 0.000000
0.245139 0.590398 0.263845 0.000000 0.000000 0.000000
0.678466 0.628222 0.005847 0.000000 0.000000 0.000000
0.727169 0.505090 0.072205 0.000000 0.000000 0.000000
0.458626 0.677184 0.060974 0.000000 0.000000 0.000000
0.628764 0.641819 -0.002284 0.000000 0.000000 0.000000
0.329051 0.652875 0.150276 0.000000 0.000000 0.000000
0.446319 0.695194 0.040093 0.000000 0.000000 0.000000
0.362080 0.745003 -0.011429 0.000000 0.000000 0.000000
0.216424 0.735722 0.133115 0.000000 0.000000 0.000000
0.508429 0.592928 0.028049 0.000000 0.000000 0.000000
0.409611 0.602744 0.100967 0.000000 0.000000 0.000000
0.430393 0.507283 0.147243 0.000000 0.000000 0.000000
0.437976 0.520284 0.133064 0.000000 0.000000 0.000000
0.454276 0.576904 0.075380 0.000000 0.000000 0.000000
0.578530 0.583348 0.013666 0.000000 0.000000 0.000000
0.424883 0.512138 0.148638 0.000000 0.000000 0.000000
0.461544 0.548221 0.095316 0.000000 0.000000 0.000000
0.527815 0.599518 0.012595 0.000000 0.000000 0.000000
0.444594 0.531136 0.123323 0.000000 0.000000 0.000000
0.551559 0.519281 0.065307 0.000000 0.000000 0.000000
0.266711 0.551344 0.291270 0.000000 0.000000 0.000000
0.678661 0.647986 -0.005563 0.000000 0.000000 0.000000
0.434416 0.726496 -0.022498 0.000000 0.000000 0.000000
0.489729 0.608081 0.035727 0.000000 0.000000 0.000000
0.290179 0.675881 0.179494 0.000000 0.000000 0.000000
0.406531 0.543578 0.132848 0.000000 0.000000 0.000000
0.526915 0.455770 0.122554 0.000000 0.000000 0.000000
0.540205 0.530190 0.066434 0.000000 0.000000 0.000000
0.578106 0.554868 0.023903 0.000000 0.000000 0.000000
0.419916 0.539028 0.128847 0.000000 0.000000 0.000000
0.493980 0.540071 0.079590 0.000000 0.000000 0.000000
0.527912 0.612430 0.005964 0.000000 0.000000 0.000000
0.462178 0.505250 0.127144 0.000000 0.000000 0.000000
0.474807 0.579434 0.064586 0.000000 0.000000 0.000000
0.691848 0.642412 -0.006265 0.000000 0.000000 0.000000
0.434361 0.727563 -0.025769 0.000000 0.000000 0.000000
0.492844 0.437769 0.233883 0.000000 0.000000 0.000000
0.495305 0.427643 0.237454 0.000000 0.000000 0.000000
0.229589 0.753256 0.147982 0.000000 0.000000 0.000000
0.541831 0.665696 -0.057557 0.000000 0.000000 0.000000
0.521249 0.672820 -0.050805 0.000000 0.000000 0.000000
0.524787 0.674850 -0.049888 0.000000 0.000000 0.000000
0.511797 0.437392 0.219573 0.000000 0.000000 0.000000
0.234403 0.756576 0.157578 0.000000 0.000000 0.000000
0.469863 0.434185 0.226543 0.000000 0.000000 0.000000
0.331475 0.754351 0.005043 0.000000 0.000000 0.000000
0.627712 0.637355 0.025804 0.000000 0.000000 0.000000
0.225471 0.753185 0.158427 0.000000 0.000000 0.000000
0.740748 0.523246 0.070684 0.000000 0.000000 0.000000
0.240642 0.751772 0.167847 0.000000 0.000000 0.000000
0.488334 0.436230 0.214052 0.000000 0.000000 0.000000
0.330013 0.755830 0.003621 0.000000 0.000000 0.000000
0.367133 0.557964 0.144446 0.000000 0.000000 0.000000
0.527855 0.666571 -0.045945 0.000000 0.000000 0.000000
0.553286 0.618892 -0.007817 0.000000 0.000000 0.000000
0.407271 0.716203 0.007816 0.000000 0.000000 0.000000
0.419223 0.698440 0.027781 0.000000 0.000000 0.000000
0.544662 0.660288 -0.054326 0.000000 0.000000 0.000000
0.544904 0.662022 -0.056756 0.000000 0.000000 0.000000
0.527828 0.671298 -0.052392 0.000000 0.000000 0.000000
0.238891 0.629718 0.245580 0.000000 0.000000 0.000000
0.422305 0.701732 0.017933 0.000000 0.000000 0.000000
0.545788 0.662300 -0.050587 0.000000 0.000000 0.000000
0.322937 0.763590 0.003951 0.000000 0.000000 0.000000
0.556084 0.659098 -0.054408 0.000000 0.000000 0.000000
0.540749 0.667060 -0.060809 0.000000 0.000000 0.000000
0.212310 0.736666 0.148959 0.000000 0.000000 0.000000
0.477549 0.636813 0.008448 0.000000 0.000000 0.000000
0.429973 0.447174 0.289099 0.000000 0.000000 0.000000
0.596749 0.663478 -0.052035 0.000000 0.000000 0.000000
0.217520 0.741325 0.208881 0.000000 0.000000 0.000000
0.222322 0.758394 0.151607 0.000000 0.000000 0.000000
0.409173 0.454949 0.306025 0.000000 0.000000 0.000000
0.420721 0.451241 0.295358 0.000000 0.000000 0.000000
0.471532 0.440566 0.237589 0.000000 0.000000 0.000000
0.492857 0.430663 0.221491 0.000000 0.000000 0.000000
0.555977 0.657129 -0.053655 0.000000 0.000000 0.000000
0.224709 0.754997 0.152485 0.000000 0.000000 0.000000
0.463524 0.432575 0.246074 0.000000 0.000000 0.000000
0.381482 0.557886 0.133804 0.000000 0.000000 0.000000
0.532210 0.663762 -0.064320 0.000000 0.000000 0.000000
0.553833 0.642536 -0.033240 0.000000 0.000000 0.000000
0.379698 0.715133 0.028026 0.000000 0.000000 0.000000
0.610580 0.574681 0.047558 0.000000 0.000000 0.000000
0.415998 0.706641 0.037795 0.000000 0.000000 0.000000
0.544617 0.664426 -0.056928 0.000000 0.000000 0.000000
0.544311 0.666442 -0.056711 0.000000 0.000000 0.000000
0.534909 0.664024 -0.056935 0.000000 0.000000 0.000000
0.250347 0.633286 0.244933 0.000000 0.000000 0.000000
0.419871 0.716444 0.015596 0.000000 0.000000 0.000000
0.532243 0.660992 -0.058889 0.000000 0.000000 0.000000
0.549364 0.601660 0.015855 0.000000 0.000000 0.000000
0.562806 0.658616 -0.054186 0.000000 0.000000 0.000000
0.546358 0.657129 -0.053623 0.000000 0.000000 0.000000
0.214106 0.723308 0.155487 0.000000 0.000000 0.000000
0.701781 0.643810 -0.003681 0.000000 0.000000 0.000000
0.445958 0.624760 0.040827 0.000000 0.000000 0.000000
0.213928 0.746823 0.195154 0.000000 0.000000 0.000000
0.222755 0.759007 0.155636 0.000000 0.000000 0.000000
0.416807 0.453957 0.295573 0.000000 0.000000 0.000000
0.412796 0.454893 0.296720 0.000000 0.000000 0.000000
0.462384 0.448336 0.249089 0.000000 0.000000 0.000000
0.493046 0.424489 0.227012 0.000000 0.000000 0.000000
0.541531 0.658857 -0.057677 0.000000 0.000000 0.000000
0.231347 0.753062 0.168405 0.000000 0.000000 0.000000
0.351209 0.605280 0.125877 0.000000 0.000000 0.000000
0.778514 0.597006 0.054101 0.000000 0.000000 0.000000
0.261530 0.568105 0.285725 0.000000 0.000000 0.000000
0.294284 0.529188 0.296561 0.000000 0.000000 0.000000
0.231255 0.763305 0.132765 0.000000 0.000000 0.000000
0.659786 0.459050 0.085943 0.000000 0.000000 0.000000
0.485367 0.706191 -0.028777 0.000000 0.000000 0.000000
0.496305 0.693577 -0.032949 0.000000 0.000000 0.000000
0.260141 0.580917 0.274905 0.000000 0.000000 0.000000
0.484558 0.437309 0.230657 0.000000 0.000000 0.000000
0.452533 0.437431 0.265682 0.000000 0.000000 0.000000
0.542856 0.659689 -0.024071 0.000000 0.000000 0.000000
0.564619 0.656655 -0.051126 0.000000 0.000000 0.000000
0.253301 0.749648 0.129692 0.000000 0.000000 0.000000
0.477734 0.707306 -0.026911 0.000000 0.000000 0.000000
0.247951 0.571119 0.281705 0.000000 0.000000 0.000000
0.361273 0.631663 0.127622 0.000000 0.000000 0.000000
0.483830 0.693516 -0.026242 0.000000 0.000000 0.000000
0.266192 0.571229 0.266070 0.000000 0.000000 0.000000
0.209722 0.733303 0.185689 0.000000 0.000000 0.000000
0.248355 0.600139 0.267084 0.000000 0.000000 0.000000
0.250970 0.641004 0.239880 0.000000 0.000000 0.000000
0.233677 0.684296 0.238886 0.000000 0.000000 0.000000
0.543995 0.645198 -0.003773 0.000000 0.000000 0.000000
0.642028 0.640711 -0.015794 0.000000 0.000000 0.000000
0.562921 0.657857 -0.049027 0.000000 0.000000 0.000000
0.249746 0.754109 0.123855 0.000000 0.000000 0.000000
0.279123 0.541991 0.288548 0.000000 0.000000 0.000000
0.358693 0.630842 0.130876 0.000000 0.000000 0.000000
0.495530 0.694528 -0.030026 0.000000 0.000000 0.000000
0.273115 0.585432 0.252480 0.000000 0.000000 0.000000
0.226245 0.625978 0.250646 0.000000 0.000000 0.000000
0.683435 0.637282 -0.010244 0.000000 0.000000 0.000000
0.247973 0.649594 0.236775 0.000000 0.000000 0.000000
0.220828 0.694160 0.239794 0.000000 0.000000 0.000000
0.457861 0.441007 0.252248 0.000000 0.000000 0.000000
0.660085 0.432791 0.133257 0.000000 0.000000 0.000000
0.675470 0.473113 0.085580 0.000000 0.000000 0.000000
0.533052 0.682790 -0.054256 0.000000 0.000000 0.000000
0.318489 0.758107 0.017115 0.000000 0.000000 0.000000
0.648129 0.426251 0.148948 0.000000 0.000000 0.000000
0.309117 0.511422 0.291167 0.000000 0.000000 0.000000
0.470672 0.429518 0.222558 0.000000 0.000000 0.000000
0.233870 0.727552 0.203325 0.000000 0.000000 0.000000
0.455227 0.434165 0.270228 0.000000 0.000000 0.000000
0.534211 0.668924 -0.059247 0.000000 0.000000 0.000000
0.545956 0.662735 -0.055064 0.000000 0.000000 0.000000
0.451456 0.438578 0.273189 0.000000 0.000000 0.000000
0.436998 0.459646 0.254818 0.000000 0.000000 0.000000
0.540644 0.667998 -0.056261 0.000000 0.000000 0.000000
0.455063 0.440268 0.239870 0.000000 0.000000 0.000000
0.311837 0.521087 0.275273 0.000000 0.000000 0.000000
0.675655 0.468476 0.082024 0.000000 0.000000 0.000000
0.680704 0.476942 0.086049 0.000000 0.000000 0.000000
0.429538 0.726690 -0.021505 0.000000 0.000000 0.000000
0.224417 0.735949 0.209653 0.000000 0.000000 0.000000
0.367343 0.485217 0.281111 0.000000 0.000000 0.000000
0.213478 0.746339 0.187128 0.000000 0.000000 0.000000
0.232750 0.743318 0.176659 0.000000 0.000000 0.000000
0.686311 0.494867 0.079805 0.000000 0.000000 0.000000
0.316303 0.503927 0.295759 0.000000 0.000000 0.000000
0.449004 0.439431 0.281226 0.000000 0.000000 0.000000
0.450584 0.441855 0.251851 0.000000 0.000000 0.000000
0.318042 0.520684 0.272841 0.000000 0.000000 0.000000
0.679256 0.472540 0.082694 0.000000 0.000000 0.000000
0.683415 0.480178 0.089205 0.000000 0.000000 0.000000
0.427553 0.724760 -0.018080 0.000000 0.000000 0.000000
0.218310 0.753520 0.173673 0.000000 0.000000 0.000000
0.712674 0.634391 0.010899 0.000000 0.000000 0.000000
0.561176 0.567202 0.024158 0.000000 0.000000 0.000000
0.405669 0.460224 0.266845 0.000000 0.000000 0.000000
0.216834 0.750335 0.182353 0.000000 0.000000 0.000000
0.589522 0.417879 0.116990 0.000000 0.000000 0.000000
0.532633 0.552992 0.047029 0.000000 0.000000 0.000000
0.222693 0.747938 0.189836 0.000000 0.000000 0.000000
0.654616 0.497214 0.074051 0.000000 0.000000 0.000000
