ply
format ascii 1.0
comment VCGLIB generated
obj_info Generated by SPFormer!
element vertex 868
property float x
property float y
property float z
property float nx
property float ny
property float nz
end_header
-0.413522 0.188150 0.355003 0.000000 0.000000 0.000000
-0.366831 0.294575 0.124618 0.000000 0.000000 0.000000
-0.486560 0.449300 0.137138 0.000000 0.000000 0.000000
-0.490336 0.445135 0.127504 0.000000 0.000000 0.000000
-0.489478 0.486276 0.157654 0.000000 0.000000 0.000000
-0.423062 0.195729 0.405308 0.000000 0.000000 0.000000
-0.493124 0.495555 0.161098 0.000000 0.000000 0.000000
-0.491327 0.491472 0.157692 0.000000 0.000000 0.000000
-0.427339 0.194259 0.438618 0.000000 0.000000 0.000000
-0.470117 0.263053 0.504297 0.000000 0.000000 0.000000
-0.408116 0.351452 0.120391 0.000000 0.000000 0.000000
-0.509792 0.520236 0.172124 0.000000 0.000000 0.000000
-0.445960 0.223965 0.461652 0.000000 0.000000 0.000000
-0.463044 0.259080 0.500605 0.000000 0.000000 0.000000
-0.485777 0.467695 0.147596 0.000000 0.000000 0.000000
-0.455945 0.248366 0.479168 0.000000 0.000000 0.000000
-0.398057 0.190372 0.345227 0.000000 0.000000 0.000000
-0.459179 0.258300 0.487734 0.000000 0.000000 0.000000
-0.394260 0.204307 0.313426 0.000000 0.000000 0.000000
-0.567991 0.446987 0.496424 0.000000 0.000000 0.000000
-0.496962 0.337058 0.560410 0.000000 0.000000 0.000000
-0.519951 0.380387 0.501134 0.000000 0.000000 0.000000
-0.566943 0.447257 0.507685 0.000000 0.000000 0.000000
-0.517009 0.343210 0.569600 0.000000 0.000000 0.000000
-0.487438 0.453319 0.149210 0.000000 0.000000 0.000000
-0.490861 0.482211 0.150750 0.000000 0.000000 0.000000
-0.488160 0.455344 0.135975 0.000000 0.000000 0.000000
-0.485787 0.455555 0.138134 0.000000 0.000000 0.000000
-0.490884 0.467700 0.139402 0.000000 0.000000 0.000000
-0.459940 0.255474 0.495195 0.000000 0.000000 0.000000
-0.395725 0.196532 0.320826 0.000000 0.000000 0.000000
-0.562676 0.440231 0.529174 0.000000 0.000000 0.000000
-0.464706 0.259796 0.496290 0.000000 0.000000 0.000000
-0.432992 0.208798 0.416448 0.000000 0.000000 0.000000
-0.409534 0.215891 0.344389 0.000000 0.000000 0.000000
-0.549226 0.408623 0.487749 0.000000 0.000000 0.000000
-0.499785 0.340490 0.565189 0.000000 0.000000 0.000000
-0.487941 0.462578 0.148872 0.000000 0.000000 0.000000
-0.489681 0.479707 0.148892 0.000000 0.000000 0.000000
-0.486248 0.449641 0.138289 0.000000 0.000000 0.000000
-0.555252 0.513214 0.611241 0.000000 0.000000 0.000000
-0.507058 0.337928 0.564218 0.000000 0.000000 0.000000
-0.483498 0.444295 0.141288 0.000000 0.000000 0.000000
-0.455878 0.247809 0.479218 0.000000 0.000000 0.000000
-0.598310 0.625635 0.521177 0.000000 0.000000 0.000000
-0.541116 0.480285 0.601292 0.000000 0.000000 0.000000
-0.365688 0.283852 0.125627 0.000000 0.000000 0.000000
-0.324616 0.229016 0.147011 0.000000 0.000000 0.000000
-0.429414 0.209512 0.410983 0.000000 0.000000 0.000000
-0.612091 0.639038 0.511486 0.000000 0.000000 0.000000
-0.613789 0.629099 0.504200 0.000000 0.000000 0.000000
-0.621542 0.647060 0.489525 0.000000 0.000000 0.000000
-0.466494 0.420365 0.122319 0.000000 0.000000 0.000000
-0.633495 0.613010 0.416050 0.000000 0.000000 0.000000
-0.422133 0.197798 0.386998 0.000000 0.000000 0.000000
-0.469869 0.423416 0.121965 0.000000 0.000000 0.000000
-0.431283 0.374464 0.121301 0.000000 0.000000 0.000000
-0.605129 0.577424 0.329809 0.000000 0.000000 0.000000
-0.609032 0.585362 0.347386 0.000000 0.000000 0.000000
-0.540435 0.555272 0.219663 0.000000 0.000000 0.000000
-0.433280 0.205008 0.414124 0.000000 0.000000 0.000000
-0.426028 0.195640 0.393610 0.000000 0.000000 0.000000
-0.622901 0.611339 0.449175 0.000000 0.000000 0.000000
-0.430933 0.399140 0.118542 0.000000 0.000000 0.000000
-0.531001 0.441306 0.446926 0.000000 0.000000 0.000000
-0.473030 0.424558 0.179520 0.000000 0.000000 0.000000
-0.449639 0.242032 0.461251 0.000000 0.000000 0.000000
-0.573353 0.551929 0.562481 0.000000 0.000000 0.000000
-0.414186 0.352270 0.133706 0.000000 0.000000 0.000000
-0.336729 0.253182 0.132302 0.000000 0.000000 0.000000
-0.444132 0.281919 0.360756 0.000000 0.000000 0.000000
-0.581408 0.653400 0.563684 0.000000 0.000000 0.000000
-0.450336 0.384684 0.165889 0.000000 0.000000 0.000000
-0.464381 0.395920 0.142835 0.000000 0.000000 0.000000
-0.553507 0.488654 0.573931 0.000000 0.000000 0.000000
-0.501448 0.392819 0.342273 0.000000 0.000000 0.000000
-0.505456 0.408109 0.268053 0.000000 0.000000 0.000000
-0.344353 0.210793 0.226186 0.000000 0.000000 0.000000
-0.412998 0.228576 0.347053 0.000000 0.000000 0.000000
-0.405042 0.211763 0.340261 0.000000 0.000000 0.000000
-0.575989 0.545876 0.274632 0.000000 0.000000 0.000000
-0.434851 0.227988 0.424033 0.000000 0.000000 0.000000
-0.418589 0.222307 0.373959 0.000000 0.000000 0.000000
-0.568372 0.508990 0.327071 0.000000 0.000000 0.000000
-0.575760 0.517257 0.326930 0.000000 0.000000 0.000000
-0.459913 0.346036 0.234881 0.000000 0.000000 0.000000
-0.618705 0.584507 0.427265 0.000000 0.000000 0.000000
-0.452793 0.319438 0.297089 0.000000 0.000000 0.000000
-0.622194 0.595426 0.425472 0.000000 0.000000 0.000000
-0.630245 0.598919 0.407646 0.000000 0.000000 0.000000
-0.626092 0.584312 0.391358 0.000000 0.000000 0.000000
-0.432436 0.371453 0.147355 0.000000 0.000000 0.000000
-0.561791 0.458448 0.544085 0.000000 0.000000 0.000000
-0.329639 0.211771 0.195071 0.000000 0.000000 0.000000
-0.530194 0.489411 0.247468 0.000000 0.000000 0.000000
-0.330785 0.211041 0.194804 0.000000 0.000000 0.000000
-0.335216 0.242125 0.151205 0.000000 0.000000 0.000000
-0.613362 0.564382 0.419263 0.000000 0.000000 0.000000
-0.415403 0.348199 0.128455 0.000000 0.000000 0.000000
-0.468869 0.389741 0.220851 0.000000 0.000000 0.000000
-0.334127 0.247197 0.140347 0.000000 0.000000 0.000000
-0.457349 0.364187 0.205559 0.000000 0.000000 0.000000
-0.372592 0.273599 0.170275 0.000000 0.000000 0.000000
-0.379348 0.293700 0.163769 0.000000 0.000000 0.000000
-0.450743 0.384398 0.182577 0.000000 0.000000 0.000000
-0.441057 0.335056 0.210682 0.000000 0.000000 0.000000
-0.409559 0.256426 0.290386 0.000000 0.000000 0.000000
-0.571525 0.466755 0.510440 0.000000 0.000000 0.000000
-0.432885 0.317410 0.258103 0.000000 0.000000 0.000000
-0.558247 0.424580 0.470664 0.000000 0.000000 0.000000
-0.433472 0.338965 0.220287 0.000000 0.000000 0.000000
-0.323703 0.214653 0.194172 0.000000 0.000000 0.000000
-0.521864 0.456889 0.257679 0.000000 0.000000 0.000000
-0.566127 0.510284 0.559741 0.000000 0.000000 0.000000
-0.374327 0.286839 0.139957 0.000000 0.000000 0.000000
-0.378902 0.275031 0.214843 0.000000 0.000000 0.000000
-0.400793 0.309104 0.159297 0.000000 0.000000 0.000000
-0.583992 0.619203 0.561928 0.000000 0.000000 0.000000
-0.595045 0.540146 0.364241 0.000000 0.000000 0.000000
-0.627858 0.599303 0.415058 0.000000 0.000000 0.000000
-0.329171 0.203769 0.209848 0.000000 0.000000 0.000000
-0.530514 0.370235 0.445853 0.000000 0.000000 0.000000
-0.343453 0.251461 0.132719 0.000000 0.000000 0.000000
-0.401161 0.282304 0.232599 0.000000 0.000000 0.000000
-0.392976 0.253697 0.250061 0.000000 0.000000 0.000000
-0.351313 0.253311 0.164843 0.000000 0.000000 0.000000
-0.561612 0.478677 0.346690 0.000000 0.000000 0.000000
-0.328329 0.239828 0.169601 0.000000 0.000000 0.000000
-0.435395 0.327253 0.243694 0.000000 0.000000 0.000000
-0.551343 0.386016 0.592497 0.000000 0.000000 0.000000
-0.341717 0.229154 0.166631 0.000000 0.000000 0.000000
-0.384080 0.287316 0.162931 0.000000 0.000000 0.000000
-0.544986 0.559628 0.223834 0.000000 0.000000 0.000000
-0.339850 0.210158 0.196525 0.000000 0.000000 0.000000
-0.577071 0.538875 0.551398 0.000000 0.000000 0.000000
-0.556161 0.451487 0.558690 0.000000 0.000000 0.000000
-0.490824 0.367030 0.299230 0.000000 0.000000 0.000000
-0.424094 0.362561 0.125012 0.000000 0.000000 0.000000
-0.333222 0.207394 0.224276 0.000000 0.000000 0.000000
-0.334419 0.252271 0.122196 0.000000 0.000000 0.000000
-0.406940 0.266062 0.266594 0.000000 0.000000 0.000000
-0.431706 0.314041 0.257455 0.000000 0.000000 0.000000
-0.451112 0.237433 0.483962 0.000000 0.000000 0.000000
-0.334042 0.201828 0.196548 0.000000 0.000000 0.000000
-0.523556 0.532278 0.194883 0.000000 0.000000 0.000000
-0.488182 0.374896 0.275042 0.000000 0.000000 0.000000
-0.430432 0.200960 0.418316 0.000000 0.000000 0.000000
-0.514940 0.426196 0.424409 0.000000 0.000000 0.000000
-0.456291 0.396286 0.143597 0.000000 0.000000 0.000000
-0.466172 0.415687 0.163393 0.000000 0.000000 0.000000
-0.555115 0.533008 0.570348 0.000000 0.000000 0.000000
-0.454526 0.251664 0.464131 0.000000 0.000000 0.000000
-0.361375 0.213363 0.267855 0.000000 0.000000 0.000000
-0.340450 0.251805 0.132722 0.000000 0.000000 0.000000
-0.368835 0.204116 0.264207 0.000000 0.000000 0.000000
-0.426627 0.257948 0.353918 0.000000 0.000000 0.000000
-0.585885 0.646475 0.554573 0.000000 0.000000 0.000000
-0.460251 0.398403 0.168240 0.000000 0.000000 0.000000
-0.459679 0.405601 0.140958 0.000000 0.000000 0.000000
-0.563501 0.538193 0.573767 0.000000 0.000000 0.000000
-0.480813 0.351519 0.290971 0.000000 0.000000 0.000000
-0.480615 0.398262 0.216631 0.000000 0.000000 0.000000
-0.369190 0.212317 0.269350 0.000000 0.000000 0.000000
-0.408922 0.239242 0.333432 0.000000 0.000000 0.000000
-0.356031 0.200186 0.242633 0.000000 0.000000 0.000000
-0.420429 0.204706 0.379053 0.000000 0.000000 0.000000
-0.573294 0.546952 0.266049 0.000000 0.000000 0.000000
-0.445095 0.248443 0.425358 0.000000 0.000000 0.000000
-0.579292 0.530336 0.294305 0.000000 0.000000 0.000000
-0.508239 0.389754 0.303362 0.000000 0.000000 0.000000
-0.618988 0.588585 0.435194 0.000000 0.000000 0.000000
-0.626738 0.609467 0.428151 0.000000 0.000000 0.000000
-0.483816 0.323700 0.423206 0.000000 0.000000 0.000000
-0.435410 0.383385 0.138762 0.000000 0.000000 0.000000
-0.455669 0.396944 0.134571 0.000000 0.000000 0.000000
-0.346289 0.255680 0.149920 0.000000 0.000000 0.000000
-0.550366 0.519017 0.259192 0.000000 0.000000 0.000000
-0.349319 0.249890 0.156553 0.000000 0.000000 0.000000
-0.332935 0.238615 0.155361 0.000000 0.000000 0.000000
-0.553169 0.498685 0.283094 0.000000 0.000000 0.000000
-0.424210 0.206734 0.396866 0.000000 0.000000 0.000000
-0.621409 0.616244 0.451466 0.000000 0.000000 0.000000
-0.607494 0.581519 0.482835 0.000000 0.000000 0.000000
-0.405543 0.333958 0.123503 0.000000 0.000000 0.000000
-0.466331 0.353769 0.291344 0.000000 0.000000 0.000000
-0.424805 0.339804 0.174495 0.000000 0.000000 0.000000
-0.332496 0.239479 0.137124 0.000000 0.000000 0.000000
-0.499758 0.411724 0.253949 0.000000 0.000000 0.000000
-0.369634 0.244227 0.210232 0.000000 0.000000 0.000000
-0.415561 0.329265 0.162505 0.000000 0.000000 0.000000
-0.418132 0.296247 0.206560 0.000000 0.000000 0.000000
-0.570692 0.477375 0.535332 0.000000 0.000000 0.000000
-0.575911 0.478981 0.501936 0.000000 0.000000 0.000000
-0.417175 0.201792 0.384483 0.000000 0.000000 0.000000
-0.440731 0.311169 0.258756 0.000000 0.000000 0.000000
-0.503656 0.412894 0.260365 0.000000 0.000000 0.000000
-0.570301 0.523868 0.563056 0.000000 0.000000 0.000000
-0.436122 0.371379 0.152135 0.000000 0.000000 0.000000
-0.586455 0.537522 0.306309 0.000000 0.000000 0.000000
-0.599850 0.537440 0.465608 0.000000 0.000000 0.000000
-0.630571 0.606839 0.416424 0.000000 0.000000 0.000000
-0.507829 0.355974 0.427081 0.000000 0.000000 0.000000
-0.333213 0.239003 0.131322 0.000000 0.000000 0.000000
-0.401288 0.287776 0.218549 0.000000 0.000000 0.000000
-0.408881 0.285261 0.238221 0.000000 0.000000 0.000000
-0.605739 0.556129 0.456412 0.000000 0.000000 0.000000
-0.381883 0.261703 0.210161 0.000000 0.000000 0.000000
-0.427279 0.195438 0.403748 0.000000 0.000000 0.000000
-0.578187 0.504405 0.360762 0.000000 0.000000 0.000000
-0.476251 0.316318 0.378676 0.000000 0.000000 0.000000
-0.408960 0.317167 0.171827 0.000000 0.000000 0.000000
-0.495545 0.394864 0.274030 0.000000 0.000000 0.000000
-0.550326 0.378302 0.592399 0.000000 0.000000 0.000000
-0.325547 0.231978 0.178210 0.000000 0.000000 0.000000
-0.484490 0.452494 0.138219 0.000000 0.000000 0.000000
-0.361464 0.261748 0.153616 0.000000 0.000000 0.000000
-0.565481 0.559861 0.239437 0.000000 0.000000 0.000000
-0.347515 0.206582 0.219477 0.000000 0.000000 0.000000
-0.574044 0.503747 0.541068 0.000000 0.000000 0.000000
-0.542154 0.407152 0.517858 0.000000 0.000000 0.000000
-0.393043 0.212524 0.307309 0.000000 0.000000 0.000000
-0.358439 0.246920 0.186279 0.000000 0.000000 0.000000
-0.466922 0.300846 0.526815 0.000000 0.000000 0.000000
-0.430372 0.384900 0.120911 0.000000 0.000000 0.000000
-0.426485 0.371531 0.130983 0.000000 0.000000 0.000000
-0.601092 0.644606 0.537156 0.000000 0.000000 0.000000
-0.406134 0.285130 0.226284 0.000000 0.000000 0.000000
-0.454581 0.242259 0.491642 0.000000 0.000000 0.000000
-0.327221 0.210863 0.181661 0.000000 0.000000 0.000000
-0.526003 0.540987 0.189575 0.000000 0.000000 0.000000
-0.434696 0.219430 0.415563 0.000000 0.000000 0.000000
-0.531200 0.547266 0.221109 0.000000 0.000000 0.000000
-0.505091 0.506117 0.166811 0.000000 0.000000 0.000000
-0.553562 0.409358 0.573968 0.000000 0.000000 0.000000
-0.471488 0.281943 0.525824 0.000000 0.000000 0.000000
-0.531431 0.547307 0.221181 0.000000 0.000000 0.000000
-0.513185 0.504801 0.175313 0.000000 0.000000 0.000000
-0.550593 0.377788 0.588466 0.000000 0.000000 0.000000
-0.438189 0.398631 0.119213 0.000000 0.000000 0.000000
-0.635222 0.612944 0.411309 0.000000 0.000000 0.000000
-0.532910 0.535327 0.230678 0.000000 0.000000 0.000000
-0.451361 0.228756 0.475585 0.000000 0.000000 0.000000
-0.553932 0.520549 0.605978 0.000000 0.000000 0.000000
-0.609446 0.572880 0.304275 0.000000 0.000000 0.000000
-0.511555 0.513765 0.172988 0.000000 0.000000 0.000000
-0.452630 0.228125 0.476841 0.000000 0.000000 0.000000
-0.610322 0.582723 0.325767 0.000000 0.000000 0.000000
-0.400784 0.328238 0.127334 0.000000 0.000000 0.000000
-0.437098 0.385561 0.121063 0.000000 0.000000 0.000000
-0.523210 0.535550 0.183708 0.000000 0.000000 0.000000
-0.382946 0.231865 0.265301 0.000000 0.000000 0.000000
-0.462966 0.282597 0.486659 0.000000 0.000000 0.000000
-0.504917 0.508197 0.169996 0.000000 0.000000 0.000000
-0.448807 0.373193 0.180490 0.000000 0.000000 0.000000
-0.554603 0.511770 0.602617 0.000000 0.000000 0.000000
-0.544767 0.509341 0.605095 0.000000 0.000000 0.000000
-0.459540 0.281096 0.435117 0.000000 0.000000 0.000000
-0.502733 0.511905 0.169412 0.000000 0.000000 0.000000
-0.539553 0.535986 0.235472 0.000000 0.000000 0.000000
-0.548109 0.540417 0.611321 0.000000 0.000000 0.000000
-0.428273 0.208107 0.400965 0.000000 0.000000 0.000000
-0.358199 0.222465 0.241459 0.000000 0.000000 0.000000
-0.579258 0.532126 0.545263 0.000000 0.000000 0.000000
-0.574615 0.466557 0.486231 0.000000 0.000000 0.000000
-0.441702 0.324732 0.275435 0.000000 0.000000 0.000000
-0.528189 0.431371 0.318764 0.000000 0.000000 0.000000
-0.487246 0.453045 0.139008 0.000000 0.000000 0.000000
-0.536973 0.553277 0.221275 0.000000 0.000000 0.000000
-0.605391 0.569213 0.317202 0.000000 0.000000 0.000000
-0.628300 0.654887 0.508042 0.000000 0.000000 0.000000
-0.458529 0.291593 0.379301 0.000000 0.000000 0.000000
-0.546731 0.403624 0.595013 0.000000 0.000000 0.000000
-0.477035 0.344530 0.309146 0.000000 0.000000 0.000000
-0.333188 0.246238 0.127274 0.000000 0.000000 0.000000
-0.517898 0.517418 0.192741 0.000000 0.000000 0.000000
-0.605068 0.578588 0.320569 0.000000 0.000000 0.000000
-0.540005 0.488745 0.607732 0.000000 0.000000 0.000000
-0.448757 0.231901 0.462869 0.000000 0.000000 0.000000
-0.544864 0.392447 0.570848 0.000000 0.000000 0.000000
-0.466614 0.260349 0.500184 0.000000 0.000000 0.000000
-0.401924 0.208905 0.333613 0.000000 0.000000 0.000000
-0.446085 0.241984 0.456970 0.000000 0.000000 0.000000
-0.326878 0.234375 0.142852 0.000000 0.000000 0.000000
-0.425442 0.372009 0.118451 0.000000 0.000000 0.000000
-0.537414 0.443927 0.304718 0.000000 0.000000 0.000000
-0.412321 0.261444 0.295157 0.000000 0.000000 0.000000
-0.393060 0.225289 0.300995 0.000000 0.000000 0.000000
-0.427868 0.240777 0.375534 0.000000 0.000000 0.000000
-0.409315 0.230961 0.337650 0.000000 0.000000 0.000000
-0.424588 0.191569 0.388717 0.000000 0.000000 0.000000
-0.377395 0.205115 0.294182 0.000000 0.000000 0.000000
-0.394653 0.211825 0.317367 0.000000 0.000000 0.000000
-0.400074 0.221442 0.324985 0.000000 0.000000 0.000000
-0.423668 0.210572 0.383719 0.000000 0.000000 0.000000
-0.355916 0.230536 0.201597 0.000000 0.000000 0.000000
-0.412963 0.269928 0.300033 0.000000 0.000000 0.000000
-0.468097 0.279303 0.501246 0.000000 0.000000 0.000000
-0.499118 0.505444 0.164316 0.000000 0.000000 0.000000
-0.492425 0.399499 0.241524 0.000000 0.000000 0.000000
-0.553031 0.514588 0.609110 0.000000 0.000000 0.000000
-0.545294 0.501939 0.602171 0.000000 0.000000 0.000000
-0.462591 0.292084 0.452944 0.000000 0.000000 0.000000
-0.501133 0.511398 0.169630 0.000000 0.000000 0.000000
-0.546552 0.525739 0.598549 0.000000 0.000000 0.000000
-0.468818 0.280306 0.510550 0.000000 0.000000 0.000000
-0.436835 0.288544 0.297649 0.000000 0.000000 0.000000
-0.535127 0.578231 0.605460 0.000000 0.000000 0.000000
-0.583377 0.517596 0.526884 0.000000 0.000000 0.000000
-0.466022 0.310068 0.352843 0.000000 0.000000 0.000000
-0.489903 0.463517 0.143767 0.000000 0.000000 0.000000
-0.607972 0.576745 0.317667 0.000000 0.000000 0.000000
-0.624007 0.654131 0.503743 0.000000 0.000000 0.000000
-0.500810 0.338149 0.403796 0.000000 0.000000 0.000000
-0.457531 0.327840 0.286183 0.000000 0.000000 0.000000
-0.346541 0.254135 0.127120 0.000000 0.000000 0.000000
-0.519557 0.342981 0.567338 0.000000 0.000000 0.000000
-0.435595 0.226753 0.413232 0.000000 0.000000 0.000000
-0.516780 0.514637 0.194986 0.000000 0.000000 0.000000
-0.614466 0.584365 0.309386 0.000000 0.000000 0.000000
-0.603418 0.580043 0.324437 0.000000 0.000000 0.000000
-0.545404 0.505302 0.612130 0.000000 0.000000 0.000000
-0.469240 0.271941 0.507222 0.000000 0.000000 0.000000
-0.456239 0.243865 0.481650 0.000000 0.000000 0.000000
-0.543843 0.376853 0.581423 0.000000 0.000000 0.000000
-0.464998 0.257758 0.502221 0.000000 0.000000 0.000000
-0.405809 0.202824 0.345561 0.000000 0.000000 0.000000
-0.446386 0.235370 0.476017 0.000000 0.000000 0.000000
-0.480713 0.370752 0.259537 0.000000 0.000000 0.000000
-0.414842 0.284505 0.250105 0.000000 0.000000 0.000000
-0.377773 0.219939 0.276466 0.000000 0.000000 0.000000
-0.441227 0.243647 0.422125 0.000000 0.000000 0.000000
-0.427864 0.258098 0.341856 0.000000 0.000000 0.000000
-0.426670 0.191857 0.395415 0.000000 0.000000 0.000000
-0.367419 0.225743 0.232373 0.000000 0.000000 0.000000
-0.391344 0.205106 0.306095 0.000000 0.000000 0.000000
-0.321485 0.218713 0.188809 0.000000 0.000000 0.000000
-0.409803 0.219746 0.341258 0.000000 0.000000 0.000000
-0.334860 0.224870 0.161399 0.000000 0.000000 0.000000
-0.398661 0.239907 0.295551 0.000000 0.000000 0.000000
-0.330732 0.231419 0.168826 0.000000 0.000000 0.000000
-0.386107 0.207914 0.329102 0.000000 0.000000 0.000000
-0.398856 0.316199 0.124269 0.000000 0.000000 0.000000
-0.452626 0.232291 0.477130 0.000000 0.000000 0.000000
-0.375185 0.296566 0.127140 0.000000 0.000000 0.000000
-0.454634 0.225196 0.476024 0.000000 0.000000 0.000000
-0.454038 0.229922 0.480360 0.000000 0.000000 0.000000
-0.525330 0.531856 0.190576 0.000000 0.000000 0.000000
-0.466484 0.265470 0.500816 0.000000 0.000000 0.000000
-0.395699 0.351196 0.139722 0.000000 0.000000 0.000000
-0.604288 0.578105 0.366330 0.000000 0.000000 0.000000
-0.526856 0.355757 0.512922 0.000000 0.000000 0.000000
-0.389283 0.304121 0.132495 0.000000 0.000000 0.000000
-0.488393 0.450817 0.133439 0.000000 0.000000 0.000000
-0.549611 0.440179 0.604156 0.000000 0.000000 0.000000
-0.399231 0.331841 0.126768 0.000000 0.000000 0.000000
-0.446930 0.407759 0.121897 0.000000 0.000000 0.000000
-0.328496 0.218792 0.174687 0.000000 0.000000 0.000000
-0.438606 0.334516 0.215982 0.000000 0.000000 0.000000
-0.415080 0.314183 0.189029 0.000000 0.000000 0.000000
-0.388337 0.203478 0.322760 0.000000 0.000000 0.000000
-0.390743 0.346741 0.143367 0.000000 0.000000 0.000000
-0.618981 0.594042 0.363066 0.000000 0.000000 0.000000
-0.527541 0.357031 0.522924 0.000000 0.000000 0.000000
-0.379725 0.289791 0.129245 0.000000 0.000000 0.000000
-0.391380 0.303732 0.127624 0.000000 0.000000 0.000000
-0.487061 0.451555 0.135934 0.000000 0.000000 0.000000
-0.377636 0.285957 0.133075 0.000000 0.000000 0.000000
-0.394568 0.316751 0.131208 0.000000 0.000000 0.000000
-0.406494 0.332732 0.122461 0.000000 0.000000 0.000000
-0.448131 0.410306 0.123211 0.000000 0.000000 0.000000
-0.638522 0.607184 0.397020 0.000000 0.000000 0.000000
-0.474452 0.352309 0.264518 0.000000 0.000000 0.000000
-0.423901 0.300399 0.218723 0.000000 0.000000 0.000000
-0.346822 0.267203 0.126825 0.000000 0.000000 0.000000
-0.342501 0.257721 0.125716 0.000000 0.000000 0.000000
-0.498104 0.503043 0.171989 0.000000 0.000000 0.000000
-0.508082 0.513473 0.172622 0.000000 0.000000 0.000000
-0.425154 0.200610 0.393986 0.000000 0.000000 0.000000
-0.503832 0.513709 0.172127 0.000000 0.000000 0.000000
-0.588406 0.556667 0.259067 0.000000 0.000000 0.000000
-0.512787 0.518421 0.174753 0.000000 0.000000 0.000000
-0.509085 0.514908 0.179691 0.000000 0.000000 0.000000
-0.609992 0.588608 0.323751 0.000000 0.000000 0.000000
-0.417988 0.363474 0.119733 0.000000 0.000000 0.000000
-0.397265 0.194851 0.342989 0.000000 0.000000 0.000000
-0.612901 0.591877 0.323447 0.000000 0.000000 0.000000
-0.608879 0.643510 0.508729 0.000000 0.000000 0.000000
-0.613410 0.652925 0.511234 0.000000 0.000000 0.000000
-0.615254 0.663043 0.528162 0.000000 0.000000 0.000000
-0.610737 0.636949 0.520162 0.000000 0.000000 0.000000
-0.601909 0.652209 0.514634 0.000000 0.000000 0.000000
-0.364213 0.283989 0.127053 0.000000 0.000000 0.000000
-0.624456 0.657516 0.517318 0.000000 0.000000 0.000000
-0.402371 0.342600 0.120324 0.000000 0.000000 0.000000
-0.620250 0.652962 0.520241 0.000000 0.000000 0.000000
-0.371011 0.283203 0.124822 0.000000 0.000000 0.000000
-0.612352 0.662071 0.528243 0.000000 0.000000 0.000000
-0.430485 0.204261 0.423256 0.000000 0.000000 0.000000
-0.424322 0.273661 0.297016 0.000000 0.000000 0.000000
-0.459679 0.364794 0.211361 0.000000 0.000000 0.000000
-0.419054 0.328157 0.217851 0.000000 0.000000 0.000000
-0.349921 0.239221 0.188532 0.000000 0.000000 0.000000
-0.416473 0.352981 0.122493 0.000000 0.000000 0.000000
-0.604608 0.613191 0.518775 0.000000 0.000000 0.000000
-0.506597 0.500019 0.180600 0.000000 0.000000 0.000000
-0.609937 0.660447 0.521399 0.000000 0.000000 0.000000
-0.616751 0.653481 0.500375 0.000000 0.000000 0.000000
-0.592613 0.657160 0.510230 0.000000 0.000000 0.000000
-0.367918 0.279014 0.136066 0.000000 0.000000 0.000000
-0.624027 0.653561 0.513041 0.000000 0.000000 0.000000
-0.610912 0.583282 0.334675 0.000000 0.000000 0.000000
-0.615951 0.590618 0.342275 0.000000 0.000000 0.000000
-0.452973 0.316949 0.280144 0.000000 0.000000 0.000000
-0.401524 0.333177 0.119541 0.000000 0.000000 0.000000
-0.367450 0.281292 0.128368 0.000000 0.000000 0.000000
-0.455651 0.235276 0.479899 0.000000 0.000000 0.000000
-0.365812 0.284740 0.132414 0.000000 0.000000 0.000000
-0.375965 0.294101 0.131364 0.000000 0.000000 0.000000
-0.613253 0.656224 0.526068 0.000000 0.000000 0.000000
-0.359756 0.276958 0.124214 0.000000 0.000000 0.000000
-0.425403 0.199630 0.418871 0.000000 0.000000 0.000000
-0.453029 0.294077 0.341212 0.000000 0.000000 0.000000
-0.474865 0.401242 0.203674 0.000000 0.000000 0.000000
-0.391547 0.253137 0.250780 0.000000 0.000000 0.000000
-0.541844 0.411971 0.600600 0.000000 0.000000 0.000000
-0.582392 0.557911 0.257709 0.000000 0.000000 0.000000
-0.620145 0.630862 0.463453 0.000000 0.000000 0.000000
-0.633060 0.606082 0.408261 0.000000 0.000000 0.000000
-0.450875 0.227420 0.473797 0.000000 0.000000 0.000000
-0.620159 0.623319 0.448091 0.000000 0.000000 0.000000
-0.455001 0.231996 0.480925 0.000000 0.000000 0.000000
-0.422434 0.367623 0.121919 0.000000 0.000000 0.000000
-0.552035 0.553328 0.235765 0.000000 0.000000 0.000000
-0.433996 0.208031 0.422968 0.000000 0.000000 0.000000
-0.619318 0.631231 0.454465 0.000000 0.000000 0.000000
-0.411237 0.356077 0.124203 0.000000 0.000000 0.000000
-0.616093 0.614445 0.464956 0.000000 0.000000 0.000000
-0.622989 0.623378 0.445978 0.000000 0.000000 0.000000
-0.616127 0.612479 0.469548 0.000000 0.000000 0.000000
-0.621515 0.629920 0.444893 0.000000 0.000000 0.000000
-0.620538 0.635460 0.460717 0.000000 0.000000 0.000000
-0.525909 0.538451 0.197617 0.000000 0.000000 0.000000
-0.413354 0.306340 0.216887 0.000000 0.000000 0.000000
-0.616267 0.620392 0.469676 0.000000 0.000000 0.000000
-0.621200 0.633235 0.451674 0.000000 0.000000 0.000000
-0.621979 0.638882 0.462909 0.000000 0.000000 0.000000
-0.633858 0.619137 0.419201 0.000000 0.000000 0.000000
-0.368313 0.275300 0.132068 0.000000 0.000000 0.000000
-0.636212 0.603789 0.396420 0.000000 0.000000 0.000000
-0.622562 0.640199 0.471344 0.000000 0.000000 0.000000
-0.621285 0.640502 0.456181 0.000000 0.000000 0.000000
-0.354897 0.271474 0.125464 0.000000 0.000000 0.000000
-0.541282 0.567820 0.606176 0.000000 0.000000 0.000000
-0.474359 0.369595 0.243060 0.000000 0.000000 0.000000
-0.588244 0.562627 0.255157 0.000000 0.000000 0.000000
-0.367639 0.281944 0.128212 0.000000 0.000000 0.000000
-0.350772 0.242232 0.177857 0.000000 0.000000 0.000000
-0.389014 0.300157 0.122890 0.000000 0.000000 0.000000
-0.381833 0.299010 0.130180 0.000000 0.000000 0.000000
-0.388545 0.293408 0.127327 0.000000 0.000000 0.000000
-0.455812 0.298097 0.361869 0.000000 0.000000 0.000000
-0.540705 0.549892 0.604740 0.000000 0.000000 0.000000
-0.432158 0.204774 0.422955 0.000000 0.000000 0.000000
-0.565062 0.558548 0.241697 0.000000 0.000000 0.000000
-0.620632 0.634764 0.465212 0.000000 0.000000 0.000000
-0.414141 0.358713 0.121793 0.000000 0.000000 0.000000
-0.618134 0.617475 0.461583 0.000000 0.000000 0.000000
-0.618791 0.625306 0.474029 0.000000 0.000000 0.000000
-0.619151 0.636788 0.467353 0.000000 0.000000 0.000000
-0.524045 0.534191 0.187715 0.000000 0.000000 0.000000
-0.404696 0.313646 0.187699 0.000000 0.000000 0.000000
-0.621498 0.637106 0.458226 0.000000 0.000000 0.000000
-0.621560 0.637330 0.456289 0.000000 0.000000 0.000000
-0.543788 0.380518 0.548721 0.000000 0.000000 0.000000
-0.636610 0.613171 0.411783 0.000000 0.000000 0.000000
-0.635460 0.612601 0.415176 0.000000 0.000000 0.000000
-0.450044 0.235245 0.466689 0.000000 0.000000 0.000000
-0.621742 0.634744 0.454931 0.000000 0.000000 0.000000
-0.543825 0.582051 0.603481 0.000000 0.000000 0.000000
-0.445842 0.320544 0.246106 0.000000 0.000000 0.000000
-0.358624 0.276581 0.127559 0.000000 0.000000 0.000000
-0.386250 0.301579 0.128135 0.000000 0.000000 0.000000
-0.384044 0.298764 0.124657 0.000000 0.000000 0.000000
-0.569728 0.539211 0.266769 0.000000 0.000000 0.000000
-0.612916 0.586055 0.337832 0.000000 0.000000 0.000000
-0.631689 0.621819 0.425789 0.000000 0.000000 0.000000
-0.472447 0.275301 0.515586 0.000000 0.000000 0.000000
-0.469305 0.279685 0.516511 0.000000 0.000000 0.000000
-0.469691 0.283815 0.506936 0.000000 0.000000 0.000000
-0.527617 0.538936 0.197433 0.000000 0.000000 0.000000
-0.515662 0.346594 0.568680 0.000000 0.000000 0.000000
-0.521026 0.344837 0.560541 0.000000 0.000000 0.000000
-0.624348 0.659143 0.516100 0.000000 0.000000 0.000000
-0.604935 0.656311 0.529368 0.000000 0.000000 0.000000
-0.542160 0.427219 0.602948 0.000000 0.000000 0.000000
-0.624615 0.655989 0.510602 0.000000 0.000000 0.000000
-0.608207 0.650439 0.518517 0.000000 0.000000 0.000000
-0.620537 0.653037 0.510370 0.000000 0.000000 0.000000
-0.451190 0.400456 0.139085 0.000000 0.000000 0.000000
-0.615028 0.652981 0.525910 0.000000 0.000000 0.000000
-0.574145 0.668061 0.565460 0.000000 0.000000 0.000000
-0.453800 0.409538 0.121289 0.000000 0.000000 0.000000
-0.465661 0.271692 0.497861 0.000000 0.000000 0.000000
-0.627719 0.659219 0.515109 0.000000 0.000000 0.000000
-0.477436 0.427682 0.130799 0.000000 0.000000 0.000000
-0.444955 0.396268 0.124241 0.000000 0.000000 0.000000
-0.512522 0.518542 0.172438 0.000000 0.000000 0.000000
-0.639938 0.617831 0.400429 0.000000 0.000000 0.000000
-0.467577 0.271826 0.502601 0.000000 0.000000 0.000000
-0.585448 0.486451 0.431397 0.000000 0.000000 0.000000
-0.611462 0.589480 0.333158 0.000000 0.000000 0.000000
-0.514035 0.340381 0.568723 0.000000 0.000000 0.000000
-0.582699 0.490194 0.492520 0.000000 0.000000 0.000000
-0.595577 0.513351 0.454399 0.000000 0.000000 0.000000
-0.622756 0.656007 0.521359 0.000000 0.000000 0.000000
-0.619769 0.644196 0.499787 0.000000 0.000000 0.000000
-0.621076 0.655729 0.523346 0.000000 0.000000 0.000000
-0.538682 0.431905 0.604321 0.000000 0.000000 0.000000
-0.612431 0.644138 0.522004 0.000000 0.000000 0.000000
-0.610685 0.651280 0.525532 0.000000 0.000000 0.000000
-0.585207 0.668171 0.557093 0.000000 0.000000 0.000000
-0.453955 0.409110 0.122435 0.000000 0.000000 0.000000
-0.433817 0.385825 0.122558 0.000000 0.000000 0.000000
-0.460105 0.412622 0.122632 0.000000 0.000000 0.000000
-0.519373 0.528120 0.179830 0.000000 0.000000 0.000000
-0.449535 0.408028 0.123833 0.000000 0.000000 0.000000
-0.507265 0.514369 0.169669 0.000000 0.000000 0.000000
-0.637887 0.619405 0.411324 0.000000 0.000000 0.000000
-0.469130 0.276440 0.512014 0.000000 0.000000 0.000000
-0.529496 0.348123 0.574864 0.000000 0.000000 0.000000
-0.582972 0.479245 0.447819 0.000000 0.000000 0.000000
-0.613158 0.586848 0.339460 0.000000 0.000000 0.000000
-0.613233 0.585235 0.343371 0.000000 0.000000 0.000000
-0.513399 0.341342 0.566974 0.000000 0.000000 0.000000
-0.591195 0.510210 0.481617 0.000000 0.000000 0.000000
-0.580774 0.468494 0.457754 0.000000 0.000000 0.000000
-0.397852 0.308146 0.125830 0.000000 0.000000 0.000000
-0.621468 0.659609 0.528451 0.000000 0.000000 0.000000
-0.616501 0.659945 0.520067 0.000000 0.000000 0.000000
-0.616967 0.660485 0.532235 0.000000 0.000000 0.000000
-0.541365 0.421800 0.601942 0.000000 0.000000 0.000000
-0.553907 0.551746 0.239912 0.000000 0.000000 0.000000
-0.541274 0.430956 0.596917 0.000000 0.000000 0.000000
-0.546216 0.428343 0.584231 0.000000 0.000000 0.000000
-0.622029 0.631389 0.448374 0.000000 0.000000 0.000000
-0.518225 0.521268 0.177104 0.000000 0.000000 0.000000
-0.419181 0.189080 0.381963 0.000000 0.000000 0.000000
-0.445073 0.406250 0.121107 0.000000 0.000000 0.000000
-0.513596 0.528331 0.174485 0.000000 0.000000 0.000000
-0.512445 0.520620 0.175968 0.000000 0.000000 0.000000
-0.538422 0.446155 0.606065 0.000000 0.000000 0.000000
-0.363805 0.273942 0.132756 0.000000 0.000000 0.000000
-0.537835 0.534958 0.226173 0.000000 0.000000 0.000000
-0.510516 0.515112 0.172210 0.000000 0.000000 0.000000
-0.489168 0.448899 0.134947 0.000000 0.000000 0.000000
-0.521959 0.532908 0.184092 0.000000 0.000000 0.000000
-0.441067 0.317299 0.277223 0.000000 0.000000 0.000000
-0.555166 0.558456 0.234508 0.000000 0.000000 0.000000
-0.458570 0.246895 0.496299 0.000000 0.000000 0.000000
-0.498894 0.337326 0.566532 0.000000 0.000000 0.000000
-0.614572 0.577557 0.307689 0.000000 0.000000 0.000000
-0.546706 0.416051 0.599973 0.000000 0.000000 0.000000
-0.405503 0.278460 0.225549 0.000000 0.000000 0.000000
-0.561185 0.560008 0.238445 0.000000 0.000000 0.000000
-0.425101 0.194377 0.398328 0.000000 0.000000 0.000000
-0.354705 0.263922 0.126586 0.000000 0.000000 0.000000
-0.529226 0.545275 0.211794 0.000000 0.000000 0.000000
-0.535219 0.451171 0.603249 0.000000 0.000000 0.000000
-0.513551 0.516659 0.177844 0.000000 0.000000 0.000000
-0.483646 0.445435 0.131800 0.000000 0.000000 0.000000
-0.552808 0.564831 0.589005 0.000000 0.000000 0.000000
-0.337191 0.263116 0.130759 0.000000 0.000000 0.000000
-0.522370 0.531611 0.182015 0.000000 0.000000 0.000000
-0.612710 0.581959 0.310364 0.000000 0.000000 0.000000
-0.557546 0.554213 0.237986 0.000000 0.000000 0.000000
-0.510114 0.341363 0.573404 0.000000 0.000000 0.000000
-0.614227 0.576244 0.299605 0.000000 0.000000 0.000000
-0.549297 0.411796 0.600114 0.000000 0.000000 0.000000
-0.562897 0.557490 0.240095 0.000000 0.000000 0.000000
-0.604896 0.571301 0.310824 0.000000 0.000000 0.000000
-0.459463 0.235694 0.487580 0.000000 0.000000 0.000000
-0.398093 0.189558 0.339444 0.000000 0.000000 0.000000
-0.610352 0.575141 0.303683 0.000000 0.000000 0.000000
-0.607838 0.573653 0.292597 0.000000 0.000000 0.000000
-0.519860 0.349670 0.577330 0.000000 0.000000 0.000000
-0.473062 0.283883 0.521110 0.000000 0.000000 0.000000
-0.546592 0.447434 0.603328 0.000000 0.000000 0.000000
-0.468256 0.281524 0.516319 0.000000 0.000000 0.000000
-0.524340 0.344741 0.572762 0.000000 0.000000 0.000000
-0.550928 0.449560 0.581448 0.000000 0.000000 0.000000
-0.403854 0.194683 0.347253 0.000000 0.000000 0.000000
-0.543699 0.445043 0.599860 0.000000 0.000000 0.000000
-0.540161 0.442204 0.597707 0.000000 0.000000 0.000000
-0.546939 0.432160 0.596077 0.000000 0.000000 0.000000
-0.545383 0.417870 0.595338 0.000000 0.000000 0.000000
-0.552992 0.463389 0.569368 0.000000 0.000000 0.000000
-0.482928 0.330526 0.552699 0.000000 0.000000 0.000000
-0.444466 0.315900 0.261099 0.000000 0.000000 0.000000
-0.616976 0.577043 0.300597 0.000000 0.000000 0.000000
-0.553501 0.535780 0.609826 0.000000 0.000000 0.000000
-0.569406 0.563632 0.240433 0.000000 0.000000 0.000000
-0.422939 0.187876 0.391196 0.000000 0.000000 0.000000
-0.341996 0.226913 0.183951 0.000000 0.000000 0.000000
-0.399202 0.191474 0.346539 0.000000 0.000000 0.000000
-0.543695 0.431572 0.600392 0.000000 0.000000 0.000000
-0.553593 0.423476 0.604836 0.000000 0.000000 0.000000
-0.498103 0.409390 0.248011 0.000000 0.000000 0.000000
-0.555598 0.554061 0.231831 0.000000 0.000000 0.000000
-0.470189 0.272447 0.510601 0.000000 0.000000 0.000000
-0.552837 0.555306 0.235015 0.000000 0.000000 0.000000
-0.471544 0.314402 0.416799 0.000000 0.000000 0.000000
-0.401653 0.187682 0.343792 0.000000 0.000000 0.000000
-0.551472 0.454666 0.585514 0.000000 0.000000 0.000000
-0.548334 0.467692 0.583354 0.000000 0.000000 0.000000
-0.407065 0.190309 0.355124 0.000000 0.000000 0.000000
-0.550412 0.430824 0.595687 0.000000 0.000000 0.000000
-0.547769 0.445755 0.592362 0.000000 0.000000 0.000000
-0.549123 0.412648 0.595050 0.000000 0.000000 0.000000
-0.546946 0.453047 0.591203 0.000000 0.000000 0.000000
-0.544937 0.458427 0.602300 0.000000 0.000000 0.000000
-0.541268 0.439357 0.603661 0.000000 0.000000 0.000000
-0.383570 0.267520 0.216421 0.000000 0.000000 0.000000
-0.553236 0.537476 0.606339 0.000000 0.000000 0.000000
-0.552920 0.552366 0.239517 0.000000 0.000000 0.000000
-0.425385 0.189534 0.401878 0.000000 0.000000 0.000000
-0.339485 0.235511 0.182486 0.000000 0.000000 0.000000
-0.398884 0.187813 0.348790 0.000000 0.000000 0.000000
-0.555082 0.405553 0.600949 0.000000 0.000000 0.000000
-0.546773 0.558334 0.228392 0.000000 0.000000 0.000000
-0.467942 0.271722 0.503492 0.000000 0.000000 0.000000
-0.541578 0.551925 0.227725 0.000000 0.000000 0.000000
-0.545662 0.426915 0.598872 0.000000 0.000000 0.000000
-0.371830 0.295619 0.127409 0.000000 0.000000 0.000000
-0.453275 0.323307 0.280970 0.000000 0.000000 0.000000
-0.374586 0.294206 0.126256 0.000000 0.000000 0.000000
-0.484515 0.328209 0.473737 0.000000 0.000000 0.000000
-0.409074 0.189555 0.349421 0.000000 0.000000 0.000000
-0.611689 0.587627 0.316573 0.000000 0.000000 0.000000
-0.584109 0.563736 0.269081 0.000000 0.000000 0.000000
-0.528372 0.542153 0.203270 0.000000 0.000000 0.000000
-0.612763 0.575091 0.300626 0.000000 0.000000 0.000000
-0.524027 0.524285 0.196580 0.000000 0.000000 0.000000
-0.546552 0.421011 0.601480 0.000000 0.000000 0.000000
-0.415315 0.188006 0.361944 0.000000 0.000000 0.000000
-0.415865 0.192506 0.376902 0.000000 0.000000 0.000000
-0.518412 0.522639 0.189983 0.000000 0.000000 0.000000
-0.456696 0.415037 0.121471 0.000000 0.000000 0.000000
-0.419088 0.191890 0.378448 0.000000 0.000000 0.000000
-0.471964 0.288110 0.529644 0.000000 0.000000 0.000000
-0.523800 0.534581 0.186472 0.000000 0.000000 0.000000
-0.519547 0.470476 0.234098 0.000000 0.000000 0.000000
-0.523601 0.518847 0.216933 0.000000 0.000000 0.000000
-0.534770 0.466474 0.285231 0.000000 0.000000 0.000000
-0.547197 0.530476 0.240632 0.000000 0.000000 0.000000
-0.524494 0.528798 0.191912 0.000000 0.000000 0.000000
-0.523854 0.526587 0.197592 0.000000 0.000000 0.000000
-0.525366 0.504241 0.226264 0.000000 0.000000 0.000000
-0.548388 0.407974 0.415546 0.000000 0.000000 0.000000
-0.520897 0.490654 0.220046 0.000000 0.000000 0.000000
-0.514324 0.447582 0.242890 0.000000 0.000000 0.000000
-0.519713 0.427745 0.290865 0.000000 0.000000 0.000000
-0.523352 0.530120 0.190187 0.000000 0.000000 0.000000
-0.534807 0.547110 0.215546 0.000000 0.000000 0.000000
-0.531503 0.541304 0.209842 0.000000 0.000000 0.000000
-0.525693 0.537332 0.189838 0.000000 0.000000 0.000000
-0.515549 0.343617 0.506259 0.000000 0.000000 0.000000
-0.519340 0.351016 0.509314 0.000000 0.000000 0.000000
-0.420635 0.191905 0.384628 0.000000 0.000000 0.000000
-0.527037 0.541772 0.197187 0.000000 0.000000 0.000000
-0.419971 0.190936 0.387952 0.000000 0.000000 0.000000
-0.504833 0.450538 0.216443 0.000000 0.000000 0.000000
-0.421210 0.279325 0.309544 0.000000 0.000000 0.000000
-0.465875 0.368970 0.238405 0.000000 0.000000 0.000000
-0.427773 0.202144 0.406667 0.000000 0.000000 0.000000
-0.440260 0.297301 0.302027 0.000000 0.000000 0.000000
-0.424406 0.189011 0.385292 0.000000 0.000000 0.000000
-0.423586 0.186354 0.397143 0.000000 0.000000 0.000000
-0.422554 0.315517 0.206261 0.000000 0.000000 0.000000
-0.416460 0.294538 0.241192 0.000000 0.000000 0.000000
-0.614424 0.594776 0.340382 0.000000 0.000000 0.000000
-0.404738 0.286258 0.229705 0.000000 0.000000 0.000000
-0.558441 0.461891 0.576067 0.000000 0.000000 0.000000
-0.346536 0.215146 0.217399 0.000000 0.000000 0.000000
-0.518323 0.457140 0.248615 0.000000 0.000000 0.000000
-0.527857 0.533661 0.206282 0.000000 0.000000 0.000000
-0.499688 0.405338 0.262109 0.000000 0.000000 0.000000
-0.521560 0.527836 0.184436 0.000000 0.000000 0.000000
-0.542993 0.508065 0.244804 0.000000 0.000000 0.000000
-0.516045 0.510057 0.203300 0.000000 0.000000 0.000000
-0.527811 0.529076 0.208369 0.000000 0.000000 0.000000
-0.482960 0.410406 0.221060 0.000000 0.000000 0.000000
-0.565147 0.445528 0.413229 0.000000 0.000000 0.000000
-0.538465 0.482200 0.270102 0.000000 0.000000 0.000000
-0.504994 0.451614 0.219908 0.000000 0.000000 0.000000
-0.550471 0.498944 0.276483 0.000000 0.000000 0.000000
-0.521491 0.530276 0.193474 0.000000 0.000000 0.000000
-0.529626 0.534725 0.211473 0.000000 0.000000 0.000000
-0.466075 0.297590 0.529855 0.000000 0.000000 0.000000
-0.606905 0.672667 0.541658 0.000000 0.000000 0.000000
-0.509589 0.342659 0.512504 0.000000 0.000000 0.000000
-0.491999 0.337919 0.518856 0.000000 0.000000 0.000000
-0.527497 0.363328 0.507002 0.000000 0.000000 0.000000
-0.422850 0.195253 0.396529 0.000000 0.000000 0.000000
-0.524592 0.538822 0.183734 0.000000 0.000000 0.000000
-0.417014 0.198088 0.379925 0.000000 0.000000 0.000000
-0.522160 0.450443 0.261172 0.000000 0.000000 0.000000
-0.453493 0.364159 0.269130 0.000000 0.000000 0.000000
-0.461571 0.347143 0.236605 0.000000 0.000000 0.000000
-0.421820 0.193617 0.382437 0.000000 0.000000 0.000000
-0.462699 0.372172 0.214683 0.000000 0.000000 0.000000
-0.424054 0.297248 0.248393 0.000000 0.000000 0.000000
-0.617470 0.596461 0.346665 0.000000 0.000000 0.000000
-0.404896 0.284028 0.230834 0.000000 0.000000 0.000000
-0.552764 0.440756 0.588835 0.000000 0.000000 0.000000
-0.538377 0.568797 0.562543 0.000000 0.000000 0.000000
-0.577100 0.562265 0.247360 0.000000 0.000000 0.000000
-0.405933 0.343439 0.119909 0.000000 0.000000 0.000000
-0.501132 0.508738 0.173749 0.000000 0.000000 0.000000
-0.424122 0.368787 0.120334 0.000000 0.000000 0.000000
-0.416249 0.358811 0.120055 0.000000 0.000000 0.000000
-0.405251 0.333832 0.121254 0.000000 0.000000 0.000000
-0.547402 0.548611 0.579838 0.000000 0.000000 0.000000
-0.414836 0.347300 0.122681 0.000000 0.000000 0.000000
-0.347815 0.265329 0.127085 0.000000 0.000000 0.000000
-0.474220 0.327520 0.549213 0.000000 0.000000 0.000000
-0.381204 0.294205 0.138371 0.000000 0.000000 0.000000
-0.411707 0.362002 0.137181 0.000000 0.000000 0.000000
-0.407753 0.334905 0.123553 0.000000 0.000000 0.000000
-0.428059 0.363811 0.120269 0.000000 0.000000 0.000000
-0.340789 0.269520 0.131492 0.000000 0.000000 0.000000
-0.632136 0.628882 0.432163 0.000000 0.000000 0.000000
-0.380888 0.301045 0.124713 0.000000 0.000000 0.000000
-0.327133 0.229915 0.160159 0.000000 0.000000 0.000000
-0.544085 0.544060 0.582874 0.000000 0.000000 0.000000
-0.572316 0.561218 0.244142 0.000000 0.000000 0.000000
-0.476904 0.330924 0.554327 0.000000 0.000000 0.000000
-0.361341 0.282919 0.129492 0.000000 0.000000 0.000000
-0.409038 0.365851 0.132277 0.000000 0.000000 0.000000
-0.414753 0.335902 0.129793 0.000000 0.000000 0.000000
-0.422359 0.359243 0.120521 0.000000 0.000000 0.000000
-0.338353 0.257544 0.128604 0.000000 0.000000 0.000000
-0.631130 0.625319 0.434067 0.000000 0.000000 0.000000
-0.584098 0.555063 0.266766 0.000000 0.000000 0.000000
-0.606958 0.565081 0.298028 0.000000 0.000000 0.000000
-0.415565 0.188486 0.370000 0.000000 0.000000 0.000000
-0.413344 0.349765 0.127374 0.000000 0.000000 0.000000
-0.453677 0.229491 0.476809 0.000000 0.000000 0.000000
-0.437020 0.214494 0.441245 0.000000 0.000000 0.000000
-0.565030 0.565284 0.235846 0.000000 0.000000 0.000000
-0.417626 0.191519 0.384647 0.000000 0.000000 0.000000
-0.527924 0.543275 0.196444 0.000000 0.000000 0.000000
-0.612712 0.591595 0.336295 0.000000 0.000000 0.000000
-0.552110 0.558973 0.231518 0.000000 0.000000 0.000000
-0.424225 0.189281 0.401409 0.000000 0.000000 0.000000
-0.359002 0.278373 0.129850 0.000000 0.000000 0.000000
-0.434443 0.208993 0.435266 0.000000 0.000000 0.000000
-0.564761 0.555075 0.242842 0.000000 0.000000 0.000000
-0.544067 0.556459 0.230936 0.000000 0.000000 0.000000
-0.439072 0.235598 0.427292 0.000000 0.000000 0.000000
-0.418749 0.188501 0.364848 0.000000 0.000000 0.000000
-0.439177 0.232327 0.427668 0.000000 0.000000 0.000000
-0.557302 0.545777 0.245672 0.000000 0.000000 0.000000
-0.452471 0.231766 0.481889 0.000000 0.000000 0.000000
-0.432077 0.202948 0.441049 0.000000 0.000000 0.000000
-0.440211 0.213489 0.438910 0.000000 0.000000 0.000000
-0.400579 0.227020 0.319368 0.000000 0.000000 0.000000
-0.368939 0.295354 0.129295 0.000000 0.000000 0.000000
-0.495621 0.358066 0.326219 0.000000 0.000000 0.000000
-0.436287 0.218719 0.427323 0.000000 0.000000 0.000000
-0.429315 0.202437 0.427661 0.000000 0.000000 0.000000
-0.566100 0.556348 0.243577 0.000000 0.000000 0.000000
-0.540393 0.552082 0.209182 0.000000 0.000000 0.000000
-0.415359 0.225133 0.355488 0.000000 0.000000 0.000000
-0.419871 0.187673 0.368342 0.000000 0.000000 0.000000
-0.439314 0.223378 0.445927 0.000000 0.000000 0.000000
-0.567426 0.561675 0.240493 0.000000 0.000000 0.000000
-0.447551 0.228890 0.478585 0.000000 0.000000 0.000000
-0.432991 0.211713 0.451039 0.000000 0.000000 0.000000
-0.355925 0.286674 0.132771 0.000000 0.000000 0.000000
-0.533813 0.550841 0.218109 0.000000 0.000000 0.000000
-0.533959 0.542436 0.223129 0.000000 0.000000 0.000000
-0.531146 0.550804 0.211317 0.000000 0.000000 0.000000
-0.625042 0.595924 0.375665 0.000000 0.000000 0.000000
-0.611126 0.591638 0.327133 0.000000 0.000000 0.000000
-0.532517 0.542590 0.220920 0.000000 0.000000 0.000000
-0.633674 0.604352 0.379890 0.000000 0.000000 0.000000
-0.387414 0.299515 0.122509 0.000000 0.000000 0.000000
-0.612638 0.594275 0.334904 0.000000 0.000000 0.000000
-0.548200 0.405323 0.597858 0.000000 0.000000 0.000000
-0.541114 0.551716 0.228013 0.000000 0.000000 0.000000
-0.523878 0.521517 0.202739 0.000000 0.000000 0.000000
-0.611778 0.590116 0.318623 0.000000 0.000000 0.000000
-0.422143 0.217923 0.389348 0.000000 0.000000 0.000000
-0.535512 0.465046 0.320990 0.000000 0.000000 0.000000
-0.603651 0.571630 0.372620 0.000000 0.000000 0.000000
-0.538751 0.553221 0.228468 0.000000 0.000000 0.000000
-0.609257 0.571610 0.377384 0.000000 0.000000 0.000000
-0.520582 0.348724 0.489906 0.000000 0.000000 0.000000
-0.615771 0.575919 0.397609 0.000000 0.000000 0.000000
-0.420287 0.224185 0.365875 0.000000 0.000000 0.000000
-0.636008 0.605046 0.381830 0.000000 0.000000 0.000000
-0.636972 0.607179 0.400168 0.000000 0.000000 0.000000
-0.623535 0.594901 0.396787 0.000000 0.000000 0.000000
-0.599029 0.561874 0.269750 0.000000 0.000000 0.000000
-0.392456 0.315010 0.121176 0.000000 0.000000 0.000000
-0.538098 0.555721 0.222176 0.000000 0.000000 0.000000
-0.546654 0.495685 0.611623 0.000000 0.000000 0.000000
-0.429950 0.211102 0.444305 0.000000 0.000000 0.000000
-0.536785 0.551729 0.217609 0.000000 0.000000 0.000000
-0.387495 0.295889 0.121990 0.000000 0.000000 0.000000
-0.622919 0.642013 0.468566 0.000000 0.000000 0.000000
-0.553996 0.398249 0.592451 0.000000 0.000000 0.000000
-0.339582 0.267535 0.128190 0.000000 0.000000 0.000000
-0.429996 0.229379 0.401726 0.000000 0.000000 0.000000
-0.418223 0.224474 0.382367 0.000000 0.000000 0.000000
-0.600765 0.563580 0.365815 0.000000 0.000000 0.000000
-0.534507 0.550604 0.225875 0.000000 0.000000 0.000000
-0.605606 0.567834 0.363162 0.000000 0.000000 0.000000
-0.502198 0.341927 0.436461 0.000000 0.000000 0.000000
-0.601033 0.553799 0.378820 0.000000 0.000000 0.000000
-0.419877 0.205498 0.359900 0.000000 0.000000 0.000000
-0.639195 0.610444 0.397096 0.000000 0.000000 0.000000
-0.639690 0.609105 0.402313 0.000000 0.000000 0.000000
-0.633013 0.595754 0.373859 0.000000 0.000000 0.000000
-0.593145 0.561799 0.260273 0.000000 0.000000 0.000000
-0.543754 0.487025 0.608891 0.000000 0.000000 0.000000
-0.534190 0.547704 0.220187 0.000000 0.000000 0.000000
-0.385019 0.187782 0.320438 0.000000 0.000000 0.000000
-0.381543 0.294794 0.122172 0.000000 0.000000 0.000000
-0.624022 0.642173 0.480412 0.000000 0.000000 0.000000
-0.550521 0.409366 0.595248 0.000000 0.000000 0.000000
-0.553486 0.396210 0.595042 0.000000 0.000000 0.000000
-0.467752 0.290849 0.530811 0.000000 0.000000 0.000000
-0.337794 0.265415 0.130312 0.000000 0.000000 0.000000
-0.448135 0.234606 0.464647 0.000000 0.000000 0.000000
-0.611650 0.577938 0.308582 0.000000 0.000000 0.000000
-0.609508 0.590779 0.325709 0.000000 0.000000 0.000000
-0.611049 0.574013 0.297660 0.000000 0.000000 0.000000
-0.422292 0.191403 0.382965 0.000000 0.000000 0.000000
-0.528683 0.542603 0.202186 0.000000 0.000000 0.000000
-0.550425 0.380674 0.594001 0.000000 0.000000 0.000000
-0.606302 0.573336 0.311863 0.000000 0.000000 0.000000
-0.427741 0.381873 0.125056 0.000000 0.000000 0.000000
-0.605977 0.571939 0.312605 0.000000 0.000000 0.000000
-0.612065 0.580703 0.304599 0.000000 0.000000 0.000000
-0.448598 0.229135 0.464633 0.000000 0.000000 0.000000
-0.496850 0.338254 0.562979 0.000000 0.000000 0.000000
-0.496159 0.336449 0.553418 0.000000 0.000000 0.000000
-0.433344 0.388866 0.123930 0.000000 0.000000 0.000000
-0.426208 0.215997 0.441064 0.000000 0.000000 0.000000
-0.338304 0.243178 0.184773 0.000000 0.000000 0.000000
-0.426725 0.215848 0.419499 0.000000 0.000000 0.000000
-0.534489 0.553136 0.216380 0.000000 0.000000 0.000000
-0.350135 0.247784 0.186765 0.000000 0.000000 0.000000
-0.610794 0.584864 0.319164 0.000000 0.000000 0.000000
-0.320454 0.231493 0.161650 0.000000 0.000000 0.000000
-0.437975 0.392403 0.128085 0.000000 0.000000 0.000000
-0.483681 0.333074 0.555289 0.000000 0.000000 0.000000
-0.372621 0.254551 0.198865 0.000000 0.000000 0.000000
-0.554561 0.391800 0.599274 0.000000 0.000000 0.000000
-0.488272 0.335622 0.549693 0.000000 0.000000 0.000000
-0.444041 0.234764 0.453380 0.000000 0.000000 0.000000
-0.324622 0.234000 0.173768 0.000000 0.000000 0.000000
-0.443800 0.233374 0.461498 0.000000 0.000000 0.000000
-0.527377 0.542241 0.198928 0.000000 0.000000 0.000000
-0.410937 0.373864 0.134165 0.000000 0.000000 0.000000
-0.378443 0.278423 0.196215 0.000000 0.000000 0.000000
-0.365723 0.261790 0.195333 0.000000 0.000000 0.000000
