ply
format ascii 1.0
comment VCGLIB generated
obj_info Generated by SPFormer!
element vertex 866
property float x
property float y
property float z
property float nx
property float ny
property float nz
end_header
0.764175 -0.036837 0.069036 0.000000 0.000000 0.000000
0.863019 -0.209875 0.429180 0.000000 0.000000 0.000000
0.788626 -0.087223 0.188671 0.000000 0.000000 0.000000
0.858469 -0.018863 -0.011973 0.000000 0.000000 0.000000
0.759800 -0.029598 0.037240 0.000000 0.000000 0.000000
0.768421 -0.157822 0.593517 0.000000 0.000000 0.000000
0.805221 -0.042835 0.045377 0.000000 0.000000 0.000000
0.815790 -0.041070 0.029948 0.000000 0.000000 0.000000
0.761619 -0.054307 0.084638 0.000000 0.000000 0.000000
0.905487 -0.094465 0.008896 0.000000 0.000000 0.000000
0.723914 -0.064051 0.077304 0.000000 0.000000 0.000000
0.843386 -0.106195 0.159494 0.000000 0.000000 0.000000
0.885641 -0.226590 0.514760 0.000000 0.000000 0.000000
0.897942 -0.222505 0.416200 0.000000 0.000000 0.000000
0.836890 -0.035555 -0.003884 0.000000 0.000000 0.000000
0.763052 -0.037629 0.024183 0.000000 0.000000 0.000000
0.965138 -0.213943 0.255493 0.000000 0.000000 0.000000
0.981641 -0.192998 0.031924 0.000000 0.000000 0.000000
0.833631 -0.055437 0.045016 0.000000 0.000000 0.000000
0.831760 -0.111284 0.179011 0.000000 0.000000 0.000000
0.855019 -0.028662 -0.005330 0.000000 0.000000 0.000000
0.827170 -0.031076 0.009376 0.000000 0.000000 0.000000
0.804777 -0.031437 0.037887 0.000000 0.000000 0.000000
0.784304 -0.048018 0.064029 0.000000 0.000000 0.000000
0.833567 -0.025440 -0.026327 0.000000 0.000000 0.000000
0.901641 -0.096241 0.019861 0.000000 0.000000 0.000000
0.896451 -0.139939 0.109934 0.000000 0.000000 0.000000
0.883958 -0.154352 0.199592 0.000000 0.000000 0.000000
0.873777 -0.087104 0.044197 0.000000 0.000000 0.000000
0.718138 -0.075652 0.057876 0.000000 0.000000 0.000000
0.724784 -0.059323 0.070511 0.000000 0.000000 0.000000
0.915639 -0.082439 -0.012442 0.000000 0.000000 0.000000
0.860087 -0.166856 0.283206 0.000000 0.000000 0.000000
0.869884 -0.072623 -0.012738 0.000000 0.000000 0.000000
0.930205 -0.132059 0.051098 0.000000 0.000000 0.000000
0.792096 -0.025357 0.013181 0.000000 0.000000 0.000000
0.869652 -0.081142 0.033506 0.000000 0.000000 0.000000
0.913911 -0.095882 0.006914 0.000000 0.000000 0.000000
0.736917 -0.118088 0.339347 0.000000 0.000000 0.000000
1.025470 -0.244690 0.292229 0.000000 0.000000 0.000000
0.890875 -0.220919 0.401198 0.000000 0.000000 0.000000
0.856476 -0.246509 0.599704 0.000000 0.000000 0.000000
0.856659 -0.057351 0.028963 0.000000 0.000000 0.000000
0.895078 -0.057897 -0.007040 0.000000 0.000000 0.000000
0.871892 -0.175761 0.194079 0.000000 0.000000 0.000000
0.785863 -0.172916 0.576216 0.000000 0.000000 0.000000
0.912667 -0.077981 -0.023171 0.000000 0.000000 0.000000
0.806672 -0.063298 0.072103 0.000000 0.000000 0.000000
0.871384 -0.055041 0.028619 0.000000 0.000000 0.000000
0.712674 -0.140416 0.184707 0.000000 0.000000 0.000000
0.887852 -0.076316 0.056149 0.000000 0.000000 0.000000
0.938416 -0.195557 0.219781 0.000000 0.000000 0.000000
0.841120 -0.048818 -0.020469 0.000000 0.000000 0.000000
0.871114 -0.063211 0.011474 0.000000 0.000000 0.000000
0.740051 -0.043362 0.078953 0.000000 0.000000 0.000000
0.908598 -0.079086 0.000742 0.000000 0.000000 0.000000
0.683059 -0.108479 0.236043 0.000000 0.000000 0.000000
0.858397 -0.031479 -0.014167 0.000000 0.000000 0.000000
0.829565 -0.090808 0.119862 0.000000 0.000000 0.000000
0.851421 -0.232833 0.608334 0.000000 0.000000 0.000000
0.803267 -0.180268 0.575572 0.000000 0.000000 0.000000
0.693578 -0.101376 0.150256 0.000000 0.000000 0.000000
0.701383 -0.092084 0.150920 0.000000 0.000000 0.000000
0.930338 -0.081924 -0.018438 0.000000 0.000000 0.000000
0.790869 0.003788 0.000240 0.000000 0.000000 0.000000
0.763574 -0.020860 -0.038897 0.000000 0.000000 0.000000
0.795615 -0.181258 0.626719 0.000000 0.000000 0.000000
0.814410 -0.028667 -0.025552 0.000000 0.000000 0.000000
0.847085 -0.123028 0.156308 0.000000 0.000000 0.000000
0.985642 -0.229601 0.422754 0.000000 0.000000 0.000000
0.979119 -0.226025 0.421157 0.000000 0.000000 0.000000
0.909434 -0.084108 -0.030691 0.000000 0.000000 0.000000
1.058782 -0.269734 0.164038 0.000000 0.000000 0.000000
1.063130 -0.263078 0.291571 0.000000 0.000000 0.000000
0.787106 -0.018950 -0.039604 0.000000 0.000000 0.000000
0.804447 -0.182637 0.615902 0.000000 0.000000 0.000000
0.863250 -0.067483 0.040981 0.000000 0.000000 0.000000
0.863970 -0.083147 0.059128 0.000000 0.000000 0.000000
1.051757 -0.255939 0.302853 0.000000 0.000000 0.000000
1.000068 -0.231125 0.336378 0.000000 0.000000 0.000000
0.782520 -0.032291 -0.031620 0.000000 0.000000 0.000000
0.727912 -0.051592 0.089232 0.000000 0.000000 0.000000
0.736229 -0.051989 0.137611 0.000000 0.000000 0.000000
0.806706 -0.040887 0.022670 0.000000 0.000000 0.000000
0.827774 -0.162462 0.283198 0.000000 0.000000 0.000000
0.867465 -0.197178 0.401213 0.000000 0.000000 0.000000
0.784910 -0.028972 0.005162 0.000000 0.000000 0.000000
0.881914 -0.058169 -0.031370 0.000000 0.000000 0.000000
0.859924 -0.044176 0.001996 0.000000 0.000000 0.000000
0.969988 -0.215628 0.234406 0.000000 0.000000 0.000000
0.827542 -0.039670 0.012576 0.000000 0.000000 0.000000
0.777387 -0.036147 0.037205 0.000000 0.000000 0.000000
0.868401 -0.204609 0.377706 0.000000 0.000000 0.000000
0.851328 -0.020578 -0.010886 0.000000 0.000000 0.000000
0.782946 -0.054178 0.102629 0.000000 0.000000 0.000000
0.825731 -0.061391 0.062246 0.000000 0.000000 0.000000
0.843765 -0.031138 -0.008870 0.000000 0.000000 0.000000
0.826685 -0.037560 0.025010 0.000000 0.000000 0.000000
0.744389 -0.043118 0.087660 0.000000 0.000000 0.000000
0.726417 -0.066599 0.063380 0.000000 0.000000 0.000000
0.831859 -0.134567 0.168156 0.000000 0.000000 0.000000
0.925324 -0.243011 0.462793 0.000000 0.000000 0.000000
0.896332 -0.216493 0.382654 0.000000 0.000000 0.000000
0.810563 -0.033116 -0.007300 0.000000 0.000000 0.000000
0.939445 -0.214726 0.301111 0.000000 0.000000 0.000000
0.801929 -0.102133 0.164377 0.000000 0.000000 0.000000
0.816937 -0.054228 0.057563 0.000000 0.000000 0.000000
0.787759 -0.136057 0.303407 0.000000 0.000000 0.000000
0.796815 -0.036993 0.013238 0.000000 0.000000 0.000000
0.922700 -0.139742 0.092751 0.000000 0.000000 0.000000
0.827232 -0.035983 -0.004884 0.000000 0.000000 0.000000
0.882423 -0.068252 0.014035 0.000000 0.000000 0.000000
0.764732 -0.002666 0.020533 0.000000 0.000000 0.000000
0.861670 -0.128160 0.198113 0.000000 0.000000 0.000000
0.844025 -0.021991 -0.028507 0.000000 0.000000 0.000000
0.929375 -0.107049 0.001469 0.000000 0.000000 0.000000
0.887663 -0.079482 0.006591 0.000000 0.000000 0.000000
0.896495 -0.123173 0.058159 0.000000 0.000000 0.000000
0.868479 -0.040392 -0.005201 0.000000 0.000000 0.000000
0.845035 -0.122360 0.196665 0.000000 0.000000 0.000000
0.880040 -0.087266 0.024210 0.000000 0.000000 0.000000
0.837596 -0.039746 0.005175 0.000000 0.000000 0.000000
0.777119 -0.073220 0.136472 0.000000 0.000000 0.000000
0.713618 -0.077096 0.060042 0.000000 0.000000 0.000000
0.899881 -0.076206 -0.001647 0.000000 0.000000 0.000000
0.749438 -0.078579 0.237881 0.000000 0.000000 0.000000
0.859025 -0.128208 0.137727 0.000000 0.000000 0.000000
1.027312 -0.235453 0.079255 0.000000 0.000000 0.000000
0.844861 -0.224346 0.663678 0.000000 0.000000 0.000000
0.855882 -0.241569 0.624609 0.000000 0.000000 0.000000
1.021807 -0.232309 0.061858 0.000000 0.000000 0.000000
0.993051 -0.212199 0.046569 0.000000 0.000000 0.000000
0.921466 -0.239585 0.551640 0.000000 0.000000 0.000000
1.044010 -0.248040 0.298561 0.000000 0.000000 0.000000
0.920389 -0.074244 -0.024702 0.000000 0.000000 0.000000
0.909658 -0.083226 -0.028191 0.000000 0.000000 0.000000
0.790334 -0.011730 -0.005296 0.000000 0.000000 0.000000
0.880168 -0.194617 0.336114 0.000000 0.000000 0.000000
0.822736 -0.171619 0.364380 0.000000 0.000000 0.000000
0.699673 -0.109565 0.161034 0.000000 0.000000 0.000000
0.770985 0.013582 -0.015200 0.000000 0.000000 0.000000
0.899340 -0.167295 0.179653 0.000000 0.000000 0.000000
0.784704 -0.170082 0.612189 0.000000 0.000000 0.000000
0.835482 -0.030019 -0.015263 0.000000 0.000000 0.000000
0.941838 -0.126048 0.032915 0.000000 0.000000 0.000000
0.694521 -0.101029 0.156022 0.000000 0.000000 0.000000
0.795565 -0.175608 0.614190 0.000000 0.000000 0.000000
0.886967 -0.140253 0.129472 0.000000 0.000000 0.000000
0.790853 -0.033200 -0.019904 0.000000 0.000000 0.000000
0.763476 -0.160865 0.578636 0.000000 0.000000 0.000000
0.772555 -0.162905 0.592473 0.000000 0.000000 0.000000
0.994912 -0.216333 0.040718 0.000000 0.000000 0.000000
0.942680 -0.250450 0.513828 0.000000 0.000000 0.000000
0.678234 -0.111131 0.279019 0.000000 0.000000 0.000000
0.728155 -0.064644 0.046296 0.000000 0.000000 0.000000
0.966152 -0.235326 0.391911 0.000000 0.000000 0.000000
0.771802 -0.155030 0.599357 0.000000 0.000000 0.000000
1.034009 -0.233766 0.087845 0.000000 0.000000 0.000000
0.872757 -0.151842 0.174532 0.000000 0.000000 0.000000
0.858978 -0.227732 0.580782 0.000000 0.000000 0.000000
0.768186 -0.101403 0.263420 0.000000 0.000000 0.000000
0.842041 -0.126500 0.214739 0.000000 0.000000 0.000000
0.825555 -0.126520 0.197985 0.000000 0.000000 0.000000
0.916977 -0.127730 0.035591 0.000000 0.000000 0.000000
0.835248 -0.091249 0.074696 0.000000 0.000000 0.000000
0.856868 -0.208891 0.533691 0.000000 0.000000 0.000000
0.731343 -0.063963 0.063491 0.000000 0.000000 0.000000
0.690151 -0.106251 0.166940 0.000000 0.000000 0.000000
0.788600 -0.059031 0.097502 0.000000 0.000000 0.000000
0.832774 -0.032874 -0.008888 0.000000 0.000000 0.000000
1.017939 -0.226459 0.068298 0.000000 0.000000 0.000000
0.795728 -0.177903 0.593261 0.000000 0.000000 0.000000
0.909300 -0.091237 0.005214 0.000000 0.000000 0.000000
0.786419 -0.160147 0.605698 0.000000 0.000000 0.000000
0.835078 -0.082652 0.111992 0.000000 0.000000 0.000000
0.805885 -0.010734 -0.012125 0.000000 0.000000 0.000000
0.877288 -0.186134 0.308892 0.000000 0.000000 0.000000
0.783046 -0.142365 0.383709 0.000000 0.000000 0.000000
0.698176 -0.112414 0.155176 0.000000 0.000000 0.000000
0.772492 0.025689 -0.010162 0.000000 0.000000 0.000000
0.788052 -0.129060 0.292703 0.000000 0.000000 0.000000
0.775887 -0.162472 0.593591 0.000000 0.000000 0.000000
0.808014 -0.028667 -0.010366 0.000000 0.000000 0.000000
0.933088 -0.099432 0.001149 0.000000 0.000000 0.000000
0.819247 -0.198972 0.633171 0.000000 0.000000 0.000000
0.868243 -0.125547 0.117549 0.000000 0.000000 0.000000
0.779835 -0.165622 0.594515 0.000000 0.000000 0.000000
0.790119 -0.170362 0.608160 0.000000 0.000000 0.000000
0.671637 -0.139707 0.409799 0.000000 0.000000 0.000000
0.935347 -0.249292 0.521043 0.000000 0.000000 0.000000
0.950034 -0.226671 0.364816 0.000000 0.000000 0.000000
0.966360 -0.138423 0.008364 0.000000 0.000000 0.000000
0.778309 -0.158483 0.605174 0.000000 0.000000 0.000000
1.025123 -0.225518 0.074109 0.000000 0.000000 0.000000
0.870088 -0.144255 0.157775 0.000000 0.000000 0.000000
0.859156 -0.245720 0.590735 0.000000 0.000000 0.000000
0.856165 -0.110021 0.172072 0.000000 0.000000 0.000000
0.900523 -0.169498 0.177572 0.000000 0.000000 0.000000
0.814843 -0.120609 0.189368 0.000000 0.000000 0.000000
0.766651 -0.160993 0.555439 0.000000 0.000000 0.000000
0.955606 -0.122661 0.019431 0.000000 0.000000 0.000000
0.744209 -0.065097 0.048788 0.000000 0.000000 0.000000
0.690857 -0.104394 0.160550 0.000000 0.000000 0.000000
0.789178 -0.165493 0.573404 0.000000 0.000000 0.000000
0.809297 -0.065391 0.076438 0.000000 0.000000 0.000000
0.922305 -0.156751 0.138591 0.000000 0.000000 0.000000
0.777967 -0.161575 0.598180 0.000000 0.000000 0.000000
1.010842 -0.227219 0.062310 0.000000 0.000000 0.000000
0.794284 -0.180268 0.557676 0.000000 0.000000 0.000000
0.916313 -0.093892 0.004039 0.000000 0.000000 0.000000
0.765362 -0.023250 -0.034704 0.000000 0.000000 0.000000
0.825191 -0.092742 0.115746 0.000000 0.000000 0.000000
1.041123 -0.236383 0.107510 0.000000 0.000000 0.000000
0.951559 -0.257413 0.469281 0.000000 0.000000 0.000000
0.853003 -0.249783 0.618403 0.000000 0.000000 0.000000
0.859787 -0.238142 0.635006 0.000000 0.000000 0.000000
0.882211 -0.252242 0.573095 0.000000 0.000000 0.000000
0.985666 -0.205015 0.039476 0.000000 0.000000 0.000000
1.054956 -0.246680 0.302373 0.000000 0.000000 0.000000
1.053587 -0.259168 0.136463 0.000000 0.000000 0.000000
1.060157 -0.252728 0.292706 0.000000 0.000000 0.000000
1.065724 -0.255825 0.136707 0.000000 0.000000 0.000000
1.064728 -0.237089 0.111334 0.000000 0.000000 0.000000
1.029721 -0.237408 0.080292 0.000000 0.000000 0.000000
0.776634 -0.021864 -0.034997 0.000000 0.000000 0.000000
0.949154 -0.061983 -0.028222 0.000000 0.000000 0.000000
0.937805 -0.244590 0.486194 0.000000 0.000000 0.000000
1.043330 -0.272906 0.162806 0.000000 0.000000 0.000000
1.053183 -0.259630 0.134226 0.000000 0.000000 0.000000
0.939912 -0.256585 0.495905 0.000000 0.000000 0.000000
0.948670 -0.252983 0.473929 0.000000 0.000000 0.000000
0.951224 -0.257694 0.479313 0.000000 0.000000 0.000000
1.055750 -0.255814 0.295869 0.000000 0.000000 0.000000
0.934621 -0.100874 0.001559 0.000000 0.000000 0.000000
1.060053 -0.261331 0.280802 0.000000 0.000000 0.000000
0.894986 -0.230888 0.514911 0.000000 0.000000 0.000000
0.937239 -0.106850 -0.013590 0.000000 0.000000 0.000000
0.789295 -0.040597 -0.011682 0.000000 0.000000 0.000000
0.943726 -0.254265 0.479816 0.000000 0.000000 0.000000
0.717500 -0.072591 0.056559 0.000000 0.000000 0.000000
1.015432 -0.216516 0.087716 0.000000 0.000000 0.000000
0.891524 -0.067380 -0.028444 0.000000 0.000000 0.000000
1.051291 -0.270226 0.161247 0.000000 0.000000 0.000000
0.938707 -0.140817 0.053224 0.000000 0.000000 0.000000
1.055771 -0.256129 0.136472 0.000000 0.000000 0.000000
1.056972 -0.259535 0.293065 0.000000 0.000000 0.000000
0.766623 -0.039057 -0.036478 0.000000 0.000000 0.000000
0.949605 -0.136646 0.015032 0.000000 0.000000 0.000000
0.933912 -0.246229 0.508370 0.000000 0.000000 0.000000
0.934428 -0.240871 0.501143 0.000000 0.000000 0.000000
0.784568 -0.089485 0.141323 0.000000 0.000000 0.000000
0.846473 -0.118670 0.149631 0.000000 0.000000 0.000000
0.863346 -0.217847 0.487350 0.000000 0.000000 0.000000
0.839567 -0.093498 0.125582 0.000000 0.000000 0.000000
0.842403 -0.204271 0.482426 0.000000 0.000000 0.000000
0.808937 -0.153871 0.340393 0.000000 0.000000 0.000000
0.996327 -0.237034 0.200973 0.000000 0.000000 0.000000
0.875171 -0.180973 0.304593 0.000000 0.000000 0.000000
0.867083 -0.216843 0.457659 0.000000 0.000000 0.000000
0.899687 -0.221002 0.409865 0.000000 0.000000 0.000000
0.837646 -0.053175 0.039846 0.000000 0.000000 0.000000
0.721156 -0.067900 0.049815 0.000000 0.000000 0.000000
0.842064 -0.035302 0.004730 0.000000 0.000000 0.000000
0.739292 -0.063643 0.167769 0.000000 0.000000 0.000000
0.691217 -0.101553 0.172589 0.000000 0.000000 0.000000
0.942589 -0.253466 0.474455 0.000000 0.000000 0.000000
0.693588 -0.104740 0.164710 0.000000 0.000000 0.000000
0.861890 -0.084013 0.065936 0.000000 0.000000 0.000000
0.693755 -0.117448 0.234920 0.000000 0.000000 0.000000
0.850894 -0.050922 0.022236 0.000000 0.000000 0.000000
0.933815 -0.243397 0.462074 0.000000 0.000000 0.000000
1.050847 -0.260032 0.147149 0.000000 0.000000 0.000000
1.010072 -0.236472 0.154252 0.000000 0.000000 0.000000
0.948000 -0.255772 0.488260 0.000000 0.000000 0.000000
0.795741 -0.026458 -0.017879 0.000000 0.000000 0.000000
0.934063 -0.250546 0.510545 0.000000 0.000000 0.000000
0.951283 -0.255652 0.478337 0.000000 0.000000 0.000000
0.937577 -0.100390 -0.001901 0.000000 0.000000 0.000000
1.067086 -0.264872 0.267985 0.000000 0.000000 0.000000
0.846334 -0.046006 -0.041183 0.000000 0.000000 0.000000
1.031043 -0.243047 0.088717 0.000000 0.000000 0.000000
0.896928 -0.230484 0.542308 0.000000 0.000000 0.000000
0.947315 -0.254615 0.476054 0.000000 0.000000 0.000000
0.716866 -0.078205 0.075806 0.000000 0.000000 0.000000
0.700839 -0.143823 0.473778 0.000000 0.000000 0.000000
1.005842 -0.216185 0.062480 0.000000 0.000000 0.000000
0.893488 -0.063303 -0.033831 0.000000 0.000000 0.000000
1.052747 -0.265202 0.146200 0.000000 0.000000 0.000000
0.899840 -0.239751 0.564117 0.000000 0.000000 0.000000
1.053482 -0.256311 0.130836 0.000000 0.000000 0.000000
1.057489 -0.253167 0.299710 0.000000 0.000000 0.000000
0.923565 -0.100255 -0.018183 0.000000 0.000000 0.000000
0.922071 -0.240209 0.534983 0.000000 0.000000 0.000000
0.941356 -0.249662 0.482799 0.000000 0.000000 0.000000
0.772486 -0.107499 0.224427 0.000000 0.000000 0.000000
0.848857 -0.124504 0.151242 0.000000 0.000000 0.000000
0.860263 -0.207759 0.406118 0.000000 0.000000 0.000000
0.880936 -0.094919 0.094341 0.000000 0.000000 0.000000
1.017789 -0.243721 0.162808 0.000000 0.000000 0.000000
0.948493 -0.198949 0.263638 0.000000 0.000000 0.000000
0.870640 -0.227284 0.538650 0.000000 0.000000 0.000000
0.913766 -0.232873 0.424821 0.000000 0.000000 0.000000
0.859802 -0.213575 0.466206 0.000000 0.000000 0.000000
0.835251 -0.040020 0.021024 0.000000 0.000000 0.000000
0.724120 -0.068200 0.049284 0.000000 0.000000 0.000000
0.830917 -0.040062 0.014913 0.000000 0.000000 0.000000
0.755241 -0.090739 0.208415 0.000000 0.000000 0.000000
0.685603 -0.111816 0.184273 0.000000 0.000000 0.000000
0.954196 -0.258087 0.473239 0.000000 0.000000 0.000000
1.036785 -0.241394 0.092615 0.000000 0.000000 0.000000
0.895648 -0.066875 0.009381 0.000000 0.000000 0.000000
0.688798 -0.121555 0.217848 0.000000 0.000000 0.000000
0.852146 -0.040226 0.009518 0.000000 0.000000 0.000000
0.846319 -0.228409 0.675165 0.000000 0.000000 0.000000
0.856590 -0.238071 0.622957 0.000000 0.000000 0.000000
1.060584 -0.281464 0.192870 0.000000 0.000000 0.000000
0.948804 -0.261159 0.441702 0.000000 0.000000 0.000000
0.834879 -0.220412 0.657895 0.000000 0.000000 0.000000
0.918897 -0.086592 -0.020699 0.000000 0.000000 0.000000
1.059797 -0.249658 0.294338 0.000000 0.000000 0.000000
0.862410 -0.005902 -0.036448 0.000000 0.000000 0.000000
0.924516 -0.059528 0.026937 0.000000 0.000000 0.000000
0.893984 -0.078643 -0.002242 0.000000 0.000000 0.000000
0.715114 -0.078356 0.090361 0.000000 0.000000 0.000000
0.870600 -0.024712 -0.035291 0.000000 0.000000 0.000000
0.877310 -0.043313 -0.023920 0.000000 0.000000 0.000000
0.860412 -0.035462 -0.026876 0.000000 0.000000 0.000000
0.955731 -0.129073 0.007633 0.000000 0.000000 0.000000
0.687587 -0.117890 0.232940 0.000000 0.000000 0.000000
0.939297 -0.104036 -0.009533 0.000000 0.000000 0.000000
0.990307 -0.228762 0.422659 0.000000 0.000000 0.000000
0.938269 -0.251597 0.504430 0.000000 0.000000 0.000000
0.923532 -0.157225 0.087003 0.000000 0.000000 0.000000
0.962535 -0.265925 0.461447 0.000000 0.000000 0.000000
0.917701 -0.237029 0.542582 0.000000 0.000000 0.000000
0.990759 -0.209084 0.046502 0.000000 0.000000 0.000000
1.055498 -0.279560 0.182478 0.000000 0.000000 0.000000
0.678978 -0.104309 0.376772 0.000000 0.000000 0.000000
0.924463 -0.073206 -0.030225 0.000000 0.000000 0.000000
0.854872 -0.132719 0.153044 0.000000 0.000000 0.000000
1.060966 -0.280692 0.167759 0.000000 0.000000 0.000000
1.060893 -0.280611 0.186432 0.000000 0.000000 0.000000
0.763225 -0.035650 0.096410 0.000000 0.000000 0.000000
1.062514 -0.287768 0.195183 0.000000 0.000000 0.000000
0.940284 -0.069334 -0.028928 0.000000 0.000000 0.000000
0.825328 -0.185988 0.467523 0.000000 0.000000 0.000000
0.761522 -0.158256 0.584170 0.000000 0.000000 0.000000
0.922791 -0.124716 0.027871 0.000000 0.000000 0.000000
0.856527 -0.244430 0.603187 0.000000 0.000000 0.000000
0.824313 -0.048505 0.023333 0.000000 0.000000 0.000000
0.937127 -0.060449 -0.023305 0.000000 0.000000 0.000000
0.945414 -0.129345 0.010216 0.000000 0.000000 0.000000
0.878841 -0.036973 -0.025228 0.000000 0.000000 0.000000
0.863533 -0.039291 -0.025234 0.000000 0.000000 0.000000
0.867438 -0.024549 -0.019689 0.000000 0.000000 0.000000
0.959988 -0.147621 0.014429 0.000000 0.000000 0.000000
0.903422 -0.034539 0.010640 0.000000 0.000000 0.000000
0.686758 -0.119463 0.198104 0.000000 0.000000 0.000000
0.988682 -0.226862 0.417509 0.000000 0.000000 0.000000
0.932997 -0.246143 0.522821 0.000000 0.000000 0.000000
0.943496 -0.183156 0.139078 0.000000 0.000000 0.000000
1.055690 -0.282419 0.185614 0.000000 0.000000 0.000000
1.054913 -0.284410 0.190836 0.000000 0.000000 0.000000
1.057918 -0.283181 0.190505 0.000000 0.000000 0.000000
1.060368 -0.277423 0.174666 0.000000 0.000000 0.000000
1.059419 -0.282290 0.203374 0.000000 0.000000 0.000000
0.907993 -0.063744 0.017762 0.000000 0.000000 0.000000
0.966244 -0.178159 0.106530 0.000000 0.000000 0.000000
0.917731 -0.070028 -0.027726 0.000000 0.000000 0.000000
0.865423 -0.145646 0.164112 0.000000 0.000000 0.000000
1.058362 -0.285450 0.188879 0.000000 0.000000 0.000000
1.060418 -0.284280 0.199869 0.000000 0.000000 0.000000
0.749987 -0.036707 0.069223 0.000000 0.000000 0.000000
0.824880 -0.187269 0.465611 0.000000 0.000000 0.000000
0.998478 -0.191451 0.052995 0.000000 0.000000 0.000000
0.756545 -0.159300 0.568051 0.000000 0.000000 0.000000
0.765566 -0.160126 0.590923 0.000000 0.000000 0.000000
0.924954 -0.133369 0.039280 0.000000 0.000000 0.000000
0.858415 -0.240514 0.614754 0.000000 0.000000 0.000000
0.854896 -0.124530 0.147307 0.000000 0.000000 0.000000
1.017938 -0.233081 0.366437 0.000000 0.000000 0.000000
1.049506 -0.254346 0.300669 0.000000 0.000000 0.000000
0.708549 -0.121925 0.477422 0.000000 0.000000 0.000000
0.925482 -0.097365 -0.018800 0.000000 0.000000 0.000000
1.063730 -0.254593 0.287107 0.000000 0.000000 0.000000
1.055744 -0.272799 0.175405 0.000000 0.000000 0.000000
0.788072 -0.156373 0.609291 0.000000 0.000000 0.000000
0.922813 -0.101563 -0.009047 0.000000 0.000000 0.000000
0.917712 -0.093581 -0.023487 0.000000 0.000000 0.000000
0.920225 -0.072998 -0.026544 0.000000 0.000000 0.000000
0.949160 -0.228942 0.430789 0.000000 0.000000 0.000000
0.909042 -0.089060 -0.017792 0.000000 0.000000 0.000000
0.862400 -0.028901 -0.020260 0.000000 0.000000 0.000000
0.925172 -0.094292 -0.019332 0.000000 0.000000 0.000000
0.693590 -0.107539 0.195951 0.000000 0.000000 0.000000
0.811971 -0.194909 0.650799 0.000000 0.000000 0.000000
0.935746 -0.250591 0.440602 0.000000 0.000000 0.000000
1.055827 -0.252358 0.298217 0.000000 0.000000 0.000000
0.888629 -0.128742 0.083865 0.000000 0.000000 0.000000
0.972386 -0.224910 0.411089 0.000000 0.000000 0.000000
1.058937 -0.273332 0.171183 0.000000 0.000000 0.000000
0.947481 -0.100012 -0.021107 0.000000 0.000000 0.000000
0.959054 -0.226770 0.436907 0.000000 0.000000 0.000000
0.967750 -0.234131 0.422720 0.000000 0.000000 0.000000
0.968517 -0.231257 0.429496 0.000000 0.000000 0.000000
0.927015 -0.092134 -0.024908 0.000000 0.000000 0.000000
0.701142 -0.118427 0.466198 0.000000 0.000000 0.000000
0.874263 -0.248239 0.573356 0.000000 0.000000 0.000000
0.904600 -0.077052 -0.026088 0.000000 0.000000 0.000000
1.046939 -0.251630 0.293845 0.000000 0.000000 0.000000
0.914172 -0.076339 -0.027539 0.000000 0.000000 0.000000
0.815760 -0.203877 0.655938 0.000000 0.000000 0.000000
0.990510 -0.202103 0.047970 0.000000 0.000000 0.000000
0.722846 -0.070155 0.053835 0.000000 0.000000 0.000000
0.889264 -0.093930 -0.005401 0.000000 0.000000 0.000000
0.926575 -0.233328 0.441098 0.000000 0.000000 0.000000
0.773711 -0.158336 0.597687 0.000000 0.000000 0.000000
0.872914 -0.031154 -0.029082 0.000000 0.000000 0.000000
0.691392 -0.103547 0.208660 0.000000 0.000000 0.000000
0.817643 -0.198246 0.660668 0.000000 0.000000 0.000000
0.939903 -0.246157 0.434429 0.000000 0.000000 0.000000
1.055402 -0.248781 0.297934 0.000000 0.000000 0.000000
0.971551 -0.231384 0.402549 0.000000 0.000000 0.000000
1.059418 -0.279832 0.200960 0.000000 0.000000 0.000000
0.934985 -0.101014 -0.012451 0.000000 0.000000 0.000000
0.970790 -0.235144 0.438143 0.000000 0.000000 0.000000
0.971513 -0.236798 0.419687 0.000000 0.000000 0.000000
0.971939 -0.232215 0.428228 0.000000 0.000000 0.000000
0.954077 -0.255324 0.448244 0.000000 0.000000 0.000000
0.715514 -0.120775 0.461294 0.000000 0.000000 0.000000
0.871808 -0.253800 0.579214 0.000000 0.000000 0.000000
1.058365 -0.252823 0.291326 0.000000 0.000000 0.000000
1.007112 -0.223519 0.372966 0.000000 0.000000 0.000000
1.037828 -0.237983 0.084353 0.000000 0.000000 0.000000
0.887288 -0.086537 -0.005632 0.000000 0.000000 0.000000
0.790017 -0.163912 0.590000 0.000000 0.000000 0.000000
0.777681 -0.025394 -0.006112 0.000000 0.000000 0.000000
0.673201 -0.102169 0.400768 0.000000 0.000000 0.000000
1.016371 -0.232071 0.357241 0.000000 0.000000 0.000000
1.037507 -0.226856 0.331938 0.000000 0.000000 0.000000
1.011456 -0.237539 0.370144 0.000000 0.000000 0.000000
0.855382 -0.240190 0.633051 0.000000 0.000000 0.000000
1.028231 -0.234764 0.327374 0.000000 0.000000 0.000000
0.857367 -0.233575 0.640398 0.000000 0.000000 0.000000
0.864578 -0.251133 0.580340 0.000000 0.000000 0.000000
1.062002 -0.281240 0.207810 0.000000 0.000000 0.000000
0.935189 -0.103400 -0.014729 0.000000 0.000000 0.000000
0.904256 -0.085844 -0.030488 0.000000 0.000000 0.000000
1.016296 -0.224884 0.346660 0.000000 0.000000 0.000000
0.902905 -0.073761 -0.019903 0.000000 0.000000 0.000000
0.898608 -0.073761 -0.027568 0.000000 0.000000 0.000000
0.937489 -0.118578 -0.006976 0.000000 0.000000 0.000000
1.019836 -0.224717 0.346044 0.000000 0.000000 0.000000
1.005196 -0.233421 0.368531 0.000000 0.000000 0.000000
1.075328 -0.259971 0.264934 0.000000 0.000000 0.000000
0.935932 -0.089636 -0.017192 0.000000 0.000000 0.000000
1.012703 -0.233242 0.372402 0.000000 0.000000 0.000000
0.798769 -0.013681 -0.037287 0.000000 0.000000 0.000000
0.959134 -0.115216 0.033294 0.000000 0.000000 0.000000
0.805464 -0.157106 0.360242 0.000000 0.000000 0.000000
1.021737 -0.232433 0.358649 0.000000 0.000000 0.000000
0.924106 -0.193575 0.258201 0.000000 0.000000 0.000000
0.770436 -0.016501 -0.034164 0.000000 0.000000 0.000000
1.042179 -0.245086 0.300215 0.000000 0.000000 0.000000
1.052433 -0.260832 0.259176 0.000000 0.000000 0.000000
0.918636 -0.072477 0.017826 0.000000 0.000000 0.000000
0.837411 -0.045987 0.029046 0.000000 0.000000 0.000000
0.692169 -0.114820 0.181852 0.000000 0.000000 0.000000
0.664914 -0.140665 0.417903 0.000000 0.000000 0.000000
0.887297 -0.045361 -0.027720 0.000000 0.000000 0.000000
1.030309 -0.225626 0.334375 0.000000 0.000000 0.000000
0.905878 -0.079999 -0.024472 0.000000 0.000000 0.000000
0.774943 -0.026430 -0.033909 0.000000 0.000000 0.000000
0.923083 -0.074040 0.001639 0.000000 0.000000 0.000000
0.954349 -0.115999 0.027926 0.000000 0.000000 0.000000
0.836812 -0.171202 0.336543 0.000000 0.000000 0.000000
1.015664 -0.232562 0.364167 0.000000 0.000000 0.000000
0.913033 -0.201424 0.287274 0.000000 0.000000 0.000000
1.049801 -0.250135 0.295775 0.000000 0.000000 0.000000
1.058516 -0.261968 0.261134 0.000000 0.000000 0.000000
1.016623 -0.226075 0.328253 0.000000 0.000000 0.000000
0.842805 -0.060963 0.051480 0.000000 0.000000 0.000000
0.685095 -0.122301 0.211358 0.000000 0.000000 0.000000
0.960144 -0.143194 0.004417 0.000000 0.000000 0.000000
0.708789 -0.086003 0.101986 0.000000 0.000000 0.000000
1.058331 -0.277360 0.174641 0.000000 0.000000 0.000000
0.842406 -0.224469 0.669268 0.000000 0.000000 0.000000
0.849206 -0.226847 0.681663 0.000000 0.000000 0.000000
0.853301 -0.225043 0.674456 0.000000 0.000000 0.000000
0.855630 -0.235550 0.626604 0.000000 0.000000 0.000000
1.049007 -0.211576 0.106915 0.000000 0.000000 0.000000
1.060091 -0.277603 0.168578 0.000000 0.000000 0.000000
0.774585 -0.000255 0.008457 0.000000 0.000000 0.000000
0.724409 -0.064104 0.019806 0.000000 0.000000 0.000000
0.845318 -0.231685 0.683790 0.000000 0.000000 0.000000
0.905166 -0.077742 -0.029894 0.000000 0.000000 0.000000
1.059304 -0.254759 0.293663 0.000000 0.000000 0.000000
0.775139 -0.157276 0.600544 0.000000 0.000000 0.000000
0.894657 -0.067724 -0.030161 0.000000 0.000000 0.000000
0.927450 -0.079871 -0.032316 0.000000 0.000000 0.000000
0.742583 -0.044046 0.063561 0.000000 0.000000 0.000000
1.015663 -0.202905 0.067137 0.000000 0.000000 0.000000
0.813211 -0.042784 0.009701 0.000000 0.000000 0.000000
0.889169 -0.065901 -0.028577 0.000000 0.000000 0.000000
0.966868 -0.261224 0.451421 0.000000 0.000000 0.000000
1.058996 -0.278994 0.174690 0.000000 0.000000 0.000000
1.054621 -0.259335 0.289862 0.000000 0.000000 0.000000
0.889292 -0.073520 0.027823 0.000000 0.000000 0.000000
1.039611 -0.251816 0.296486 0.000000 0.000000 0.000000
0.887402 -0.066708 -0.013957 0.000000 0.000000 0.000000
1.060050 -0.275675 0.168041 0.000000 0.000000 0.000000
0.948005 -0.255536 0.484974 0.000000 0.000000 0.000000
0.701328 -0.141617 0.466065 0.000000 0.000000 0.000000
1.060713 -0.277246 0.164137 0.000000 0.000000 0.000000
0.867667 -0.064537 0.033182 0.000000 0.000000 0.000000
0.946468 -0.253016 0.439110 0.000000 0.000000 0.000000
0.903928 -0.076353 -0.032720 0.000000 0.000000 0.000000
0.779367 -0.159283 0.603480 0.000000 0.000000 0.000000
0.952950 -0.259655 0.468470 0.000000 0.000000 0.000000
1.051632 -0.275899 0.202347 0.000000 0.000000 0.000000
0.745717 -0.127448 0.499487 0.000000 0.000000 0.000000
0.900069 -0.070348 -0.027311 0.000000 0.000000 0.000000
0.728409 -0.124116 0.496019 0.000000 0.000000 0.000000
1.037502 -0.210333 0.097915 0.000000 0.000000 0.000000
0.960293 -0.257462 0.451911 0.000000 0.000000 0.000000
1.059718 -0.274623 0.160335 0.000000 0.000000 0.000000
1.058457 -0.275749 0.166702 0.000000 0.000000 0.000000
1.056222 -0.262048 0.297687 0.000000 0.000000 0.000000
0.886679 -0.088311 0.061377 0.000000 0.000000 0.000000
1.041026 -0.259674 0.269795 0.000000 0.000000 0.000000
0.888113 -0.079021 -0.009608 0.000000 0.000000 0.000000
1.055025 -0.279933 0.177263 0.000000 0.000000 0.000000
1.057163 -0.277141 0.171659 0.000000 0.000000 0.000000
0.865466 -0.059631 0.018775 0.000000 0.000000 0.000000
1.060632 -0.283749 0.191009 0.000000 0.000000 0.000000
0.778569 -0.041309 0.102542 0.000000 0.000000 0.000000
0.954396 -0.258565 0.451097 0.000000 0.000000 0.000000
0.916490 -0.095993 -0.025709 0.000000 0.000000 0.000000
0.777250 -0.154458 0.608338 0.000000 0.000000 0.000000
0.854045 -0.249611 0.624731 0.000000 0.000000 0.000000
0.877030 -0.249924 0.572860 0.000000 0.000000 0.000000
1.059941 -0.267454 0.155399 0.000000 0.000000 0.000000
1.061399 -0.271970 0.157151 0.000000 0.000000 0.000000
0.939909 -0.106080 -0.011531 0.000000 0.000000 0.000000
0.871122 -0.251413 0.578524 0.000000 0.000000 0.000000
0.941815 -0.065232 -0.024078 0.000000 0.000000 0.000000
0.943711 -0.066024 -0.029530 0.000000 0.000000 0.000000
0.851093 -0.228441 0.686673 0.000000 0.000000 0.000000
0.914704 -0.091595 -0.024159 0.000000 0.000000 0.000000
1.051778 -0.279041 0.185961 0.000000 0.000000 0.000000
1.056392 -0.268767 0.170258 0.000000 0.000000 0.000000
0.684273 -0.122487 0.429985 0.000000 0.000000 0.000000
1.024913 -0.225541 0.070694 0.000000 0.000000 0.000000
0.912952 -0.234198 0.550758 0.000000 0.000000 0.000000
1.068693 -0.260956 0.251357 0.000000 0.000000 0.000000
0.954530 -0.254395 0.441618 0.000000 0.000000 0.000000
0.668991 -0.109811 0.387857 0.000000 0.000000 0.000000
0.722099 -0.118368 0.492452 0.000000 0.000000 0.000000
0.961969 -0.259740 0.449021 0.000000 0.000000 0.000000
0.692376 -0.123186 0.435428 0.000000 0.000000 0.000000
0.679193 -0.120900 0.427695 0.000000 0.000000 0.000000
0.942817 -0.116285 -0.004198 0.000000 0.000000 0.000000
0.904519 -0.076250 -0.029510 0.000000 0.000000 0.000000
1.062014 -0.273394 0.159445 0.000000 0.000000 0.000000
1.025190 -0.236562 0.078309 0.000000 0.000000 0.000000
1.060467 -0.273610 0.157987 0.000000 0.000000 0.000000
0.693122 -0.123469 0.433752 0.000000 0.000000 0.000000
1.026462 -0.227737 0.070788 0.000000 0.000000 0.000000
0.909010 -0.230760 0.551778 0.000000 0.000000 0.000000
1.068816 -0.258198 0.267213 0.000000 0.000000 0.000000
0.955994 -0.257699 0.439696 0.000000 0.000000 0.000000
0.964900 -0.263497 0.451127 0.000000 0.000000 0.000000
0.676353 -0.113765 0.417380 0.000000 0.000000 0.000000
0.675875 -0.113046 0.401794 0.000000 0.000000 0.000000
0.935059 -0.108558 -0.010839 0.000000 0.000000 0.000000
0.899157 -0.069900 -0.032112 0.000000 0.000000 0.000000
0.795513 -0.018259 -0.037479 0.000000 0.000000 0.000000
0.720044 -0.118837 0.493041 0.000000 0.000000 0.000000
1.023129 -0.238698 0.084490 0.000000 0.000000 0.000000
1.062833 -0.278935 0.210980 0.000000 0.000000 0.000000
1.030357 -0.242364 0.138059 0.000000 0.000000 0.000000
1.048744 -0.255689 0.128314 0.000000 0.000000 0.000000
0.987814 -0.187860 0.030299 0.000000 0.000000 0.000000
1.066641 -0.277857 0.217787 0.000000 0.000000 0.000000
0.923232 -0.099188 -0.017651 0.000000 0.000000 0.000000
0.852708 -0.232906 0.672665 0.000000 0.000000 0.000000
0.902048 -0.063305 -0.006861 0.000000 0.000000 0.000000
1.051371 -0.256190 0.134423 0.000000 0.000000 0.000000
1.039955 -0.253962 0.137282 0.000000 0.000000 0.000000
1.032960 -0.242891 0.124422 0.000000 0.000000 0.000000
1.056782 -0.270334 0.213667 0.000000 0.000000 0.000000
0.878391 -0.053321 -0.034156 0.000000 0.000000 0.000000
0.954599 -0.138002 0.011417 0.000000 0.000000 0.000000
0.854649 -0.249528 0.617088 0.000000 0.000000 0.000000
0.762805 -0.154988 0.594907 0.000000 0.000000 0.000000
0.956469 -0.125624 0.001161 0.000000 0.000000 0.000000
0.769169 -0.064959 0.158232 0.000000 0.000000 0.000000
0.861788 -0.193902 0.581215 0.000000 0.000000 0.000000
0.905569 -0.110158 0.024191 0.000000 0.000000 0.000000
0.826151 -0.142054 0.245612 0.000000 0.000000 0.000000
0.900452 -0.070487 -0.027827 0.000000 0.000000 0.000000
0.795374 -0.041272 0.069226 0.000000 0.000000 0.000000
0.777151 -0.068051 0.150101 0.000000 0.000000 0.000000
0.869696 -0.230898 0.547806 0.000000 0.000000 0.000000
1.035530 -0.243575 0.096471 0.000000 0.000000 0.000000
0.848793 -0.062844 0.012199 0.000000 0.000000 0.000000
0.755219 -0.075536 0.201848 0.000000 0.000000 0.000000
0.990260 -0.229231 0.398346 0.000000 0.000000 0.000000
0.802794 -0.181686 0.641712 0.000000 0.000000 0.000000
0.938646 -0.100230 -0.012446 0.000000 0.000000 0.000000
0.772871 -0.047506 0.117513 0.000000 0.000000 0.000000
0.960534 -0.260013 0.458141 0.000000 0.000000 0.000000
1.020664 -0.232594 0.071738 0.000000 0.000000 0.000000
1.052015 -0.253712 0.132234 0.000000 0.000000 0.000000
1.045041 -0.262478 0.145407 0.000000 0.000000 0.000000
1.041272 -0.247509 0.124640 0.000000 0.000000 0.000000
1.065290 -0.277444 0.219935 0.000000 0.000000 0.000000
0.953180 -0.136155 0.011654 0.000000 0.000000 0.000000
0.855652 -0.242854 0.622929 0.000000 0.000000 0.000000
0.852316 -0.255032 0.591555 0.000000 0.000000 0.000000
1.045346 -0.241464 0.100908 0.000000 0.000000 0.000000
0.828470 -0.114124 0.083715 0.000000 0.000000 0.000000
1.064316 -0.291002 0.219655 0.000000 0.000000 0.000000
0.856377 -0.147385 0.166711 0.000000 0.000000 0.000000
0.830029 -0.157226 0.287921 0.000000 0.000000 0.000000
0.897416 -0.067147 -0.031492 0.000000 0.000000 0.000000
0.749216 -0.067982 0.170924 0.000000 0.000000 0.000000
0.797913 -0.044440 0.052762 0.000000 0.000000 0.000000
0.794054 -0.068283 0.123067 0.000000 0.000000 0.000000
0.881130 -0.243533 0.564724 0.000000 0.000000 0.000000
1.026816 -0.242452 0.082335 0.000000 0.000000 0.000000
0.863044 -0.041139 0.001865 0.000000 0.000000 0.000000
0.772452 -0.092407 0.193769 0.000000 0.000000 0.000000
1.064611 -0.253807 0.276213 0.000000 0.000000 0.000000
0.771815 -0.051080 0.127298 0.000000 0.000000 0.000000
0.745595 -0.160334 0.569037 0.000000 0.000000 0.000000
1.014423 -0.234377 0.374868 0.000000 0.000000 0.000000
0.939176 -0.090620 -0.011800 0.000000 0.000000 0.000000
0.765961 -0.050620 0.129822 0.000000 0.000000 0.000000
1.020696 -0.235697 0.075108 0.000000 0.000000 0.000000
0.859963 -0.259355 0.587344 0.000000 0.000000 0.000000
1.052706 -0.258949 0.136862 0.000000 0.000000 0.000000
1.053652 -0.259909 0.145155 0.000000 0.000000 0.000000
1.052581 -0.268360 0.147707 0.000000 0.000000 0.000000
0.909488 -0.231975 0.542921 0.000000 0.000000 0.000000
1.052884 -0.212086 0.110894 0.000000 0.000000 0.000000
0.860372 -0.255675 0.585785 0.000000 0.000000 0.000000
1.054847 -0.265484 0.148183 0.000000 0.000000 0.000000
0.782086 -0.031406 -0.031510 0.000000 0.000000 0.000000
1.051060 -0.259392 0.273616 0.000000 0.000000 0.000000
0.754482 -0.042190 -0.032759 0.000000 0.000000 0.000000
1.021928 -0.239998 0.286427 0.000000 0.000000 0.000000
0.745703 -0.082437 0.265818 0.000000 0.000000 0.000000
0.733860 -0.147266 0.544415 0.000000 0.000000 0.000000
0.859792 -0.248009 0.588601 0.000000 0.000000 0.000000
0.916419 -0.238337 0.545512 0.000000 0.000000 0.000000
1.062231 -0.253002 0.286310 0.000000 0.000000 0.000000
0.955479 -0.169119 0.082071 0.000000 0.000000 0.000000
0.813250 -0.018579 -0.030626 0.000000 0.000000 0.000000
0.804462 -0.082903 0.143840 0.000000 0.000000 0.000000
0.813037 -0.041787 0.041889 0.000000 0.000000 0.000000
0.913358 -0.111227 0.016815 0.000000 0.000000 0.000000
0.808199 -0.094715 0.188032 0.000000 0.000000 0.000000
0.864535 -0.097128 0.114453 0.000000 0.000000 0.000000
0.891281 -0.140207 0.082636 0.000000 0.000000 0.000000
0.789439 -0.125269 0.273220 0.000000 0.000000 0.000000
0.993439 -0.223811 0.204052 0.000000 0.000000 0.000000
1.030132 -0.236578 0.076382 0.000000 0.000000 0.000000
0.738792 -0.033881 0.016024 0.000000 0.000000 0.000000
0.906038 -0.232003 0.556969 0.000000 0.000000 0.000000
0.716335 -0.074689 0.077060 0.000000 0.000000 0.000000
1.032142 -0.241451 0.086342 0.000000 0.000000 0.000000
1.026629 -0.240142 0.298396 0.000000 0.000000 0.000000
0.785734 -0.024257 -0.035694 0.000000 0.000000 0.000000
0.754754 -0.072005 0.277002 0.000000 0.000000 0.000000
1.068863 -0.264859 0.254400 0.000000 0.000000 0.000000
0.725519 -0.146598 0.540219 0.000000 0.000000 0.000000
1.072252 -0.269973 0.251832 0.000000 0.000000 0.000000
0.756956 -0.036482 0.091163 0.000000 0.000000 0.000000
0.858686 -0.240419 0.613417 0.000000 0.000000 0.000000
1.065700 -0.256618 0.280749 0.000000 0.000000 0.000000
0.943268 -0.150025 0.059503 0.000000 0.000000 0.000000
0.743257 -0.041727 0.202469 0.000000 0.000000 0.000000
0.714751 -0.068668 0.241175 0.000000 0.000000 0.000000
0.894919 -0.232934 0.560342 0.000000 0.000000 0.000000
0.735518 -0.051612 0.155412 0.000000 0.000000 0.000000
0.736926 -0.048112 0.163449 0.000000 0.000000 0.000000
0.800944 -0.022391 -0.025131 0.000000 0.000000 0.000000
0.883975 -0.106419 0.054392 0.000000 0.000000 0.000000
0.936181 -0.148153 0.059084 0.000000 0.000000 0.000000
0.811100 -0.113471 0.205151 0.000000 0.000000 0.000000
0.886252 -0.115713 0.079158 0.000000 0.000000 0.000000
0.807159 -0.116993 0.247073 0.000000 0.000000 0.000000
0.888252 -0.230573 0.552454 0.000000 0.000000 0.000000
0.737246 -0.035152 0.023023 0.000000 0.000000 0.000000
0.888803 -0.226385 0.561535 0.000000 0.000000 0.000000
0.716791 -0.074377 0.067026 0.000000 0.000000 0.000000
1.028783 -0.240961 0.085305 0.000000 0.000000 0.000000
0.665187 -0.142701 0.412395 0.000000 0.000000 0.000000
0.857731 -0.124820 0.169853 0.000000 0.000000 0.000000
0.696849 -0.127390 0.464774 0.000000 0.000000 0.000000
1.000842 -0.220677 0.380675 0.000000 0.000000 0.000000
0.855006 -0.250349 0.607385 0.000000 0.000000 0.000000
1.053578 -0.265287 0.142978 0.000000 0.000000 0.000000
1.049886 -0.260785 0.156937 0.000000 0.000000 0.000000
1.053480 -0.252822 0.301371 0.000000 0.000000 0.000000
0.699712 -0.120861 0.466804 0.000000 0.000000 0.000000
0.917132 -0.080026 -0.025737 0.000000 0.000000 0.000000
0.851254 -0.231435 0.689187 0.000000 0.000000 0.000000
0.874333 -0.176555 0.258360 0.000000 0.000000 0.000000
0.996605 -0.231736 0.368323 0.000000 0.000000 0.000000
0.963095 -0.223856 0.340120 0.000000 0.000000 0.000000
0.973601 -0.238652 0.390212 0.000000 0.000000 0.000000
1.007653 -0.225011 0.384743 0.000000 0.000000 0.000000
1.005248 -0.222781 0.374142 0.000000 0.000000 0.000000
0.701703 -0.116302 0.469171 0.000000 0.000000 0.000000
0.711856 -0.120957 0.445170 0.000000 0.000000 0.000000
1.002840 -0.224592 0.388910 0.000000 0.000000 0.000000
0.706597 -0.118435 0.479410 0.000000 0.000000 0.000000
0.973423 -0.231350 0.359110 0.000000 0.000000 0.000000
0.926750 -0.235245 0.537443 0.000000 0.000000 0.000000
0.925229 -0.240639 0.538770 0.000000 0.000000 0.000000
0.958000 -0.231921 0.378867 0.000000 0.000000 0.000000
0.959006 -0.217903 0.275133 0.000000 0.000000 0.000000
0.734618 -0.137615 0.512398 0.000000 0.000000 0.000000
0.879092 -0.147606 0.157143 0.000000 0.000000 0.000000
0.836692 -0.149130 0.259911 0.000000 0.000000 0.000000
1.023481 -0.252633 0.226638 0.000000 0.000000 0.000000
0.991426 -0.211704 0.173452 0.000000 0.000000 0.000000
0.935723 -0.106093 -0.014745 0.000000 0.000000 0.000000
1.007996 -0.226215 0.379990 0.000000 0.000000 0.000000
0.888809 -0.056967 -0.032674 0.000000 0.000000 0.000000
1.064136 -0.259759 0.276439 0.000000 0.000000 0.000000
1.000750 -0.229450 0.389846 0.000000 0.000000 0.000000
0.999043 -0.215432 0.385943 0.000000 0.000000 0.000000
0.973256 -0.227626 0.302090 0.000000 0.000000 0.000000
0.958105 -0.261897 0.466291 0.000000 0.000000 0.000000
0.913251 -0.238077 0.562198 0.000000 0.000000 0.000000
0.895902 -0.188632 0.271303 0.000000 0.000000 0.000000
0.992930 -0.225778 0.379086 0.000000 0.000000 0.000000
0.967584 -0.229168 0.320288 0.000000 0.000000 0.000000
0.987741 -0.238627 0.396868 0.000000 0.000000 0.000000
1.002341 -0.221217 0.386048 0.000000 0.000000 0.000000
0.991678 -0.220645 0.405588 0.000000 0.000000 0.000000
0.711456 -0.125025 0.464025 0.000000 0.000000 0.000000
0.696979 -0.119758 0.467282 0.000000 0.000000 0.000000
0.703792 -0.116487 0.474415 0.000000 0.000000 0.000000
0.997660 -0.222632 0.386377 0.000000 0.000000 0.000000
0.708325 -0.121040 0.479496 0.000000 0.000000 0.000000
0.970087 -0.228633 0.344691 0.000000 0.000000 0.000000
0.927792 -0.241399 0.541891 0.000000 0.000000 0.000000
0.945557 -0.219591 0.308668 0.000000 0.000000 0.000000
0.931834 -0.208838 0.281159 0.000000 0.000000 0.000000
0.731845 -0.141440 0.529617 0.000000 0.000000 0.000000
0.861524 -0.151180 0.172173 0.000000 0.000000 0.000000
0.818904 -0.162075 0.328346 0.000000 0.000000 0.000000
1.005003 -0.242417 0.233064 0.000000 0.000000 0.000000
1.010617 -0.223070 0.227877 0.000000 0.000000 0.000000
0.887982 -0.056290 -0.034839 0.000000 0.000000 0.000000
0.971446 -0.188673 0.029762 0.000000 0.000000 0.000000
1.060472 -0.261762 0.284615 0.000000 0.000000 0.000000
1.006150 -0.219054 0.378111 0.000000 0.000000 0.000000
0.998999 -0.220111 0.393226 0.000000 0.000000 0.000000
0.938482 -0.118195 -0.005897 0.000000 0.000000 0.000000
0.949968 -0.219621 0.301778 0.000000 0.000000 0.000000
0.959822 -0.267131 0.470330 0.000000 0.000000 0.000000
0.910384 -0.233757 0.559860 0.000000 0.000000 0.000000
0.873106 -0.116818 0.076521 0.000000 0.000000 0.000000
0.913254 -0.068630 -0.027207 0.000000 0.000000 0.000000
0.981110 -0.198769 0.034613 0.000000 0.000000 0.000000
0.927030 -0.077304 -0.033265 0.000000 0.000000 0.000000
0.923364 -0.074919 -0.031294 0.000000 0.000000 0.000000
0.851459 -0.245039 0.627136 0.000000 0.000000 0.000000
0.773462 -0.141542 0.584847 0.000000 0.000000 0.000000
1.018647 -0.235193 0.067279 0.000000 0.000000 0.000000
1.067599 -0.230148 0.253477 0.000000 0.000000 0.000000
0.851661 -0.232595 0.633476 0.000000 0.000000 0.000000
0.861331 -0.097865 0.116155 0.000000 0.000000 0.000000
0.847050 -0.235301 0.661237 0.000000 0.000000 0.000000
0.989538 -0.206484 0.049950 0.000000 0.000000 0.000000
0.789696 -0.101404 0.210942 0.000000 0.000000 0.000000
0.827953 -0.048072 0.046722 0.000000 0.000000 0.000000
0.799708 -0.170991 0.564909 0.000000 0.000000 0.000000
0.902740 -0.036177 -0.025195 0.000000 0.000000 0.000000
0.775234 -0.148009 0.580835 0.000000 0.000000 0.000000
1.070376 -0.228407 0.244663 0.000000 0.000000 0.000000
0.991321 -0.198228 0.045394 0.000000 0.000000 0.000000
0.835814 -0.107368 0.181830 0.000000 0.000000 0.000000
0.831217 -0.062147 0.075376 0.000000 0.000000 0.000000
0.804590 -0.167632 0.566986 0.000000 0.000000 0.000000
1.042102 -0.242340 0.106373 0.000000 0.000000 0.000000
0.937988 -0.110586 -0.011360 0.000000 0.000000 0.000000
0.933065 -0.100969 -0.004497 0.000000 0.000000 0.000000
0.862564 -0.235280 0.632586 0.000000 0.000000 0.000000
0.912429 -0.085809 -0.026142 0.000000 0.000000 0.000000
0.936704 -0.246550 0.511659 0.000000 0.000000 0.000000
0.928210 -0.105125 -0.015271 0.000000 0.000000 0.000000
0.940990 -0.251285 0.509679 0.000000 0.000000 0.000000
0.924138 -0.102443 -0.016361 0.000000 0.000000 0.000000
0.912514 -0.087491 -0.027406 0.000000 0.000000 0.000000
0.913544 -0.090246 -0.024723 0.000000 0.000000 0.000000
0.854660 -0.241429 0.629287 0.000000 0.000000 0.000000
0.910140 -0.087952 -0.028229 0.000000 0.000000 0.000000
0.922418 -0.079606 -0.033107 0.000000 0.000000 0.000000
0.749295 -0.156602 0.556521 0.000000 0.000000 0.000000
0.697403 -0.122946 0.469339 0.000000 0.000000 0.000000
0.935393 -0.126053 0.010453 0.000000 0.000000 0.000000
0.908735 -0.151217 0.099644 0.000000 0.000000 0.000000
0.995571 -0.212910 0.052293 0.000000 0.000000 0.000000
0.941446 -0.116459 -0.006278 0.000000 0.000000 0.000000
0.939489 -0.099670 -0.009449 0.000000 0.000000 0.000000
0.920629 -0.082711 -0.027188 0.000000 0.000000 0.000000
0.768719 -0.160494 0.575827 0.000000 0.000000 0.000000
1.030422 -0.268847 0.240750 0.000000 0.000000 0.000000
0.757492 -0.157000 0.576454 0.000000 0.000000 0.000000
0.765339 -0.160581 0.561812 0.000000 0.000000 0.000000
0.968842 -0.180030 0.019408 0.000000 0.000000 0.000000
0.929016 -0.128632 0.024358 0.000000 0.000000 0.000000
0.877523 -0.244927 0.560613 0.000000 0.000000 0.000000
0.957805 -0.133605 0.009741 0.000000 0.000000 0.000000
0.757300 -0.154960 0.568197 0.000000 0.000000 0.000000
0.961689 -0.137448 0.014174 0.000000 0.000000 0.000000
0.926054 -0.106911 -0.024217 0.000000 0.000000 0.000000
0.937866 -0.109631 -0.003310 0.000000 0.000000 0.000000
0.916636 -0.091207 -0.021833 0.000000 0.000000 0.000000
0.912713 -0.086771 -0.022871 0.000000 0.000000 0.000000
0.933807 -0.114373 -0.011558 0.000000 0.000000 0.000000
0.759772 -0.154585 0.587786 0.000000 0.000000 0.000000
0.720826 -0.069437 0.069813 0.000000 0.000000 0.000000
0.771706 -0.163447 0.569160 0.000000 0.000000 0.000000
0.701017 -0.126741 0.456771 0.000000 0.000000 0.000000
0.933937 -0.120485 0.010451 0.000000 0.000000 0.000000
0.758714 -0.156861 0.576955 0.000000 0.000000 0.000000
0.837959 -0.135303 0.247522 0.000000 0.000000 0.000000
0.876066 -0.230262 0.547589 0.000000 0.000000 0.000000
0.939695 -0.101011 -0.009614 0.000000 0.000000 0.000000
0.935390 -0.104365 -0.004814 0.000000 0.000000 0.000000
0.913472 -0.088852 -0.027764 0.000000 0.000000 0.000000
0.852795 -0.226614 0.673873 0.000000 0.000000 0.000000
0.776848 -0.162436 0.577652 0.000000 0.000000 0.000000
1.024885 -0.270901 0.247734 0.000000 0.000000 0.000000
0.762580 -0.158645 0.573934 0.000000 0.000000 0.000000
0.780965 -0.165277 0.592127 0.000000 0.000000 0.000000
0.931491 -0.135972 0.023959 0.000000 0.000000 0.000000
0.877139 -0.239537 0.555852 0.000000 0.000000 0.000000
0.838758 -0.132767 0.203985 0.000000 0.000000 0.000000
0.757812 -0.157054 0.559571 0.000000 0.000000 0.000000
0.930339 -0.113640 -0.012797 0.000000 0.000000 0.000000
0.939459 -0.108318 -0.012009 0.000000 0.000000 0.000000
0.911235 -0.085912 -0.021810 0.000000 0.000000 0.000000
0.917575 -0.089984 -0.010610 0.000000 0.000000 0.000000
0.903695 -0.073193 -0.028335 0.000000 0.000000 0.000000
0.710632 -0.080949 0.110547 0.000000 0.000000 0.000000
0.930784 -0.112337 -0.018028 0.000000 0.000000 0.000000
0.750304 -0.153936 0.578070 0.000000 0.000000 0.000000
0.765919 -0.159496 0.592709 0.000000 0.000000 0.000000
0.764177 -0.166033 0.586381 0.000000 0.000000 0.000000
0.852990 -0.255401 0.609183 0.000000 0.000000 0.000000
0.854443 -0.033083 -0.037355 0.000000 0.000000 0.000000
0.716902 -0.119177 0.489648 0.000000 0.000000 0.000000
0.859566 -0.257129 0.587126 0.000000 0.000000 0.000000
0.920371 -0.096591 -0.021257 0.000000 0.000000 0.000000
0.894453 -0.066669 -0.031183 0.000000 0.000000 0.000000
1.070493 -0.260293 0.267664 0.000000 0.000000 0.000000
0.873544 -0.192456 0.316715 0.000000 0.000000 0.000000
0.711380 -0.082432 0.075112 0.000000 0.000000 0.000000
