ply
format ascii 1.0
comment VCGLIB generated
obj_info Generated by SPFormer!
element vertex 884
property float x
property float y
property float z
property float nx
property float ny
property float nz
end_header
1.171711 0.817044 0.800888 0.000000 0.000000 0.000000
1.091554 0.877817 0.850556 0.000000 0.000000 0.000000
1.153745 0.826823 0.696733 0.000000 0.000000 0.000000
1.374355 0.568005 0.644742 0.000000 0.000000 0.000000
1.184817 0.791776 0.849600 0.000000 0.000000 0.000000
1.156063 0.810578 0.684087 0.000000 0.000000 0.000000
1.141872 0.847144 0.715463 0.000000 0.000000 0.000000
1.092785 0.883394 0.825067 0.000000 0.000000 0.000000
1.140836 0.826108 0.650577 0.000000 0.000000 0.000000
1.073210 0.892332 0.851389 0.000000 0.000000 0.000000
1.159697 0.810830 0.648281 0.000000 0.000000 0.000000
1.111571 0.849899 0.876121 0.000000 0.000000 0.000000
1.113811 0.872844 0.800158 0.000000 0.000000 0.000000
1.178253 0.769884 0.709961 0.000000 0.000000 0.000000
1.176734 0.780803 0.797844 0.000000 0.000000 0.000000
1.181050 0.810234 0.784582 0.000000 0.000000 0.000000
1.154406 0.815252 0.648670 0.000000 0.000000 0.000000
1.262546 0.699067 0.548259 0.000000 0.000000 0.000000
1.145264 0.818838 0.637402 0.000000 0.000000 0.000000
1.192072 0.756069 0.631188 0.000000 0.000000 0.000000
1.328889 0.632239 0.640913 0.000000 0.000000 0.000000
1.186922 0.803356 0.793650 0.000000 0.000000 0.000000
1.272722 0.627641 0.840323 0.000000 0.000000 0.000000
1.314922 0.634005 0.608379 0.000000 0.000000 0.000000
1.178194 0.804158 0.750552 0.000000 0.000000 0.000000
1.274868 0.690085 0.566243 0.000000 0.000000 0.000000
1.175336 0.817707 0.762633 0.000000 0.000000 0.000000
1.309004 0.657694 0.552365 0.000000 0.000000 0.000000
1.201696 0.733895 0.784572 0.000000 0.000000 0.000000
1.199293 0.733337 0.749931 0.000000 0.000000 0.000000
1.193898 0.781430 0.794676 0.000000 0.000000 0.000000
1.351232 0.575932 0.617469 0.000000 0.000000 0.000000
1.138331 0.843385 0.849656 0.000000 0.000000 0.000000
1.232948 0.736200 0.868109 0.000000 0.000000 0.000000
1.409146 0.528224 0.646857 0.000000 0.000000 0.000000
1.291301 0.612442 0.815850 0.000000 0.000000 0.000000
1.274923 0.669745 0.607951 0.000000 0.000000 0.000000
1.323012 0.581199 0.779328 0.000000 0.000000 0.000000
1.131411 0.864637 0.730165 0.000000 0.000000 0.000000
1.193216 0.785732 0.602329 0.000000 0.000000 0.000000
1.236310 0.702495 0.842015 0.000000 0.000000 0.000000
1.242664 0.694275 0.840977 0.000000 0.000000 0.000000
1.260748 0.667424 0.622590 0.000000 0.000000 0.000000
1.353019 0.588769 0.593356 0.000000 0.000000 0.000000
1.334783 0.572187 0.723416 0.000000 0.000000 0.000000
1.331215 0.569907 0.745696 0.000000 0.000000 0.000000
1.222646 0.714699 0.615106 0.000000 0.000000 0.000000
1.254068 0.672858 0.854231 0.000000 0.000000 0.000000
1.238475 0.693499 0.840716 0.000000 0.000000 0.000000
1.311428 0.604121 0.622866 0.000000 0.000000 0.000000
1.203970 0.713102 0.674141 0.000000 0.000000 0.000000
1.225109 0.690515 0.690029 0.000000 0.000000 0.000000
1.277056 0.623333 0.666248 0.000000 0.000000 0.000000
1.297597 0.605543 0.709950 0.000000 0.000000 0.000000
1.254892 0.649734 0.707653 0.000000 0.000000 0.000000
1.198920 0.731127 0.662435 0.000000 0.000000 0.000000
1.324948 0.611738 0.621818 0.000000 0.000000 0.000000
1.187247 0.742092 0.684283 0.000000 0.000000 0.000000
1.178850 0.762123 0.675132 0.000000 0.000000 0.000000
1.257182 0.638715 0.842405 0.000000 0.000000 0.000000
1.235698 0.666947 0.680933 0.000000 0.000000 0.000000
1.236890 0.663657 0.687160 0.000000 0.000000 0.000000
1.238438 0.686564 0.616948 0.000000 0.000000 0.000000
1.176047 0.757581 0.694820 0.000000 0.000000 0.000000
1.172309 0.805407 0.738148 0.000000 0.000000 0.000000
1.198660 0.740043 0.762014 0.000000 0.000000 0.000000
1.281433 0.627160 0.702596 0.000000 0.000000 0.000000
1.238153 0.665766 0.699826 0.000000 0.000000 0.000000
1.292447 0.610434 0.770288 0.000000 0.000000 0.000000
1.180997 0.771020 0.644482 0.000000 0.000000 0.000000
1.208692 0.706008 0.688984 0.000000 0.000000 0.000000
1.254699 0.660862 0.780983 0.000000 0.000000 0.000000
1.252323 0.657734 0.653089 0.000000 0.000000 0.000000
1.287320 0.616780 0.680082 0.000000 0.000000 0.000000
1.296071 0.612521 0.698802 0.000000 0.000000 0.000000
1.228633 0.696249 0.777494 0.000000 0.000000 0.000000
1.121137 0.867919 0.820981 0.000000 0.000000 0.000000
1.195912 0.756681 0.821504 0.000000 0.000000 0.000000
1.247773 0.671593 0.779078 0.000000 0.000000 0.000000
1.231344 0.708875 0.848059 0.000000 0.000000 0.000000
1.130432 0.842856 0.865085 0.000000 0.000000 0.000000
1.187157 0.739183 0.848445 0.000000 0.000000 0.000000
1.219561 0.692148 0.700174 0.000000 0.000000 0.000000
1.179708 0.766078 0.700694 0.000000 0.000000 0.000000
1.320799 0.583731 0.744411 0.000000 0.000000 0.000000
1.331849 0.570221 0.716780 0.000000 0.000000 0.000000
1.088905 0.885837 0.798082 0.000000 0.000000 0.000000
1.183860 0.782572 0.753331 0.000000 0.000000 0.000000
1.171238 0.806660 0.740810 0.000000 0.000000 0.000000
1.130669 0.862855 0.708071 0.000000 0.000000 0.000000
1.355529 0.564295 0.678792 0.000000 0.000000 0.000000
1.218522 0.732533 0.593239 0.000000 0.000000 0.000000
1.232700 0.713552 0.581457 0.000000 0.000000 0.000000
1.190055 0.766278 0.818148 0.000000 0.000000 0.000000
1.147193 0.844865 0.759236 0.000000 0.000000 0.000000
1.152297 0.810155 0.743009 0.000000 0.000000 0.000000
1.230284 0.725349 0.857750 0.000000 0.000000 0.000000
1.296087 0.613940 0.761347 0.000000 0.000000 0.000000
1.235672 0.733223 0.561890 0.000000 0.000000 0.000000
1.184834 0.802774 0.779955 0.000000 0.000000 0.000000
1.161517 0.814969 0.699226 0.000000 0.000000 0.000000
1.207832 0.717056 0.755771 0.000000 0.000000 0.000000
1.175837 0.789952 0.857759 0.000000 0.000000 0.000000
1.169038 0.815337 0.853518 0.000000 0.000000 0.000000
1.184538 0.782072 0.853928 0.000000 0.000000 0.000000
1.126490 0.853899 0.851394 0.000000 0.000000 0.000000
1.137187 0.849450 0.840505 0.000000 0.000000 0.000000
1.171968 0.813124 0.745581 0.000000 0.000000 0.000000
1.166538 0.825626 0.755744 0.000000 0.000000 0.000000
1.201883 0.741813 0.633407 0.000000 0.000000 0.000000
1.156886 0.840442 0.800864 0.000000 0.000000 0.000000
1.168661 0.774996 0.865102 0.000000 0.000000 0.000000
1.235575 0.745235 0.556813 0.000000 0.000000 0.000000
1.147577 0.844472 0.701271 0.000000 0.000000 0.000000
1.231413 0.699177 0.848953 0.000000 0.000000 0.000000
1.222621 0.705345 0.796914 0.000000 0.000000 0.000000
1.211955 0.730898 0.790553 0.000000 0.000000 0.000000
1.133847 0.862242 0.777067 0.000000 0.000000 0.000000
1.132721 0.839014 0.868609 0.000000 0.000000 0.000000
1.148986 0.838069 0.673361 0.000000 0.000000 0.000000
1.228439 0.740929 0.581211 0.000000 0.000000 0.000000
1.180694 0.763115 0.663290 0.000000 0.000000 0.000000
1.123763 0.864566 0.813346 0.000000 0.000000 0.000000
1.241326 0.687306 0.832879 0.000000 0.000000 0.000000
1.151348 0.832848 0.695932 0.000000 0.000000 0.000000
1.196726 0.774558 0.800247 0.000000 0.000000 0.000000
1.091823 0.886028 0.816903 0.000000 0.000000 0.000000
1.102130 0.873680 0.814342 0.000000 0.000000 0.000000
1.218526 0.733905 0.839270 0.000000 0.000000 0.000000
1.112496 0.866016 0.843109 0.000000 0.000000 0.000000
1.163912 0.833079 0.799153 0.000000 0.000000 0.000000
1.161247 0.836309 0.776573 0.000000 0.000000 0.000000
1.169128 0.788834 0.680558 0.000000 0.000000 0.000000
1.104775 0.875581 0.820401 0.000000 0.000000 0.000000
1.309135 0.605717 0.815857 0.000000 0.000000 0.000000
1.159171 0.831729 0.821685 0.000000 0.000000 0.000000
1.163691 0.797597 0.648829 0.000000 0.000000 0.000000
1.190064 0.765379 0.853838 0.000000 0.000000 0.000000
1.140086 0.840118 0.855678 0.000000 0.000000 0.000000
1.227334 0.754544 0.554188 0.000000 0.000000 0.000000
1.142594 0.843173 0.699636 0.000000 0.000000 0.000000
1.285663 0.683488 0.545467 0.000000 0.000000 0.000000
1.181571 0.775805 0.628341 0.000000 0.000000 0.000000
1.206712 0.739408 0.816265 0.000000 0.000000 0.000000
1.158883 0.822996 0.844377 0.000000 0.000000 0.000000
1.141625 0.855654 0.757022 0.000000 0.000000 0.000000
1.209249 0.712549 0.791216 0.000000 0.000000 0.000000
1.179773 0.810516 0.760507 0.000000 0.000000 0.000000
1.325161 0.605746 0.670468 0.000000 0.000000 0.000000
1.127674 0.863698 0.806745 0.000000 0.000000 0.000000
1.160220 0.838813 0.744389 0.000000 0.000000 0.000000
1.263925 0.661511 0.824577 0.000000 0.000000 0.000000
1.140250 0.854376 0.808786 0.000000 0.000000 0.000000
1.247844 0.717869 0.564836 0.000000 0.000000 0.000000
1.206232 0.766834 0.580680 0.000000 0.000000 0.000000
1.267476 0.704716 0.562299 0.000000 0.000000 0.000000
1.106698 0.879601 0.805137 0.000000 0.000000 0.000000
1.210128 0.700188 0.756491 0.000000 0.000000 0.000000
1.170626 0.818306 0.825460 0.000000 0.000000 0.000000
1.285666 0.659588 0.569216 0.000000 0.000000 0.000000
1.130219 0.863449 0.757704 0.000000 0.000000 0.000000
1.165261 0.795288 0.662665 0.000000 0.000000 0.000000
1.165961 0.767090 0.657246 0.000000 0.000000 0.000000
1.161051 0.781154 0.698405 0.000000 0.000000 0.000000
1.161592 0.823105 0.793261 0.000000 0.000000 0.000000
1.159356 0.823518 0.849550 0.000000 0.000000 0.000000
1.364548 0.566196 0.653166 0.000000 0.000000 0.000000
1.276816 0.637677 0.800734 0.000000 0.000000 0.000000
1.130543 0.848466 0.855847 0.000000 0.000000 0.000000
1.207019 0.716936 0.741565 0.000000 0.000000 0.000000
1.172187 0.812712 0.848046 0.000000 0.000000 0.000000
1.153036 0.816627 0.671563 0.000000 0.000000 0.000000
1.090409 0.864700 0.887092 0.000000 0.000000 0.000000
1.171015 0.821597 0.759799 0.000000 0.000000 0.000000
1.243024 0.687638 0.583870 0.000000 0.000000 0.000000
1.216912 0.717585 0.625976 0.000000 0.000000 0.000000
1.140533 0.854568 0.752800 0.000000 0.000000 0.000000
1.210310 0.750045 0.852990 0.000000 0.000000 0.000000
1.216497 0.759027 0.556949 0.000000 0.000000 0.000000
1.145229 0.840494 0.672774 0.000000 0.000000 0.000000
1.216461 0.742414 0.594586 0.000000 0.000000 0.000000
1.133881 0.862951 0.736234 0.000000 0.000000 0.000000
1.181756 0.779151 0.822609 0.000000 0.000000 0.000000
1.117487 0.856098 0.718046 0.000000 0.000000 0.000000
1.130946 0.867393 0.767421 0.000000 0.000000 0.000000
1.345215 0.576797 0.643488 0.000000 0.000000 0.000000
1.146480 0.849952 0.771348 0.000000 0.000000 0.000000
1.158703 0.836790 0.789895 0.000000 0.000000 0.000000
1.290848 0.683661 0.545117 0.000000 0.000000 0.000000
1.180119 0.804976 0.837899 0.000000 0.000000 0.000000
1.170092 0.786041 0.693807 0.000000 0.000000 0.000000
1.144583 0.848173 0.714023 0.000000 0.000000 0.000000
1.141861 0.851428 0.715941 0.000000 0.000000 0.000000
1.080860 0.885957 0.834804 0.000000 0.000000 0.000000
1.168561 0.810076 0.812657 0.000000 0.000000 0.000000
1.153307 0.804326 0.621590 0.000000 0.000000 0.000000
1.360908 0.568829 0.628060 0.000000 0.000000 0.000000
1.107235 0.879553 0.812442 0.000000 0.000000 0.000000
1.180862 0.804531 0.763726 0.000000 0.000000 0.000000
1.234244 0.712783 0.834620 0.000000 0.000000 0.000000
1.144452 0.847458 0.767060 0.000000 0.000000 0.000000
1.168626 0.785824 0.680396 0.000000 0.000000 0.000000
1.347958 0.581718 0.586346 0.000000 0.000000 0.000000
1.395125 0.536113 0.678322 0.000000 0.000000 0.000000
1.092321 0.870406 0.867290 0.000000 0.000000 0.000000
1.172547 0.799852 0.825404 0.000000 0.000000 0.000000
1.100199 0.863128 0.878749 0.000000 0.000000 0.000000
1.196008 0.721016 0.711378 0.000000 0.000000 0.000000
1.376672 0.550290 0.673368 0.000000 0.000000 0.000000
1.181568 0.799487 0.762581 0.000000 0.000000 0.000000
1.323181 0.578548 0.769934 0.000000 0.000000 0.000000
1.180446 0.795199 0.752177 0.000000 0.000000 0.000000
1.312655 0.648023 0.563717 0.000000 0.000000 0.000000
1.208911 0.722021 0.719573 0.000000 0.000000 0.000000
1.110871 0.851614 0.866928 0.000000 0.000000 0.000000
1.189885 0.756857 0.762928 0.000000 0.000000 0.000000
1.186856 0.793781 0.772689 0.000000 0.000000 0.000000
1.116608 0.851476 0.866726 0.000000 0.000000 0.000000
1.277284 0.648781 0.624261 0.000000 0.000000 0.000000
1.305357 0.602492 0.835769 0.000000 0.000000 0.000000
1.243387 0.701091 0.593914 0.000000 0.000000 0.000000
1.303847 0.604241 0.800884 0.000000 0.000000 0.000000
1.125422 0.870414 0.730420 0.000000 0.000000 0.000000
1.127015 0.868695 0.735197 0.000000 0.000000 0.000000
1.082497 0.877386 0.884831 0.000000 0.000000 0.000000
1.232407 0.693805 0.844606 0.000000 0.000000 0.000000
1.259834 0.648435 0.629635 0.000000 0.000000 0.000000
1.288490 0.682649 0.548308 0.000000 0.000000 0.000000
1.267862 0.620741 0.845051 0.000000 0.000000 0.000000
1.171407 0.766959 0.717829 0.000000 0.000000 0.000000
1.399737 0.547737 0.618684 0.000000 0.000000 0.000000
1.211333 0.735691 0.663480 0.000000 0.000000 0.000000
1.145132 0.834192 0.715007 0.000000 0.000000 0.000000
1.220919 0.742517 0.868112 0.000000 0.000000 0.000000
1.187797 0.776385 0.841521 0.000000 0.000000 0.000000
1.189219 0.733412 0.708539 0.000000 0.000000 0.000000
1.271524 0.632115 0.712905 0.000000 0.000000 0.000000
1.202840 0.718109 0.669692 0.000000 0.000000 0.000000
1.246498 0.666168 0.847127 0.000000 0.000000 0.000000
1.216720 0.693967 0.679793 0.000000 0.000000 0.000000
1.186228 0.754745 0.727169 0.000000 0.000000 0.000000
1.291875 0.620624 0.676788 0.000000 0.000000 0.000000
1.212933 0.695008 0.694131 0.000000 0.000000 0.000000
1.187018 0.759951 0.762372 0.000000 0.000000 0.000000
1.334521 0.615613 0.596765 0.000000 0.000000 0.000000
1.104478 0.875081 0.821094 0.000000 0.000000 0.000000
1.365692 0.575426 0.629274 0.000000 0.000000 0.000000
1.136095 0.857561 0.716996 0.000000 0.000000 0.000000
1.147341 0.849904 0.749394 0.000000 0.000000 0.000000
1.127099 0.857953 0.714149 0.000000 0.000000 0.000000
1.122072 0.876085 0.753309 0.000000 0.000000 0.000000
1.139886 0.838622 0.678240 0.000000 0.000000 0.000000
1.152248 0.836980 0.834264 0.000000 0.000000 0.000000
1.144037 0.854840 0.742446 0.000000 0.000000 0.000000
1.142989 0.851109 0.680932 0.000000 0.000000 0.000000
1.092726 0.867621 0.892712 0.000000 0.000000 0.000000
1.358943 0.573382 0.612909 0.000000 0.000000 0.000000
1.258117 0.717991 0.543850 0.000000 0.000000 0.000000
1.233696 0.755687 0.544214 0.000000 0.000000 0.000000
1.227177 0.711062 0.832605 0.000000 0.000000 0.000000
1.152980 0.828426 0.850725 0.000000 0.000000 0.000000
1.237543 0.738549 0.533117 0.000000 0.000000 0.000000
1.217671 0.749615 0.591113 0.000000 0.000000 0.000000
1.183442 0.782524 0.834717 0.000000 0.000000 0.000000
1.200529 0.784120 0.581993 0.000000 0.000000 0.000000
1.155078 0.812672 0.644069 0.000000 0.000000 0.000000
1.057058 0.892473 0.873669 0.000000 0.000000 0.000000
1.070472 0.888905 0.872722 0.000000 0.000000 0.000000
1.220095 0.692056 0.651964 0.000000 0.000000 0.000000
1.300580 0.661305 0.558231 0.000000 0.000000 0.000000
1.315328 0.598221 0.659163 0.000000 0.000000 0.000000
1.253418 0.666077 0.806215 0.000000 0.000000 0.000000
1.335599 0.575867 0.702518 0.000000 0.000000 0.000000
1.242349 0.663416 0.722650 0.000000 0.000000 0.000000
1.293817 0.614538 0.783226 0.000000 0.000000 0.000000
1.193749 0.742271 0.742474 0.000000 0.000000 0.000000
1.296876 0.599346 0.788989 0.000000 0.000000 0.000000
1.236021 0.730618 0.568083 0.000000 0.000000 0.000000
1.154243 0.842506 0.795924 0.000000 0.000000 0.000000
1.244923 0.673697 0.764437 0.000000 0.000000 0.000000
1.166608 0.815437 0.834033 0.000000 0.000000 0.000000
1.239637 0.713031 0.583585 0.000000 0.000000 0.000000
1.139277 0.856354 0.718421 0.000000 0.000000 0.000000
1.069349 0.887734 0.877648 0.000000 0.000000 0.000000
1.101134 0.875464 0.838234 0.000000 0.000000 0.000000
1.196888 0.778108 0.828895 0.000000 0.000000 0.000000
1.109087 0.857745 0.870510 0.000000 0.000000 0.000000
1.156750 0.830193 0.835859 0.000000 0.000000 0.000000
1.244383 0.681116 0.842370 0.000000 0.000000 0.000000
1.180442 0.805725 0.832578 0.000000 0.000000 0.000000
1.319249 0.599849 0.643411 0.000000 0.000000 0.000000
1.384571 0.552238 0.628799 0.000000 0.000000 0.000000
1.152441 0.842908 0.755057 0.000000 0.000000 0.000000
1.285677 0.614752 0.664375 0.000000 0.000000 0.000000
1.215334 0.710730 0.651093 0.000000 0.000000 0.000000
1.374700 0.551636 0.644303 0.000000 0.000000 0.000000
1.352801 0.566022 0.662957 0.000000 0.000000 0.000000
1.323362 0.619413 0.608851 0.000000 0.000000 0.000000
1.255279 0.646878 0.717824 0.000000 0.000000 0.000000
1.301701 0.653895 0.574360 0.000000 0.000000 0.000000
1.251618 0.670371 0.647452 0.000000 0.000000 0.000000
1.275522 0.632339 0.692267 0.000000 0.000000 0.000000
1.304683 0.602375 0.723907 0.000000 0.000000 0.000000
1.131978 0.860828 0.810787 0.000000 0.000000 0.000000
1.163105 0.824600 0.837336 0.000000 0.000000 0.000000
1.112327 0.873467 0.818445 0.000000 0.000000 0.000000
1.182965 0.806818 0.803522 0.000000 0.000000 0.000000
1.287598 0.621562 0.749185 0.000000 0.000000 0.000000
1.135961 0.857326 0.795176 0.000000 0.000000 0.000000
1.148231 0.832697 0.754236 0.000000 0.000000 0.000000
1.345059 0.556355 0.754282 0.000000 0.000000 0.000000
1.098230 0.870193 0.863912 0.000000 0.000000 0.000000
1.370238 0.561825 0.640884 0.000000 0.000000 0.000000
1.144671 0.845497 0.830974 0.000000 0.000000 0.000000
1.344481 0.578601 0.629441 0.000000 0.000000 0.000000
1.123629 0.855219 0.848240 0.000000 0.000000 0.000000
1.132117 0.848499 0.852956 0.000000 0.000000 0.000000
1.384618 0.553946 0.633912 0.000000 0.000000 0.000000
1.398016 0.533864 0.654054 0.000000 0.000000 0.000000
1.083807 0.883604 0.861822 0.000000 0.000000 0.000000
1.145793 0.828138 0.644928 0.000000 0.000000 0.000000
1.353804 0.585057 0.619940 0.000000 0.000000 0.000000
1.148795 0.813172 0.685980 0.000000 0.000000 0.000000
1.233236 0.680785 0.644199 0.000000 0.000000 0.000000
1.192738 0.728172 0.680062 0.000000 0.000000 0.000000
1.387533 0.546570 0.656864 0.000000 0.000000 0.000000
1.355674 0.570143 0.628102 0.000000 0.000000 0.000000
1.369696 0.563512 0.616904 0.000000 0.000000 0.000000
1.176629 0.777220 0.621150 0.000000 0.000000 0.000000
1.238255 0.694423 0.828727 0.000000 0.000000 0.000000
1.244909 0.736299 0.533928 0.000000 0.000000 0.000000
1.374594 0.560967 0.631158 0.000000 0.000000 0.000000
1.266934 0.643385 0.833656 0.000000 0.000000 0.000000
1.091431 0.884118 0.815017 0.000000 0.000000 0.000000
1.078319 0.887314 0.854395 0.000000 0.000000 0.000000
1.068227 0.884767 0.882521 0.000000 0.000000 0.000000
1.224201 0.692704 0.633568 0.000000 0.000000 0.000000
1.292377 0.619015 0.642572 0.000000 0.000000 0.000000
1.339632 0.578914 0.668906 0.000000 0.000000 0.000000
1.150872 0.842859 0.786058 0.000000 0.000000 0.000000
1.290615 0.616030 0.724002 0.000000 0.000000 0.000000
1.319420 0.595593 0.667938 0.000000 0.000000 0.000000
1.248184 0.655482 0.692856 0.000000 0.000000 0.000000
1.371475 0.551249 0.670986 0.000000 0.000000 0.000000
1.256201 0.652261 0.749380 0.000000 0.000000 0.000000
1.201159 0.714049 0.718272 0.000000 0.000000 0.000000
1.346689 0.564583 0.728448 0.000000 0.000000 0.000000
1.236997 0.732008 0.573893 0.000000 0.000000 0.000000
1.212262 0.703398 0.746213 0.000000 0.000000 0.000000
1.250363 0.656374 0.682943 0.000000 0.000000 0.000000
1.172275 0.824369 0.782014 0.000000 0.000000 0.000000
1.201846 0.765712 0.824941 0.000000 0.000000 0.000000
1.121696 0.844404 0.872449 0.000000 0.000000 0.000000
1.173339 0.821389 0.798357 0.000000 0.000000 0.000000
1.129807 0.869493 0.743550 0.000000 0.000000 0.000000
1.184708 0.804151 0.797398 0.000000 0.000000 0.000000
1.247441 0.665545 0.757458 0.000000 0.000000 0.000000
1.349077 0.579176 0.635731 0.000000 0.000000 0.000000
1.231807 0.748427 0.556026 0.000000 0.000000 0.000000
1.222626 0.736578 0.851920 0.000000 0.000000 0.000000
1.377834 0.546699 0.676418 0.000000 0.000000 0.000000
1.253484 0.671686 0.845801 0.000000 0.000000 0.000000
1.150898 0.834607 0.675653 0.000000 0.000000 0.000000
1.376960 0.541934 0.684322 0.000000 0.000000 0.000000
1.270169 0.708054 0.531323 0.000000 0.000000 0.000000
1.243474 0.665904 0.662516 0.000000 0.000000 0.000000
1.241307 0.673410 0.635073 0.000000 0.000000 0.000000
1.113640 0.867857 0.837715 0.000000 0.000000 0.000000
1.198135 0.769899 0.808253 0.000000 0.000000 0.000000
1.188047 0.754420 0.784718 0.000000 0.000000 0.000000
1.153653 0.836362 0.811330 0.000000 0.000000 0.000000
1.114602 0.845783 0.874282 0.000000 0.000000 0.000000
1.356672 0.554314 0.747633 0.000000 0.000000 0.000000
1.213923 0.769257 0.573460 0.000000 0.000000 0.000000
1.379189 0.563062 0.635489 0.000000 0.000000 0.000000
1.329994 0.587273 0.636401 0.000000 0.000000 0.000000
1.290319 0.616400 0.807767 0.000000 0.000000 0.000000
1.130023 0.860930 0.826506 0.000000 0.000000 0.000000
1.384367 0.553921 0.637335 0.000000 0.000000 0.000000
1.082317 0.887777 0.860042 0.000000 0.000000 0.000000
1.185760 0.759077 0.716938 0.000000 0.000000 0.000000
1.146653 0.830017 0.650903 0.000000 0.000000 0.000000
1.318156 0.604915 0.672155 0.000000 0.000000 0.000000
1.151505 0.829105 0.660192 0.000000 0.000000 0.000000
1.280890 0.648590 0.637909 0.000000 0.000000 0.000000
1.300480 0.610592 0.655401 0.000000 0.000000 0.000000
1.155562 0.810390 0.632351 0.000000 0.000000 0.000000
1.212608 0.698241 0.708454 0.000000 0.000000 0.000000
1.325587 0.608946 0.654493 0.000000 0.000000 0.000000
1.148732 0.818158 0.629178 0.000000 0.000000 0.000000
1.228329 0.756837 0.532468 0.000000 0.000000 0.000000
1.149798 0.846690 0.742371 0.000000 0.000000 0.000000
1.391996 0.588252 0.640183 0.000000 0.000000 0.000000
1.383921 0.552833 0.621597 0.000000 0.000000 0.000000
1.142759 0.833518 0.861321 0.000000 0.000000 0.000000
1.190916 0.802159 0.579875 0.000000 0.000000 0.000000
1.371844 0.536161 0.700022 0.000000 0.000000 0.000000
1.378499 0.555200 0.658910 0.000000 0.000000 0.000000
1.252065 0.673804 0.805323 0.000000 0.000000 0.000000
1.139573 0.833887 0.699524 0.000000 0.000000 0.000000
1.347460 0.565434 0.692059 0.000000 0.000000 0.000000
1.314629 0.607945 0.633269 0.000000 0.000000 0.000000
1.079788 0.892463 0.838876 0.000000 0.000000 0.000000
1.098102 0.869271 0.869625 0.000000 0.000000 0.000000
1.142584 0.846324 0.833904 0.000000 0.000000 0.000000
1.124070 0.862758 0.835369 0.000000 0.000000 0.000000
1.137942 0.857011 0.696598 0.000000 0.000000 0.000000
1.246356 0.663872 0.756925 0.000000 0.000000 0.000000
1.153146 0.828969 0.685701 0.000000 0.000000 0.000000
1.286960 0.664235 0.585878 0.000000 0.000000 0.000000
1.396358 0.531760 0.672548 0.000000 0.000000 0.000000
1.372367 0.553088 0.723858 0.000000 0.000000 0.000000
1.294809 0.677620 0.533616 0.000000 0.000000 0.000000
1.389363 0.559934 0.640419 0.000000 0.000000 0.000000
1.333783 0.554393 0.768968 0.000000 0.000000 0.000000
1.366557 0.560026 0.640795 0.000000 0.000000 0.000000
1.268697 0.637649 0.668048 0.000000 0.000000 0.000000
1.365876 0.577958 0.620079 0.000000 0.000000 0.000000
1.333261 0.607044 0.634052 0.000000 0.000000 0.000000
1.199130 0.748150 0.794514 0.000000 0.000000 0.000000
1.396625 0.546776 0.617524 0.000000 0.000000 0.000000
1.080069 0.888236 0.840490 0.000000 0.000000 0.000000
1.140145 0.853709 0.748122 0.000000 0.000000 0.000000
1.313964 0.640258 0.553370 0.000000 0.000000 0.000000
1.122569 0.882542 0.758399 0.000000 0.000000 0.000000
1.324991 0.625625 0.562104 0.000000 0.000000 0.000000
1.271979 0.666820 0.631314 0.000000 0.000000 0.000000
1.124054 0.874239 0.755165 0.000000 0.000000 0.000000
1.142290 0.849848 0.682259 0.000000 0.000000 0.000000
1.206154 0.782853 0.562915 0.000000 0.000000 0.000000
1.127973 0.855986 0.717983 0.000000 0.000000 0.000000
1.332605 0.609712 0.564886 0.000000 0.000000 0.000000
1.144269 0.845873 0.831877 0.000000 0.000000 0.000000
1.092261 0.882912 0.837478 0.000000 0.000000 0.000000
1.388414 0.552127 0.634309 0.000000 0.000000 0.000000
1.113637 0.871852 0.825118 0.000000 0.000000 0.000000
1.137539 0.857650 0.828547 0.000000 0.000000 0.000000
1.220370 0.707558 0.773173 0.000000 0.000000 0.000000
1.111445 0.875313 0.802197 0.000000 0.000000 0.000000
1.086499 0.886774 0.828012 0.000000 0.000000 0.000000
1.310533 0.592677 0.802611 0.000000 0.000000 0.000000
1.110320 0.858016 0.862044 0.000000 0.000000 0.000000
1.392237 0.538869 0.669315 0.000000 0.000000 0.000000
1.309883 0.597330 0.715933 0.000000 0.000000 0.000000
1.263802 0.639582 0.675232 0.000000 0.000000 0.000000
1.359451 0.552330 0.704925 0.000000 0.000000 0.000000
1.374418 0.555777 0.638336 0.000000 0.000000 0.000000
1.153748 0.822615 0.652770 0.000000 0.000000 0.000000
1.129604 0.866901 0.723253 0.000000 0.000000 0.000000
1.225939 0.717357 0.859097 0.000000 0.000000 0.000000
1.140099 0.855813 0.761070 0.000000 0.000000 0.000000
1.156009 0.813452 0.631440 0.000000 0.000000 0.000000
1.135541 0.860983 0.768884 0.000000 0.000000 0.000000
1.195984 0.781342 0.593328 0.000000 0.000000 0.000000
1.374770 0.560443 0.643946 0.000000 0.000000 0.000000
1.127416 0.864119 0.707358 0.000000 0.000000 0.000000
1.314458 0.608346 0.594262 0.000000 0.000000 0.000000
1.143293 0.849913 0.681879 0.000000 0.000000 0.000000
1.147838 0.841423 0.667513 0.000000 0.000000 0.000000
1.151444 0.832655 0.658147 0.000000 0.000000 0.000000
1.162976 0.806984 0.657670 0.000000 0.000000 0.000000
1.293551 0.611866 0.778911 0.000000 0.000000 0.000000
1.122547 0.833896 0.879760 0.000000 0.000000 0.000000
1.216505 0.771326 0.561408 0.000000 0.000000 0.000000
1.260411 0.665623 0.841024 0.000000 0.000000 0.000000
1.226158 0.722214 0.851699 0.000000 0.000000 0.000000
1.240756 0.679608 0.617098 0.000000 0.000000 0.000000
1.387323 0.553322 0.625548 0.000000 0.000000 0.000000
1.224493 0.739397 0.859280 0.000000 0.000000 0.000000
1.302939 0.599820 0.803732 0.000000 0.000000 0.000000
1.292398 0.605717 0.829795 0.000000 0.000000 0.000000
1.415269 0.545453 0.680543 0.000000 0.000000 0.000000
1.342926 0.602299 0.572567 0.000000 0.000000 0.000000
1.401312 0.544097 0.640175 0.000000 0.000000 0.000000
1.341733 0.604623 0.593188 0.000000 0.000000 0.000000
1.312003 0.596176 0.828626 0.000000 0.000000 0.000000
1.373615 0.570817 0.597891 0.000000 0.000000 0.000000
1.124958 0.866339 0.716243 0.000000 0.000000 0.000000
1.307704 0.584003 0.841432 0.000000 0.000000 0.000000
1.151235 0.827075 0.657372 0.000000 0.000000 0.000000
1.309456 0.600351 0.827528 0.000000 0.000000 0.000000
1.363182 0.578827 0.588559 0.000000 0.000000 0.000000
1.147584 0.843960 0.687674 0.000000 0.000000 0.000000
1.188266 0.738133 0.752248 0.000000 0.000000 0.000000
1.163043 0.829992 0.771069 0.000000 0.000000 0.000000
1.154752 0.820307 0.641367 0.000000 0.000000 0.000000
1.157631 0.810821 0.673216 0.000000 0.000000 0.000000
1.309970 0.593451 0.761626 0.000000 0.000000 0.000000
1.121911 0.838066 0.875331 0.000000 0.000000 0.000000
1.238042 0.697524 0.836855 0.000000 0.000000 0.000000
1.252767 0.654159 0.728493 0.000000 0.000000 0.000000
1.283010 0.640270 0.579507 0.000000 0.000000 0.000000
1.297534 0.603258 0.821346 0.000000 0.000000 0.000000
1.226007 0.733339 0.859988 0.000000 0.000000 0.000000
1.270233 0.642881 0.824472 0.000000 0.000000 0.000000
1.263426 0.632166 0.847714 0.000000 0.000000 0.000000
1.324715 0.614290 0.830148 0.000000 0.000000 0.000000
1.376757 0.557260 0.645955 0.000000 0.000000 0.000000
1.389279 0.542810 0.668857 0.000000 0.000000 0.000000
1.198941 0.787728 0.587764 0.000000 0.000000 0.000000
1.203585 0.788289 0.565230 0.000000 0.000000 0.000000
1.257019 0.672749 0.847663 0.000000 0.000000 0.000000
1.286594 0.690498 0.529782 0.000000 0.000000 0.000000
1.392176 0.551774 0.661712 0.000000 0.000000 0.000000
1.131715 0.861271 0.715141 0.000000 0.000000 0.000000
1.152955 0.814241 0.629745 0.000000 0.000000 0.000000
1.272016 0.616937 0.834295 0.000000 0.000000 0.000000
1.134275 0.861757 0.737943 0.000000 0.000000 0.000000
1.140676 0.846357 0.688918 0.000000 0.000000 0.000000
1.063385 0.885362 0.880723 0.000000 0.000000 0.000000
1.145802 0.847001 0.684904 0.000000 0.000000 0.000000
1.078240 0.882610 0.878766 0.000000 0.000000 0.000000
1.285967 0.667108 0.581455 0.000000 0.000000 0.000000
1.277190 0.623549 0.823159 0.000000 0.000000 0.000000
1.133516 0.870468 0.741859 0.000000 0.000000 0.000000
1.286481 0.673766 0.540756 0.000000 0.000000 0.000000
1.331185 0.618298 0.558642 0.000000 0.000000 0.000000
1.279035 0.690623 0.526248 0.000000 0.000000 0.000000
1.261181 0.638509 0.856921 0.000000 0.000000 0.000000
1.343964 0.590317 0.601716 0.000000 0.000000 0.000000
1.208649 0.762655 0.574106 0.000000 0.000000 0.000000
1.071605 0.882039 0.895478 0.000000 0.000000 0.000000
1.360879 0.567902 0.658279 0.000000 0.000000 0.000000
1.150416 0.837582 0.666667 0.000000 0.000000 0.000000
1.247301 0.680201 0.854834 0.000000 0.000000 0.000000
1.267169 0.641260 0.852000 0.000000 0.000000 0.000000
1.133547 0.866090 0.732120 0.000000 0.000000 0.000000
1.265047 0.663610 0.854866 0.000000 0.000000 0.000000
1.295473 0.659951 0.555765 0.000000 0.000000 0.000000
1.383897 0.541705 0.674406 0.000000 0.000000 0.000000
1.352381 0.581064 0.607089 0.000000 0.000000 0.000000
1.339298 0.583195 0.605524 0.000000 0.000000 0.000000
1.372578 0.567575 0.608876 0.000000 0.000000 0.000000
1.087422 0.881359 0.831662 0.000000 0.000000 0.000000
1.146313 0.830071 0.661897 0.000000 0.000000 0.000000
1.352025 0.590957 0.575346 0.000000 0.000000 0.000000
1.154607 0.823673 0.656613 0.000000 0.000000 0.000000
1.127015 0.861310 0.706681 0.000000 0.000000 0.000000
1.066546 0.889124 0.863495 0.000000 0.000000 0.000000
1.147192 0.842450 0.692708 0.000000 0.000000 0.000000
1.183844 0.770730 0.861121 0.000000 0.000000 0.000000
1.092005 0.875661 0.862789 0.000000 0.000000 0.000000
1.051614 0.895331 0.871355 0.000000 0.000000 0.000000
1.324062 0.562877 0.780293 0.000000 0.000000 0.000000
1.090428 0.893987 0.809291 0.000000 0.000000 0.000000
1.250381 0.660222 0.643260 0.000000 0.000000 0.000000
1.379973 0.554356 0.625449 0.000000 0.000000 0.000000
1.087216 0.875450 0.874468 0.000000 0.000000 0.000000
1.136243 0.859474 0.710714 0.000000 0.000000 0.000000
1.150899 0.837799 0.692873 0.000000 0.000000 0.000000
1.178758 0.815647 0.805631 0.000000 0.000000 0.000000
1.286395 0.636358 0.590513 0.000000 0.000000 0.000000
1.310973 0.647818 0.564620 0.000000 0.000000 0.000000
1.172861 0.821945 0.792132 0.000000 0.000000 0.000000
1.151224 0.838179 0.663169 0.000000 0.000000 0.000000
1.178155 0.769677 0.645423 0.000000 0.000000 0.000000
1.322297 0.608570 0.582939 0.000000 0.000000 0.000000
1.370497 0.560710 0.620892 0.000000 0.000000 0.000000
1.357711 0.570058 0.621414 0.000000 0.000000 0.000000
1.198298 0.767102 0.857322 0.000000 0.000000 0.000000
1.202680 0.780138 0.577391 0.000000 0.000000 0.000000
1.357965 0.575017 0.605880 0.000000 0.000000 0.000000
1.277552 0.658706 0.578438 0.000000 0.000000 0.000000
1.383567 0.555275 0.642696 0.000000 0.000000 0.000000
1.354126 0.554602 0.724692 0.000000 0.000000 0.000000
1.064576 0.889973 0.879294 0.000000 0.000000 0.000000
1.217844 0.739055 0.859157 0.000000 0.000000 0.000000
1.375715 0.568876 0.602351 0.000000 0.000000 0.000000
1.322881 0.584687 0.824101 0.000000 0.000000 0.000000
1.175997 0.804170 0.863927 0.000000 0.000000 0.000000
1.358155 0.601655 0.598185 0.000000 0.000000 0.000000
1.055966 0.890014 0.893334 0.000000 0.000000 0.000000
1.222046 0.763082 0.572097 0.000000 0.000000 0.000000
1.221593 0.754306 0.552905 0.000000 0.000000 0.000000
1.153484 0.817745 0.636253 0.000000 0.000000 0.000000
1.255035 0.652150 0.646815 0.000000 0.000000 0.000000
1.383799 0.550932 0.629160 0.000000 0.000000 0.000000
1.154240 0.813016 0.632938 0.000000 0.000000 0.000000
1.182182 0.791362 0.806652 0.000000 0.000000 0.000000
1.325309 0.581779 0.785249 0.000000 0.000000 0.000000
1.369498 0.566684 0.610966 0.000000 0.000000 0.000000
1.160818 0.833586 0.814215 0.000000 0.000000 0.000000
1.346450 0.573769 0.666391 0.000000 0.000000 0.000000
1.148430 0.840063 0.679466 0.000000 0.000000 0.000000
1.406019 0.542744 0.636076 0.000000 0.000000 0.000000
1.400533 0.549140 0.622836 0.000000 0.000000 0.000000
1.333362 0.587918 0.601277 0.000000 0.000000 0.000000
1.359070 0.573859 0.640259 0.000000 0.000000 0.000000
1.356727 0.561857 0.747403 0.000000 0.000000 0.000000
1.418575 0.534169 0.650683 0.000000 0.000000 0.000000
1.142133 0.829935 0.658874 0.000000 0.000000 0.000000
1.289997 0.608129 0.834286 0.000000 0.000000 0.000000
1.131643 0.863401 0.725139 0.000000 0.000000 0.000000
1.377147 0.560311 0.603087 0.000000 0.000000 0.000000
1.397743 0.548939 0.645191 0.000000 0.000000 0.000000
1.097855 0.882360 0.783831 0.000000 0.000000 0.000000
1.124177 0.837373 0.871334 0.000000 0.000000 0.000000
1.389685 0.545680 0.643129 0.000000 0.000000 0.000000
1.064240 0.881681 0.890919 0.000000 0.000000 0.000000
1.376970 0.557951 0.654982 0.000000 0.000000 0.000000
1.127530 0.884396 0.751603 0.000000 0.000000 0.000000
1.332728 0.561462 0.761036 0.000000 0.000000 0.000000
1.262300 0.637788 0.838091 0.000000 0.000000 0.000000
1.231474 0.704328 0.604709 0.000000 0.000000 0.000000
1.185513 0.785176 0.619178 0.000000 0.000000 0.000000
1.081837 0.877689 0.895361 0.000000 0.000000 0.000000
1.369271 0.592677 0.613329 0.000000 0.000000 0.000000
1.377703 0.530681 0.696085 0.000000 0.000000 0.000000
1.277037 0.626082 0.815914 0.000000 0.000000 0.000000
1.071018 0.887099 0.869090 0.000000 0.000000 0.000000
1.279678 0.627630 0.830834 0.000000 0.000000 0.000000
1.245891 0.685368 0.599757 0.000000 0.000000 0.000000
1.399316 0.545172 0.636098 0.000000 0.000000 0.000000
1.354296 0.571439 0.766554 0.000000 0.000000 0.000000
1.355684 0.602915 0.583657 0.000000 0.000000 0.000000
1.386273 0.526656 0.679822 0.000000 0.000000 0.000000
1.072182 0.893698 0.844419 0.000000 0.000000 0.000000
1.131312 0.838658 0.866494 0.000000 0.000000 0.000000
1.081598 0.895182 0.810441 0.000000 0.000000 0.000000
1.391912 0.545093 0.623564 0.000000 0.000000 0.000000
1.258031 0.720411 0.551543 0.000000 0.000000 0.000000
1.120034 0.872832 0.788625 0.000000 0.000000 0.000000
1.180416 0.791190 0.600021 0.000000 0.000000 0.000000
1.391245 0.549141 0.653175 0.000000 0.000000 0.000000
1.398634 0.543086 0.654789 0.000000 0.000000 0.000000
1.332241 0.562465 0.770531 0.000000 0.000000 0.000000
1.267028 0.640485 0.826143 0.000000 0.000000 0.000000
1.259776 0.713863 0.526748 0.000000 0.000000 0.000000
1.249252 0.720586 0.550065 0.000000 0.000000 0.000000
1.356048 0.580385 0.597498 0.000000 0.000000 0.000000
1.268960 0.642420 0.839981 0.000000 0.000000 0.000000
1.060447 0.892129 0.862108 0.000000 0.000000 0.000000
1.127796 0.862357 0.711637 0.000000 0.000000 0.000000
1.259050 0.665343 0.852199 0.000000 0.000000 0.000000
1.263073 0.621616 0.846523 0.000000 0.000000 0.000000
1.391968 0.550690 0.640682 0.000000 0.000000 0.000000
1.374218 0.558873 0.628066 0.000000 0.000000 0.000000
1.143856 0.833465 0.680824 0.000000 0.000000 0.000000
1.148765 0.829055 0.653487 0.000000 0.000000 0.000000
1.133739 0.860796 0.711182 0.000000 0.000000 0.000000
1.128032 0.885081 0.757044 0.000000 0.000000 0.000000
1.236674 0.740799 0.552789 0.000000 0.000000 0.000000
1.128115 0.841525 0.863013 0.000000 0.000000 0.000000
1.405566 0.538113 0.697237 0.000000 0.000000 0.000000
1.218845 0.772120 0.551034 0.000000 0.000000 0.000000
1.376013 0.557985 0.613225 0.000000 0.000000 0.000000
1.369401 0.553645 0.685011 0.000000 0.000000 0.000000
1.208821 0.778111 0.577558 0.000000 0.000000 0.000000
1.140809 0.842297 0.687528 0.000000 0.000000 0.000000
1.103618 0.892722 0.771038 0.000000 0.000000 0.000000
1.233329 0.751912 0.551105 0.000000 0.000000 0.000000
1.386767 0.541649 0.674713 0.000000 0.000000 0.000000
1.164429 0.798049 0.607717 0.000000 0.000000 0.000000
1.127292 0.863242 0.705206 0.000000 0.000000 0.000000
1.032770 0.898370 0.912083 0.000000 0.000000 0.000000
1.230473 0.705715 0.618820 0.000000 0.000000 0.000000
1.119154 0.865410 0.826527 0.000000 0.000000 0.000000
1.143124 0.849239 0.753319 0.000000 0.000000 0.000000
1.245280 0.734646 0.552844 0.000000 0.000000 0.000000
1.130353 0.865619 0.730045 0.000000 0.000000 0.000000
1.129203 0.867723 0.729693 0.000000 0.000000 0.000000
1.362754 0.545755 0.714222 0.000000 0.000000 0.000000
1.138286 0.857157 0.690474 0.000000 0.000000 0.000000
1.200280 0.778818 0.572720 0.000000 0.000000 0.000000
1.125167 0.864947 0.709905 0.000000 0.000000 0.000000
1.318473 0.571141 0.785118 0.000000 0.000000 0.000000
1.375656 0.541905 0.691257 0.000000 0.000000 0.000000
1.169465 0.787643 0.615532 0.000000 0.000000 0.000000
1.134982 0.847687 0.693952 0.000000 0.000000 0.000000
1.047915 0.891019 0.896928 0.000000 0.000000 0.000000
1.254667 0.664938 0.623390 0.000000 0.000000 0.000000
1.152741 0.832359 0.728867 0.000000 0.000000 0.000000
1.407487 0.538264 0.633961 0.000000 0.000000 0.000000
1.102815 0.864447 0.881150 0.000000 0.000000 0.000000
1.124841 0.870273 0.720465 0.000000 0.000000 0.000000
1.365037 0.546253 0.719280 0.000000 0.000000 0.000000
1.146241 0.830923 0.660843 0.000000 0.000000 0.000000
1.199174 0.793198 0.571191 0.000000 0.000000 0.000000
1.158450 0.822174 0.646956 0.000000 0.000000 0.000000
1.131163 0.868327 0.731154 0.000000 0.000000 0.000000
1.308186 0.663295 0.541430 0.000000 0.000000 0.000000
1.139161 0.859320 0.724652 0.000000 0.000000 0.000000
1.131763 0.860524 0.701350 0.000000 0.000000 0.000000
1.129485 0.862573 0.715872 0.000000 0.000000 0.000000
1.146051 0.828353 0.877090 0.000000 0.000000 0.000000
1.099416 0.881662 0.814611 0.000000 0.000000 0.000000
1.143350 0.832922 0.867538 0.000000 0.000000 0.000000
1.243803 0.749609 0.529804 0.000000 0.000000 0.000000
1.247210 0.714295 0.529802 0.000000 0.000000 0.000000
1.103591 0.882729 0.803509 0.000000 0.000000 0.000000
1.110362 0.879142 0.801719 0.000000 0.000000 0.000000
1.263669 0.656824 0.847739 0.000000 0.000000 0.000000
1.206483 0.789738 0.577527 0.000000 0.000000 0.000000
1.278093 0.627037 0.826419 0.000000 0.000000 0.000000
1.265006 0.644651 0.839307 0.000000 0.000000 0.000000
1.344926 0.602899 0.597560 0.000000 0.000000 0.000000
1.259913 0.662323 0.861804 0.000000 0.000000 0.000000
1.368421 0.571739 0.609849 0.000000 0.000000 0.000000
1.386466 0.560031 0.606991 0.000000 0.000000 0.000000
1.306027 0.654601 0.535434 0.000000 0.000000 0.000000
1.262713 0.653764 0.831544 0.000000 0.000000 0.000000
1.253165 0.673142 0.835099 0.000000 0.000000 0.000000
1.203385 0.776461 0.567928 0.000000 0.000000 0.000000
1.136614 0.859828 0.792073 0.000000 0.000000 0.000000
1.157921 0.818026 0.878638 0.000000 0.000000 0.000000
1.156151 0.822919 0.863951 0.000000 0.000000 0.000000
1.180083 0.803105 0.889777 0.000000 0.000000 0.000000
1.207493 0.765685 0.574292 0.000000 0.000000 0.000000
1.087571 0.883620 0.844838 0.000000 0.000000 0.000000
1.253915 0.655025 0.840959 0.000000 0.000000 0.000000
1.128590 0.835748 0.871421 0.000000 0.000000 0.000000
1.266996 0.634568 0.842125 0.000000 0.000000 0.000000
1.370690 0.557212 0.664308 0.000000 0.000000 0.000000
1.262918 0.658913 0.864909 0.000000 0.000000 0.000000
1.260569 0.645456 0.858443 0.000000 0.000000 0.000000
1.393853 0.548116 0.620792 0.000000 0.000000 0.000000
1.367101 0.541026 0.710530 0.000000 0.000000 0.000000
1.135761 0.840833 0.696874 0.000000 0.000000 0.000000
1.154480 0.826969 0.656384 0.000000 0.000000 0.000000
1.223267 0.761336 0.551613 0.000000 0.000000 0.000000
1.142205 0.845858 0.727693 0.000000 0.000000 0.000000
1.093614 0.873334 0.870155 0.000000 0.000000 0.000000
1.122574 0.886132 0.759252 0.000000 0.000000 0.000000
1.382854 0.551887 0.663348 0.000000 0.000000 0.000000
1.159524 0.817931 0.687077 0.000000 0.000000 0.000000
1.347587 0.572225 0.677870 0.000000 0.000000 0.000000
1.074939 0.881442 0.885856 0.000000 0.000000 0.000000
1.380771 0.549666 0.658377 0.000000 0.000000 0.000000
1.073079 0.882937 0.877507 0.000000 0.000000 0.000000
1.143125 0.825067 0.679905 0.000000 0.000000 0.000000
1.337290 0.615190 0.577093 0.000000 0.000000 0.000000
1.142081 0.851181 0.679335 0.000000 0.000000 0.000000
1.226137 0.761422 0.547568 0.000000 0.000000 0.000000
1.154135 0.826883 0.644419 0.000000 0.000000 0.000000
1.083155 0.877169 0.890292 0.000000 0.000000 0.000000
1.080911 0.892798 0.847402 0.000000 0.000000 0.000000
1.384050 0.548785 0.657911 0.000000 0.000000 0.000000
1.083712 0.876491 0.898048 0.000000 0.000000 0.000000
1.176968 0.797849 0.869081 0.000000 0.000000 0.000000
1.152060 0.820533 0.675024 0.000000 0.000000 0.000000
1.094741 0.864096 0.892363 0.000000 0.000000 0.000000
1.149817 0.818395 0.694669 0.000000 0.000000 0.000000
1.380756 0.544696 0.666444 0.000000 0.000000 0.000000
1.150271 0.820397 0.666924 0.000000 0.000000 0.000000
1.338426 0.599000 0.594777 0.000000 0.000000 0.000000
1.119139 0.865361 0.719929 0.000000 0.000000 0.000000
1.147112 0.827891 0.866579 0.000000 0.000000 0.000000
1.291696 0.676164 0.534111 0.000000 0.000000 0.000000
1.124693 0.875795 0.751996 0.000000 0.000000 0.000000
1.399345 0.544344 0.649182 0.000000 0.000000 0.000000
1.230762 0.710918 0.852800 0.000000 0.000000 0.000000
1.125052 0.862304 0.722602 0.000000 0.000000 0.000000
1.144518 0.848929 0.673175 0.000000 0.000000 0.000000
1.152257 0.827638 0.650194 0.000000 0.000000 0.000000
1.214997 0.729482 0.835974 0.000000 0.000000 0.000000
1.232747 0.702203 0.836835 0.000000 0.000000 0.000000
1.105585 0.880830 0.782910 0.000000 0.000000 0.000000
1.226307 0.712181 0.867381 0.000000 0.000000 0.000000
1.109485 0.879967 0.793983 0.000000 0.000000 0.000000
1.360202 0.541968 0.729798 0.000000 0.000000 0.000000
1.143201 0.835792 0.668459 0.000000 0.000000 0.000000
1.199515 0.763492 0.825443 0.000000 0.000000 0.000000
1.360246 0.574363 0.589876 0.000000 0.000000 0.000000
1.216999 0.723827 0.858256 0.000000 0.000000 0.000000
1.173927 0.784281 0.611639 0.000000 0.000000 0.000000
1.179969 0.760820 0.696934 0.000000 0.000000 0.000000
1.171852 0.792172 0.626968 0.000000 0.000000 0.000000
1.391657 0.548546 0.633109 0.000000 0.000000 0.000000
1.221874 0.768128 0.541857 0.000000 0.000000 0.000000
1.229017 0.707776 0.814772 0.000000 0.000000 0.000000
1.293390 0.611659 0.832914 0.000000 0.000000 0.000000
1.185221 0.799347 0.598651 0.000000 0.000000 0.000000
1.108273 0.876066 0.788121 0.000000 0.000000 0.000000
1.151965 0.829818 0.674606 0.000000 0.000000 0.000000
1.174106 0.799537 0.851405 0.000000 0.000000 0.000000
1.219373 0.721285 0.849814 0.000000 0.000000 0.000000
1.391122 0.546019 0.630651 0.000000 0.000000 0.000000
1.227945 0.764649 0.538401 0.000000 0.000000 0.000000
1.246899 0.679754 0.849525 0.000000 0.000000 0.000000
1.134365 0.845271 0.702357 0.000000 0.000000 0.000000
1.149140 0.813408 0.627555 0.000000 0.000000 0.000000
1.123957 0.882691 0.753963 0.000000 0.000000 0.000000
1.142043 0.858891 0.686073 0.000000 0.000000 0.000000
1.229827 0.750138 0.542659 0.000000 0.000000 0.000000
1.140412 0.853363 0.704768 0.000000 0.000000 0.000000
1.412490 0.526083 0.650691 0.000000 0.000000 0.000000
1.095819 0.880330 0.814658 0.000000 0.000000 0.000000
1.269070 0.637763 0.802503 0.000000 0.000000 0.000000
1.124757 0.887342 0.755063 0.000000 0.000000 0.000000
1.219721 0.743186 0.859863 0.000000 0.000000 0.000000
1.236870 0.754686 0.536826 0.000000 0.000000 0.000000
1.330490 0.611574 0.568990 0.000000 0.000000 0.000000
1.152006 0.828937 0.650148 0.000000 0.000000 0.000000
1.221644 0.758253 0.562728 0.000000 0.000000 0.000000
1.277627 0.620028 0.849994 0.000000 0.000000 0.000000
1.076214 0.891410 0.830346 0.000000 0.000000 0.000000
1.081749 0.885718 0.849017 0.000000 0.000000 0.000000
1.267444 0.636004 0.848957 0.000000 0.000000 0.000000
1.171101 0.807739 0.883601 0.000000 0.000000 0.000000
1.127635 0.869915 0.742463 0.000000 0.000000 0.000000
1.339050 0.604902 0.564106 0.000000 0.000000 0.000000
1.270959 0.691982 0.520976 0.000000 0.000000 0.000000
1.223225 0.753800 0.541048 0.000000 0.000000 0.000000
1.145674 0.839977 0.665680 0.000000 0.000000 0.000000
1.219509 0.769211 0.549054 0.000000 0.000000 0.000000
1.297269 0.606782 0.838849 0.000000 0.000000 0.000000
1.071495 0.885863 0.824427 0.000000 0.000000 0.000000
1.138792 0.831229 0.673586 0.000000 0.000000 0.000000
1.194573 0.756962 0.867595 0.000000 0.000000 0.000000
1.267872 0.649452 0.852829 0.000000 0.000000 0.000000
1.404807 0.543670 0.633425 0.000000 0.000000 0.000000
1.295248 0.601507 0.819057 0.000000 0.000000 0.000000
1.212283 0.748528 0.865381 0.000000 0.000000 0.000000
1.213632 0.747765 0.861775 0.000000 0.000000 0.000000
1.352345 0.580490 0.653421 0.000000 0.000000 0.000000
1.343873 0.575648 0.647481 0.000000 0.000000 0.000000
1.320368 0.610328 0.638378 0.000000 0.000000 0.000000
1.333816 0.606143 0.575117 0.000000 0.000000 0.000000
1.209628 0.750774 0.855509 0.000000 0.000000 0.000000
1.367638 0.573799 0.662535 0.000000 0.000000 0.000000
1.193590 0.758457 0.855822 0.000000 0.000000 0.000000
1.324399 0.596768 0.660600 0.000000 0.000000 0.000000
1.336795 0.582713 0.653083 0.000000 0.000000 0.000000
1.324007 0.593594 0.652720 0.000000 0.000000 0.000000
1.226319 0.723797 0.831611 0.000000 0.000000 0.000000
1.331659 0.587703 0.624604 0.000000 0.000000 0.000000
1.203411 0.756728 0.850970 0.000000 0.000000 0.000000
1.368525 0.604477 0.614098 0.000000 0.000000 0.000000
1.400925 0.546090 0.620409 0.000000 0.000000 0.000000
1.139708 0.819420 0.625646 0.000000 0.000000 0.000000
1.118924 0.876540 0.762249 0.000000 0.000000 0.000000
1.125218 0.870593 0.719346 0.000000 0.000000 0.000000
1.238200 0.743403 0.537351 0.000000 0.000000 0.000000
1.420300 0.549926 0.642370 0.000000 0.000000 0.000000
1.265322 0.715562 0.521680 0.000000 0.000000 0.000000
1.259051 0.705959 0.559156 0.000000 0.000000 0.000000
1.069444 0.886251 0.873753 0.000000 0.000000 0.000000
1.368650 0.565728 0.619631 0.000000 0.000000 0.000000
1.109362 0.877789 0.801863 0.000000 0.000000 0.000000
1.036561 0.900370 0.892870 0.000000 0.000000 0.000000
1.158181 0.800605 0.616856 0.000000 0.000000 0.000000
1.235835 0.752265 0.543522 0.000000 0.000000 0.000000
1.304285 0.655734 0.560792 0.000000 0.000000 0.000000
1.256648 0.729554 0.534687 0.000000 0.000000 0.000000
1.307455 0.602684 0.666227 0.000000 0.000000 0.000000
1.384487 0.552486 0.614161 0.000000 0.000000 0.000000
1.155104 0.802033 0.618260 0.000000 0.000000 0.000000
1.158616 0.798775 0.611808 0.000000 0.000000 0.000000
1.171563 0.797387 0.619029 0.000000 0.000000 0.000000
1.161041 0.802334 0.637546 0.000000 0.000000 0.000000
1.313120 0.642610 0.545285 0.000000 0.000000 0.000000
1.173229 0.815110 0.828960 0.000000 0.000000 0.000000
1.166985 0.801609 0.626877 0.000000 0.000000 0.000000
1.161951 0.806078 0.632071 0.000000 0.000000 0.000000
1.156264 0.804859 0.625481 0.000000 0.000000 0.000000
1.286568 0.648124 0.594774 0.000000 0.000000 0.000000
1.164402 0.798676 0.664000 0.000000 0.000000 0.000000
1.172450 0.792103 0.624474 0.000000 0.000000 0.000000
1.155771 0.817879 0.646437 0.000000 0.000000 0.000000
1.192869 0.765849 0.850094 0.000000 0.000000 0.000000
1.165916 0.794245 0.640561 0.000000 0.000000 0.000000
1.154768 0.818586 0.636696 0.000000 0.000000 0.000000
1.322067 0.558660 0.770162 0.000000 0.000000 0.000000
1.154168 0.807064 0.625608 0.000000 0.000000 0.000000
1.151983 0.818022 0.638239 0.000000 0.000000 0.000000
1.395292 0.537871 0.657054 0.000000 0.000000 0.000000
1.164718 0.792983 0.611947 0.000000 0.000000 0.000000
1.201031 0.750914 0.866573 0.000000 0.000000 0.000000
1.236054 0.727803 0.527677 0.000000 0.000000 0.000000
1.212648 0.776130 0.549244 0.000000 0.000000 0.000000
1.268005 0.648938 0.847463 0.000000 0.000000 0.000000
1.091844 0.870829 0.885776 0.000000 0.000000 0.000000
1.157533 0.818729 0.651219 0.000000 0.000000 0.000000
1.226846 0.751982 0.562745 0.000000 0.000000 0.000000
1.149601 0.826751 0.664921 0.000000 0.000000 0.000000
1.123544 0.869735 0.717984 0.000000 0.000000 0.000000
1.142915 0.853866 0.686416 0.000000 0.000000 0.000000
1.232256 0.746380 0.530878 0.000000 0.000000 0.000000
1.143183 0.820602 0.628228 0.000000 0.000000 0.000000
1.245915 0.719166 0.531207 0.000000 0.000000 0.000000
1.360409 0.578922 0.643304 0.000000 0.000000 0.000000
1.162416 0.802258 0.652881 0.000000 0.000000 0.000000
1.248448 0.669610 0.833504 0.000000 0.000000 0.000000
1.353101 0.603978 0.616687 0.000000 0.000000 0.000000
