ply
format ascii 1.0
comment VCGLIB generated
obj_info Generated by SPFormer!
element vertex 857
property float x
property float y
property float z
property float nx
property float ny
property float nz
end_header
-0.197282 -0.162814 0.343689 0.000000 0.000000 0.000000
-0.227471 -0.158831 0.396560 0.000000 0.000000 0.000000
-0.096183 -0.123139 0.220444 0.000000 0.000000 0.000000
-0.162477 -0.182509 0.414807 0.000000 0.000000 0.000000
-0.256026 0.074566 0.216089 0.000000 0.000000 0.000000
-0.122401 -0.189981 0.326754 0.000000 0.000000 0.000000
-0.466414 -0.102928 0.709415 0.000000 0.000000 0.000000
-0.128485 -0.015061 0.129909 0.000000 0.000000 0.000000
-0.215376 -0.062868 0.248049 0.000000 0.000000 0.000000
-0.199871 -0.178414 0.377928 0.000000 0.000000 0.000000
-0.163743 -0.190038 0.403390 0.000000 0.000000 0.000000
-0.338591 -0.190643 0.534614 0.000000 0.000000 0.000000
-0.147521 0.076599 0.143195 0.000000 0.000000 0.000000
-0.351064 -0.174203 0.560497 0.000000 0.000000 0.000000
-0.099811 -0.096678 0.179923 0.000000 0.000000 0.000000
-0.315335 0.222356 0.137426 0.000000 0.000000 0.000000
-0.136279 0.006907 0.120071 0.000000 0.000000 0.000000
-0.142746 -0.080568 0.145836 0.000000 0.000000 0.000000
-0.135527 -0.074043 0.138924 0.000000 0.000000 0.000000
-0.295783 -0.205794 0.440326 0.000000 0.000000 0.000000
-0.272941 -0.206346 0.445155 0.000000 0.000000 0.000000
-0.156365 0.093850 0.116647 0.000000 0.000000 0.000000
-0.155577 -0.002497 0.174330 0.000000 0.000000 0.000000
-0.221036 0.085655 0.187231 0.000000 0.000000 0.000000
-0.153014 0.072294 0.126492 0.000000 0.000000 0.000000
-0.144934 0.005539 0.153535 0.000000 0.000000 0.000000
-0.321922 -0.176411 0.455477 0.000000 0.000000 0.000000
-0.341032 -0.184925 0.538898 0.000000 0.000000 0.000000
-0.206236 -0.163242 0.353600 0.000000 0.000000 0.000000
-0.262813 0.214859 0.135210 0.000000 0.000000 0.000000
-0.221619 0.204434 0.126922 0.000000 0.000000 0.000000
-0.181371 -0.069568 0.177993 0.000000 0.000000 0.000000
-0.315560 0.221554 0.146189 0.000000 0.000000 0.000000
-0.101323 -0.120093 0.190162 0.000000 0.000000 0.000000
-0.336277 -0.198143 0.466772 0.000000 0.000000 0.000000
-0.156970 0.086103 0.118387 0.000000 0.000000 0.000000
-0.152524 0.098075 0.115194 0.000000 0.000000 0.000000
-0.168025 0.139461 0.129140 0.000000 0.000000 0.000000
-0.166543 -0.092798 0.156182 0.000000 0.000000 0.000000
-0.168377 -0.111572 0.180398 0.000000 0.000000 0.000000
-0.233932 0.040588 0.214233 0.000000 0.000000 0.000000
-0.256999 0.053694 0.231504 0.000000 0.000000 0.000000
-0.103582 -0.101126 0.174465 0.000000 0.000000 0.000000
-0.409751 -0.021969 0.627034 0.000000 0.000000 0.000000
-0.185853 0.192435 0.124394 0.000000 0.000000 0.000000
-0.159891 -0.089481 0.163605 0.000000 0.000000 0.000000
-0.342687 -0.185356 0.536652 0.000000 0.000000 0.000000
-0.215424 0.030957 0.188058 0.000000 0.000000 0.000000
-0.168879 -0.188104 0.407505 0.000000 0.000000 0.000000
-0.262908 0.181800 0.169419 0.000000 0.000000 0.000000
-0.471355 0.071067 0.414614 0.000000 0.000000 0.000000
-0.291469 -0.064261 0.331989 0.000000 0.000000 0.000000
-0.144593 0.018455 0.126058 0.000000 0.000000 0.000000
-0.138427 -0.085107 0.161699 0.000000 0.000000 0.000000
-0.134718 -0.082095 0.139103 0.000000 0.000000 0.000000
-0.358966 -0.195486 0.446671 0.000000 0.000000 0.000000
-0.299153 -0.205735 0.449280 0.000000 0.000000 0.000000
-0.266547 -0.212727 0.452773 0.000000 0.000000 0.000000
-0.152108 0.085022 0.114804 0.000000 0.000000 0.000000
-0.158286 -0.008052 0.169382 0.000000 0.000000 0.000000
-0.192936 0.109306 0.162824 0.000000 0.000000 0.000000
-0.162645 0.085960 0.129457 0.000000 0.000000 0.000000
-0.335438 -0.164690 0.439104 0.000000 0.000000 0.000000
-0.339159 -0.190717 0.530610 0.000000 0.000000 0.000000
-0.194905 -0.152838 0.310832 0.000000 0.000000 0.000000
-0.253201 0.211437 0.132911 0.000000 0.000000 0.000000
-0.175344 -0.066259 0.162712 0.000000 0.000000 0.000000
-0.288163 0.216139 0.139286 0.000000 0.000000 0.000000
-0.094990 -0.111568 0.188228 0.000000 0.000000 0.000000
-0.093552 -0.129749 0.209805 0.000000 0.000000 0.000000
-0.152821 0.103570 0.121240 0.000000 0.000000 0.000000
-0.151006 0.089798 0.115201 0.000000 0.000000 0.000000
-0.158824 0.112048 0.121823 0.000000 0.000000 0.000000
-0.164661 -0.107656 0.180726 0.000000 0.000000 0.000000
-0.161764 -0.123915 0.196577 0.000000 0.000000 0.000000
-0.231921 0.047429 0.212822 0.000000 0.000000 0.000000
-0.450480 0.038733 0.492395 0.000000 0.000000 0.000000
-0.273633 0.216574 0.144794 0.000000 0.000000 0.000000
-0.275831 0.030345 0.256135 0.000000 0.000000 0.000000
-0.386603 -0.101576 0.499642 0.000000 0.000000 0.000000
-0.295028 0.214808 0.136757 0.000000 0.000000 0.000000
-0.411566 -0.020268 0.634805 0.000000 0.000000 0.000000
-0.155701 -0.096669 0.162192 0.000000 0.000000 0.000000
-0.207243 -0.198505 0.457202 0.000000 0.000000 0.000000
-0.341103 -0.189455 0.538288 0.000000 0.000000 0.000000
-0.188004 0.037054 0.169274 0.000000 0.000000 0.000000
-0.160942 -0.196852 0.396314 0.000000 0.000000 0.000000
-0.219181 0.171800 0.151281 0.000000 0.000000 0.000000
-0.463358 0.081486 0.406182 0.000000 0.000000 0.000000
-0.280772 0.216765 0.131025 0.000000 0.000000 0.000000
-0.227963 0.183249 0.129429 0.000000 0.000000 0.000000
-0.337145 -0.190838 0.518621 0.000000 0.000000 0.000000
-0.374809 -0.130876 0.547187 0.000000 0.000000 0.000000
-0.367058 -0.156165 0.563898 0.000000 0.000000 0.000000
-0.365174 -0.145706 0.542924 0.000000 0.000000 0.000000
-0.105447 -0.137592 0.230503 0.000000 0.000000 0.000000
-0.242723 0.102267 0.188214 0.000000 0.000000 0.000000
-0.408498 -0.162156 0.621615 0.000000 0.000000 0.000000
-0.257889 0.043362 0.227963 0.000000 0.000000 0.000000
-0.466546 -0.073861 0.652707 0.000000 0.000000 0.000000
-0.473123 -0.091737 0.696791 0.000000 0.000000 0.000000
-0.471748 -0.103230 0.697821 0.000000 0.000000 0.000000
-0.116796 -0.131011 0.188993 0.000000 0.000000 0.000000
-0.413393 -0.020378 0.596010 0.000000 0.000000 0.000000
-0.369373 -0.113900 0.570108 0.000000 0.000000 0.000000
-0.173744 -0.145525 0.260243 0.000000 0.000000 0.000000
-0.149497 -0.138926 0.206128 0.000000 0.000000 0.000000
-0.342081 -0.185691 0.549527 0.000000 0.000000 0.000000
-0.345776 -0.176248 0.552769 0.000000 0.000000 0.000000
-0.161125 0.120748 0.117904 0.000000 0.000000 0.000000
-0.247687 0.061419 0.219293 0.000000 0.000000 0.000000
-0.287956 -0.186150 0.454664 0.000000 0.000000 0.000000
-0.095708 -0.093523 0.200637 0.000000 0.000000 0.000000
-0.147784 0.046572 0.146520 0.000000 0.000000 0.000000
-0.371115 -0.150703 0.555301 0.000000 0.000000 0.000000
-0.366129 -0.158232 0.559938 0.000000 0.000000 0.000000
-0.352905 -0.165727 0.531309 0.000000 0.000000 0.000000
-0.105884 -0.131402 0.237687 0.000000 0.000000 0.000000
-0.228317 0.112069 0.168624 0.000000 0.000000 0.000000
-0.405023 -0.154203 0.612142 0.000000 0.000000 0.000000
-0.176672 -0.000590 0.151766 0.000000 0.000000 0.000000
-0.119421 -0.140015 0.217025 0.000000 0.000000 0.000000
-0.180762 0.172928 0.132553 0.000000 0.000000 0.000000
-0.474838 -0.090452 0.689619 0.000000 0.000000 0.000000
-0.472740 -0.095478 0.688317 0.000000 0.000000 0.000000
-0.376532 -0.098201 0.585942 0.000000 0.000000 0.000000
-0.175044 -0.144638 0.251579 0.000000 0.000000 0.000000
-0.157793 -0.125311 0.191547 0.000000 0.000000 0.000000
-0.347469 -0.176667 0.557820 0.000000 0.000000 0.000000
-0.368154 -0.116768 0.589635 0.000000 0.000000 0.000000
-0.361046 -0.162908 0.578325 0.000000 0.000000 0.000000
-0.440346 -0.112473 0.668795 0.000000 0.000000 0.000000
-0.288987 -0.067466 0.330455 0.000000 0.000000 0.000000
-0.159352 0.135444 0.117082 0.000000 0.000000 0.000000
-0.242475 -0.180649 0.439953 0.000000 0.000000 0.000000
-0.386635 -0.167101 0.607024 0.000000 0.000000 0.000000
-0.096296 -0.097657 0.206210 0.000000 0.000000 0.000000
-0.106354 -0.101835 0.203624 0.000000 0.000000 0.000000
-0.154777 0.034082 0.152417 0.000000 0.000000 0.000000
-0.114354 -0.081624 0.190140 0.000000 0.000000 0.000000
-0.417505 -0.022421 0.601516 0.000000 0.000000 0.000000
-0.342615 -0.187879 0.530177 0.000000 0.000000 0.000000
-0.145228 0.094837 0.123061 0.000000 0.000000 0.000000
-0.415430 -0.145475 0.632886 0.000000 0.000000 0.000000
-0.393072 -0.163074 0.611977 0.000000 0.000000 0.000000
-0.335369 -0.198733 0.515148 0.000000 0.000000 0.000000
-0.132358 -0.158866 0.324714 0.000000 0.000000 0.000000
-0.216592 0.058044 0.194911 0.000000 0.000000 0.000000
-0.388016 -0.147680 0.613294 0.000000 0.000000 0.000000
-0.402747 0.001636 0.541692 0.000000 0.000000 0.000000
-0.169100 -0.141951 0.247906 0.000000 0.000000 0.000000
-0.141318 -0.095550 0.258748 0.000000 0.000000 0.000000
-0.110786 -0.043117 0.146137 0.000000 0.000000 0.000000
-0.150964 0.012441 0.156047 0.000000 0.000000 0.000000
-0.380083 -0.162573 0.602895 0.000000 0.000000 0.000000
-0.280534 -0.164026 0.427196 0.000000 0.000000 0.000000
-0.361377 -0.166944 0.588157 0.000000 0.000000 0.000000
-0.398768 0.009141 0.561752 0.000000 0.000000 0.000000
-0.387122 -0.160900 0.607491 0.000000 0.000000 0.000000
-0.095797 -0.041494 0.140536 0.000000 0.000000 0.000000
-0.378242 -0.110033 0.576400 0.000000 0.000000 0.000000
-0.178289 -0.135833 0.256055 0.000000 0.000000 0.000000
-0.107007 -0.143063 0.293536 0.000000 0.000000 0.000000
-0.225603 0.083676 0.190124 0.000000 0.000000 0.000000
-0.378639 -0.167928 0.594515 0.000000 0.000000 0.000000
-0.458670 0.043605 0.500926 0.000000 0.000000 0.000000
-0.219779 0.100187 0.183629 0.000000 0.000000 0.000000
-0.130364 -0.145063 0.310645 0.000000 0.000000 0.000000
-0.254486 0.013722 0.237003 0.000000 0.000000 0.000000
-0.387435 -0.139969 0.605874 0.000000 0.000000 0.000000
-0.403596 0.009572 0.546199 0.000000 0.000000 0.000000
-0.121654 -0.100829 0.279396 0.000000 0.000000 0.000000
-0.102193 -0.050751 0.149992 0.000000 0.000000 0.000000
-0.129536 -0.065973 0.135321 0.000000 0.000000 0.000000
-0.378239 -0.154578 0.601531 0.000000 0.000000 0.000000
-0.265951 -0.165952 0.432207 0.000000 0.000000 0.000000
-0.354486 -0.172078 0.584251 0.000000 0.000000 0.000000
-0.396791 -0.077581 0.610149 0.000000 0.000000 0.000000
-0.400869 -0.158087 0.602976 0.000000 0.000000 0.000000
-0.093539 -0.041226 0.148138 0.000000 0.000000 0.000000
-0.170859 -0.124028 0.238510 0.000000 0.000000 0.000000
-0.384203 -0.164145 0.604464 0.000000 0.000000 0.000000
-0.448782 0.035022 0.504247 0.000000 0.000000 0.000000
-0.237967 0.083170 0.203267 0.000000 0.000000 0.000000
-0.448392 -0.115985 0.683206 0.000000 0.000000 0.000000
-0.403887 -0.162150 0.622711 0.000000 0.000000 0.000000
-0.407422 -0.039993 0.647350 0.000000 0.000000 0.000000
-0.402872 -0.142345 0.621494 0.000000 0.000000 0.000000
-0.421093 -0.143313 0.632348 0.000000 0.000000 0.000000
-0.137774 0.090753 0.123439 0.000000 0.000000 0.000000
-0.441772 -0.026400 0.625228 0.000000 0.000000 0.000000
-0.411503 -0.014661 0.625931 0.000000 0.000000 0.000000
-0.411921 -0.028243 0.604285 0.000000 0.000000 0.000000
-0.378103 -0.147113 0.596655 0.000000 0.000000 0.000000
-0.409972 -0.158060 0.624308 0.000000 0.000000 0.000000
-0.404060 -0.156175 0.622461 0.000000 0.000000 0.000000
-0.402603 -0.161420 0.620258 0.000000 0.000000 0.000000
-0.122275 -0.102384 0.167157 0.000000 0.000000 0.000000
-0.131861 0.096817 0.133353 0.000000 0.000000 0.000000
-0.167337 0.111537 0.164024 0.000000 0.000000 0.000000
-0.359855 -0.124769 0.563862 0.000000 0.000000 0.000000
-0.400528 -0.031622 0.642712 0.000000 0.000000 0.000000
-0.397048 -0.160449 0.617364 0.000000 0.000000 0.000000
-0.158754 -0.100338 0.161006 0.000000 0.000000 0.000000
-0.145662 -0.088958 0.144474 0.000000 0.000000 0.000000
-0.149673 -0.132955 0.203450 0.000000 0.000000 0.000000
-0.144764 -0.020519 0.183569 0.000000 0.000000 0.000000
-0.417071 -0.159297 0.628361 0.000000 0.000000 0.000000
-0.418866 -0.156330 0.632979 0.000000 0.000000 0.000000
-0.439890 0.029790 0.519381 0.000000 0.000000 0.000000
-0.262249 -0.188364 0.447246 0.000000 0.000000 0.000000
-0.413625 -0.024967 0.633013 0.000000 0.000000 0.000000
-0.181331 -0.201261 0.412260 0.000000 0.000000 0.000000
-0.169527 -0.146985 0.252062 0.000000 0.000000 0.000000
-0.429785 -0.155873 0.639903 0.000000 0.000000 0.000000
-0.410090 -0.150925 0.627252 0.000000 0.000000 0.000000
-0.415097 -0.138021 0.616707 0.000000 0.000000 0.000000
-0.415093 -0.155055 0.630092 0.000000 0.000000 0.000000
-0.196524 -0.112139 0.238224 0.000000 0.000000 0.000000
-0.161870 -0.199591 0.336783 0.000000 0.000000 0.000000
-0.136457 0.103273 0.139704 0.000000 0.000000 0.000000
-0.110300 -0.162588 0.248198 0.000000 0.000000 0.000000
-0.128318 -0.081849 0.144237 0.000000 0.000000 0.000000
-0.357692 -0.120814 0.566948 0.000000 0.000000 0.000000
-0.405367 -0.041672 0.634778 0.000000 0.000000 0.000000
-0.399038 -0.149315 0.619416 0.000000 0.000000 0.000000
-0.160319 -0.104051 0.173476 0.000000 0.000000 0.000000
-0.151777 -0.020043 0.181139 0.000000 0.000000 0.000000
-0.406191 -0.163358 0.623366 0.000000 0.000000 0.000000
-0.409495 -0.155866 0.625183 0.000000 0.000000 0.000000
-0.440253 0.028500 0.511842 0.000000 0.000000 0.000000
-0.130202 -0.021919 0.134043 0.000000 0.000000 0.000000
-0.234212 -0.169423 0.434211 0.000000 0.000000 0.000000
-0.405717 -0.031458 0.645105 0.000000 0.000000 0.000000
-0.180085 -0.200495 0.405525 0.000000 0.000000 0.000000
-0.171700 -0.132535 0.239244 0.000000 0.000000 0.000000
-0.431740 -0.146752 0.648743 0.000000 0.000000 0.000000
-0.130656 0.117210 0.153465 0.000000 0.000000 0.000000
-0.423439 -0.021827 0.600146 0.000000 0.000000 0.000000
-0.418019 -0.026427 0.598423 0.000000 0.000000 0.000000
-0.212005 -0.200024 0.463866 0.000000 0.000000 0.000000
-0.430333 -0.141128 0.656589 0.000000 0.000000 0.000000
-0.353750 -0.171318 0.577911 0.000000 0.000000 0.000000
-0.312989 0.228778 0.131829 0.000000 0.000000 0.000000
-0.138754 0.115621 0.151514 0.000000 0.000000 0.000000
-0.432971 -0.019612 0.616350 0.000000 0.000000 0.000000
-0.427990 -0.149907 0.646876 0.000000 0.000000 0.000000
-0.209738 -0.199608 0.470986 0.000000 0.000000 0.000000
-0.213084 -0.195221 0.457002 0.000000 0.000000 0.000000
-0.404002 0.089102 0.385073 0.000000 0.000000 0.000000
-0.261395 0.215089 0.135844 0.000000 0.000000 0.000000
-0.205969 -0.202764 0.446428 0.000000 0.000000 0.000000
-0.429387 -0.024714 0.602371 0.000000 0.000000 0.000000
-0.370677 0.139324 0.323075 0.000000 0.000000 0.000000
-0.165485 -0.200456 0.371090 0.000000 0.000000 0.000000
-0.162076 -0.199075 0.349693 0.000000 0.000000 0.000000
-0.163556 0.061700 0.125805 0.000000 0.000000 0.000000
-0.425715 -0.140306 0.638771 0.000000 0.000000 0.000000
-0.161129 -0.200905 0.366566 0.000000 0.000000 0.000000
-0.193072 -0.165243 0.321018 0.000000 0.000000 0.000000
-0.204462 -0.192400 0.433139 0.000000 0.000000 0.000000
-0.149659 0.064192 0.118859 0.000000 0.000000 0.000000
-0.167618 -0.195124 0.358103 0.000000 0.000000 0.000000
-0.155774 0.097334 0.122216 0.000000 0.000000 0.000000
-0.201564 -0.197476 0.460787 0.000000 0.000000 0.000000
-0.429170 -0.136044 0.645238 0.000000 0.000000 0.000000
-0.416688 -0.019243 0.595068 0.000000 0.000000 0.000000
-0.361392 -0.164219 0.580946 0.000000 0.000000 0.000000
-0.264165 0.207949 0.139393 0.000000 0.000000 0.000000
-0.433157 -0.135371 0.664073 0.000000 0.000000 0.000000
-0.438736 -0.027497 0.608100 0.000000 0.000000 0.000000
-0.087342 -0.120175 0.199513 0.000000 0.000000 0.000000
-0.196160 -0.187239 0.392089 0.000000 0.000000 0.000000
-0.146669 0.047216 0.115568 0.000000 0.000000 0.000000
-0.197185 -0.206849 0.457631 0.000000 0.000000 0.000000
-0.382417 0.097721 0.392150 0.000000 0.000000 0.000000
-0.208100 -0.197048 0.465433 0.000000 0.000000 0.000000
-0.168099 -0.196205 0.368689 0.000000 0.000000 0.000000
-0.227638 0.192926 0.130535 0.000000 0.000000 0.000000
-0.371685 0.137679 0.323347 0.000000 0.000000 0.000000
-0.162773 -0.199560 0.383427 0.000000 0.000000 0.000000
-0.162337 -0.197913 0.340703 0.000000 0.000000 0.000000
-0.166864 0.049537 0.130187 0.000000 0.000000 0.000000
-0.428241 -0.146439 0.651621 0.000000 0.000000 0.000000
-0.163949 -0.198693 0.388151 0.000000 0.000000 0.000000
-0.185751 -0.173451 0.330188 0.000000 0.000000 0.000000
-0.153154 -0.202568 0.368821 0.000000 0.000000 0.000000
-0.202544 -0.194635 0.443741 0.000000 0.000000 0.000000
-0.145479 0.064139 0.113619 0.000000 0.000000 0.000000
-0.165044 -0.196826 0.361658 0.000000 0.000000 0.000000
-0.202979 -0.203278 0.459693 0.000000 0.000000 0.000000
-0.430250 -0.139923 0.651893 0.000000 0.000000 0.000000
-0.423656 -0.143839 0.638181 0.000000 0.000000 0.000000
-0.306171 0.216682 0.154659 0.000000 0.000000 0.000000
-0.421864 -0.023760 0.590283 0.000000 0.000000 0.000000
-0.416129 -0.015219 0.597590 0.000000 0.000000 0.000000
-0.149991 -0.201971 0.370542 0.000000 0.000000 0.000000
-0.367243 -0.166734 0.590279 0.000000 0.000000 0.000000
-0.450748 -0.040512 0.617252 0.000000 0.000000 0.000000
-0.211869 -0.168214 0.398222 0.000000 0.000000 0.000000
-0.159272 0.064180 0.118213 0.000000 0.000000 0.000000
-0.171919 -0.186574 0.342810 0.000000 0.000000 0.000000
-0.299841 0.211697 0.158122 0.000000 0.000000 0.000000
-0.376265 0.150772 0.290386 0.000000 0.000000 0.000000
-0.190490 -0.209343 0.452472 0.000000 0.000000 0.000000
-0.257937 0.206089 0.142416 0.000000 0.000000 0.000000
-0.166909 -0.181434 0.311941 0.000000 0.000000 0.000000
-0.380949 0.092578 0.388144 0.000000 0.000000 0.000000
-0.205238 -0.197753 0.453125 0.000000 0.000000 0.000000
-0.174201 -0.195043 0.370905 0.000000 0.000000 0.000000
-0.339897 -0.187913 0.538991 0.000000 0.000000 0.000000
-0.136776 -0.066291 0.131957 0.000000 0.000000 0.000000
-0.130166 -0.063566 0.141312 0.000000 0.000000 0.000000
-0.466208 -0.103681 0.706423 0.000000 0.000000 0.000000
-0.123992 -0.154056 0.238206 0.000000 0.000000 0.000000
-0.406359 -0.165086 0.620182 0.000000 0.000000 0.000000
-0.099428 -0.127384 0.199917 0.000000 0.000000 0.000000
-0.447896 0.036505 0.515074 0.000000 0.000000 0.000000
-0.137425 -0.064830 0.127275 0.000000 0.000000 0.000000
-0.115665 -0.152212 0.219085 0.000000 0.000000 0.000000
-0.458503 -0.107377 0.678946 0.000000 0.000000 0.000000
-0.112207 -0.139156 0.201877 0.000000 0.000000 0.000000
-0.127439 -0.131180 0.189092 0.000000 0.000000 0.000000
-0.409643 -0.166511 0.622056 0.000000 0.000000 0.000000
-0.092709 -0.141337 0.222969 0.000000 0.000000 0.000000
-0.133781 -0.022243 0.133737 0.000000 0.000000 0.000000
-0.387453 -0.167485 0.610077 0.000000 0.000000 0.000000
-0.472280 0.045346 0.470723 0.000000 0.000000 0.000000
-0.433860 -0.134695 0.657691 0.000000 0.000000 0.000000
-0.429813 0.000816 0.567558 0.000000 0.000000 0.000000
-0.090764 -0.129452 0.211560 0.000000 0.000000 0.000000
-0.459860 -0.109712 0.695097 0.000000 0.000000 0.000000
-0.133938 0.001925 0.125870 0.000000 0.000000 0.000000
-0.453278 -0.113362 0.691105 0.000000 0.000000 0.000000
-0.115223 -0.142052 0.202513 0.000000 0.000000 0.000000
-0.095473 -0.050729 0.158005 0.000000 0.000000 0.000000
-0.390759 -0.161206 0.607109 0.000000 0.000000 0.000000
-0.147953 0.112847 0.118913 0.000000 0.000000 0.000000
-0.405264 -0.038688 0.638850 0.000000 0.000000 0.000000
-0.446687 0.031015 0.501642 0.000000 0.000000 0.000000
-0.151940 0.117441 0.118632 0.000000 0.000000 0.000000
-0.445317 0.028752 0.505497 0.000000 0.000000 0.000000
-0.453364 0.078622 0.404672 0.000000 0.000000 0.000000
-0.141397 -0.184445 0.293978 0.000000 0.000000 0.000000
-0.458147 0.037795 0.487000 0.000000 0.000000 0.000000
-0.130789 -0.183676 0.293956 0.000000 0.000000 0.000000
-0.156502 -0.151895 0.247318 0.000000 0.000000 0.000000
-0.125039 -0.180696 0.274495 0.000000 0.000000 0.000000
-0.448887 0.033655 0.509228 0.000000 0.000000 0.000000
-0.459976 0.037097 0.491703 0.000000 0.000000 0.000000
-0.144127 -0.181812 0.381943 0.000000 0.000000 0.000000
-0.159087 -0.133302 0.220217 0.000000 0.000000 0.000000
-0.438988 0.027039 0.517390 0.000000 0.000000 0.000000
-0.137739 -0.182817 0.289456 0.000000 0.000000 0.000000
-0.236926 0.215526 0.128067 0.000000 0.000000 0.000000
-0.133249 -0.152867 0.241083 0.000000 0.000000 0.000000
-0.141554 -0.177171 0.284013 0.000000 0.000000 0.000000
-0.375563 -0.166264 0.596762 0.000000 0.000000 0.000000
-0.464374 0.076608 0.408918 0.000000 0.000000 0.000000
-0.125931 -0.183561 0.298813 0.000000 0.000000 0.000000
-0.424276 -0.070930 0.635717 0.000000 0.000000 0.000000
-0.455602 -0.055128 0.636671 0.000000 0.000000 0.000000
-0.450368 0.032260 0.482960 0.000000 0.000000 0.000000
-0.466837 0.038711 0.471914 0.000000 0.000000 0.000000
-0.136051 -0.188383 0.308212 0.000000 0.000000 0.000000
-0.458372 0.040635 0.458011 0.000000 0.000000 0.000000
-0.127867 -0.177089 0.273075 0.000000 0.000000 0.000000
-0.150271 -0.162261 0.258255 0.000000 0.000000 0.000000
-0.123485 -0.176402 0.283367 0.000000 0.000000 0.000000
-0.451617 0.032283 0.490681 0.000000 0.000000 0.000000
-0.372169 -0.167139 0.587462 0.000000 0.000000 0.000000
-0.375172 -0.166087 0.592761 0.000000 0.000000 0.000000
-0.148995 -0.178977 0.389177 0.000000 0.000000 0.000000
-0.162652 -0.149282 0.251989 0.000000 0.000000 0.000000
-0.225879 0.198473 0.132459 0.000000 0.000000 0.000000
-0.134497 -0.163235 0.261050 0.000000 0.000000 0.000000
-0.129597 -0.174247 0.284962 0.000000 0.000000 0.000000
-0.461509 -0.105008 0.691382 0.000000 0.000000 0.000000
-0.354404 -0.173832 0.572322 0.000000 0.000000 0.000000
-0.430947 0.028477 0.539516 0.000000 0.000000 0.000000
-0.465981 0.072169 0.412119 0.000000 0.000000 0.000000
-0.278230 0.199395 0.183614 0.000000 0.000000 0.000000
-0.442331 -0.046022 0.614191 0.000000 0.000000 0.000000
-0.435916 -0.085180 0.639533 0.000000 0.000000 0.000000
-0.380131 -0.167875 0.601178 0.000000 0.000000 0.000000
-0.450105 -0.022503 0.602655 0.000000 0.000000 0.000000
-0.426930 -0.152496 0.643377 0.000000 0.000000 0.000000
-0.374715 -0.131617 0.601318 0.000000 0.000000 0.000000
-0.425718 -0.149074 0.647454 0.000000 0.000000 0.000000
-0.332272 -0.196948 0.529017 0.000000 0.000000 0.000000
-0.440300 -0.032255 0.597939 0.000000 0.000000 0.000000
-0.443055 -0.059346 0.591856 0.000000 0.000000 0.000000
-0.436099 -0.071021 0.588262 0.000000 0.000000 0.000000
-0.446062 -0.043988 0.596493 0.000000 0.000000 0.000000
-0.229620 0.169146 0.162941 0.000000 0.000000 0.000000
-0.082855 -0.133755 0.217978 0.000000 0.000000 0.000000
-0.085584 -0.128789 0.207455 0.000000 0.000000 0.000000
-0.427939 -0.071791 0.569104 0.000000 0.000000 0.000000
-0.194575 -0.196885 0.417959 0.000000 0.000000 0.000000
-0.363072 -0.168798 0.581305 0.000000 0.000000 0.000000
-0.165768 -0.013003 0.184844 0.000000 0.000000 0.000000
-0.445232 0.036474 0.521535 0.000000 0.000000 0.000000
-0.159361 0.121261 0.114867 0.000000 0.000000 0.000000
-0.430905 -0.030248 0.581181 0.000000 0.000000 0.000000
-0.444621 -0.043768 0.590729 0.000000 0.000000 0.000000
-0.436734 -0.070451 0.587149 0.000000 0.000000 0.000000
-0.435389 -0.067099 0.592027 0.000000 0.000000 0.000000
-0.439640 -0.049962 0.579464 0.000000 0.000000 0.000000
-0.405805 -0.152908 0.597486 0.000000 0.000000 0.000000
-0.289833 0.217028 0.152928 0.000000 0.000000 0.000000
-0.260044 0.193514 0.162090 0.000000 0.000000 0.000000
-0.340114 0.138950 0.284173 0.000000 0.000000 0.000000
-0.189865 -0.200484 0.425457 0.000000 0.000000 0.000000
-0.365310 -0.167111 0.578300 0.000000 0.000000 0.000000
-0.188838 -0.200629 0.425602 0.000000 0.000000 0.000000
-0.161641 0.046529 0.151550 0.000000 0.000000 0.000000
-0.330629 -0.196304 0.523668 0.000000 0.000000 0.000000
-0.118474 -0.095928 0.161996 0.000000 0.000000 0.000000
-0.157759 0.119907 0.114905 0.000000 0.000000 0.000000
-0.367459 -0.167209 0.590170 0.000000 0.000000 0.000000
-0.418596 -0.159272 0.630025 0.000000 0.000000 0.000000
-0.347064 -0.177174 0.559412 0.000000 0.000000 0.000000
-0.345606 -0.179567 0.562546 0.000000 0.000000 0.000000
-0.414136 -0.161523 0.628625 0.000000 0.000000 0.000000
-0.413296 -0.161082 0.627830 0.000000 0.000000 0.000000
-0.427885 -0.144184 0.647889 0.000000 0.000000 0.000000
-0.410705 -0.162307 0.621898 0.000000 0.000000 0.000000
-0.144559 -0.181533 0.378128 0.000000 0.000000 0.000000
-0.330592 -0.194670 0.537885 0.000000 0.000000 0.000000
-0.134640 -0.191445 0.381464 0.000000 0.000000 0.000000
-0.343132 -0.067262 0.420679 0.000000 0.000000 0.000000
-0.435343 -0.016081 0.589953 0.000000 0.000000 0.000000
-0.413751 -0.156243 0.621938 0.000000 0.000000 0.000000
-0.190498 0.123972 0.150499 0.000000 0.000000 0.000000
-0.114648 -0.064546 0.153323 0.000000 0.000000 0.000000
-0.394492 -0.121850 0.570272 0.000000 0.000000 0.000000
-0.151053 0.116045 0.112590 0.000000 0.000000 0.000000
-0.418007 -0.158156 0.625966 0.000000 0.000000 0.000000
-0.342212 -0.176727 0.545272 0.000000 0.000000 0.000000
-0.138017 -0.068318 0.153327 0.000000 0.000000 0.000000
-0.143477 0.038882 0.111241 0.000000 0.000000 0.000000
-0.412656 -0.047184 0.535645 0.000000 0.000000 0.000000
-0.466545 0.066252 0.419003 0.000000 0.000000 0.000000
-0.396956 -0.125290 0.553195 0.000000 0.000000 0.000000
-0.393893 -0.147840 0.587642 0.000000 0.000000 0.000000
-0.392109 -0.088508 0.503353 0.000000 0.000000 0.000000
-0.336335 -0.191631 0.524648 0.000000 0.000000 0.000000
-0.276074 0.199701 0.175306 0.000000 0.000000 0.000000
-0.129267 -0.182430 0.276878 0.000000 0.000000 0.000000
-0.408956 -0.150313 0.599126 0.000000 0.000000 0.000000
-0.437994 -0.019875 0.594685 0.000000 0.000000 0.000000
-0.415662 -0.158873 0.627513 0.000000 0.000000 0.000000
-0.115624 -0.068998 0.150993 0.000000 0.000000 0.000000
-0.152642 0.114992 0.117801 0.000000 0.000000 0.000000
-0.414578 -0.158207 0.622385 0.000000 0.000000 0.000000
-0.136602 -0.062870 0.147641 0.000000 0.000000 0.000000
-0.137582 0.023751 0.114925 0.000000 0.000000 0.000000
-0.408572 -0.077121 0.534421 0.000000 0.000000 0.000000
-0.470105 0.065004 0.419182 0.000000 0.000000 0.000000
-0.398975 -0.123591 0.554935 0.000000 0.000000 0.000000
-0.400850 -0.160913 0.612452 0.000000 0.000000 0.000000
-0.394335 -0.120535 0.533035 0.000000 0.000000 0.000000
-0.232093 0.188242 0.137754 0.000000 0.000000 0.000000
-0.269778 0.198816 0.169370 0.000000 0.000000 0.000000
-0.119562 -0.169361 0.273531 0.000000 0.000000 0.000000
-0.406939 -0.141978 0.587936 0.000000 0.000000 0.000000
-0.440952 -0.037981 0.620791 0.000000 0.000000 0.000000
-0.333027 -0.144655 0.452123 0.000000 0.000000 0.000000
-0.340708 -0.169140 0.471684 0.000000 0.000000 0.000000
-0.333468 -0.161017 0.463631 0.000000 0.000000 0.000000
-0.337508 -0.131839 0.444827 0.000000 0.000000 0.000000
-0.341220 -0.140050 0.454172 0.000000 0.000000 0.000000
-0.343999 -0.165523 0.492740 0.000000 0.000000 0.000000
-0.461003 -0.049663 0.630093 0.000000 0.000000 0.000000
-0.322472 -0.135770 0.423009 0.000000 0.000000 0.000000
-0.105570 -0.082880 0.165310 0.000000 0.000000 0.000000
-0.336161 -0.189659 0.480067 0.000000 0.000000 0.000000
-0.453813 -0.062974 0.623664 0.000000 0.000000 0.000000
-0.150545 -0.186473 0.362978 0.000000 0.000000 0.000000
-0.174025 -0.081993 0.218359 0.000000 0.000000 0.000000
-0.467633 -0.048885 0.634476 0.000000 0.000000 0.000000
-0.462003 -0.053337 0.634299 0.000000 0.000000 0.000000
-0.446619 -0.117866 0.686614 0.000000 0.000000 0.000000
-0.449263 -0.024124 0.617645 0.000000 0.000000 0.000000
-0.439692 0.031348 0.525137 0.000000 0.000000 0.000000
-0.465596 0.075682 0.410587 0.000000 0.000000 0.000000
-0.238299 0.205910 0.130992 0.000000 0.000000 0.000000
-0.309854 -0.189540 0.448802 0.000000 0.000000 0.000000
-0.097698 -0.115178 0.189348 0.000000 0.000000 0.000000
-0.303912 0.218019 0.139953 0.000000 0.000000 0.000000
-0.283161 -0.162318 0.424063 0.000000 0.000000 0.000000
-0.457079 -0.042612 0.635365 0.000000 0.000000 0.000000
-0.299744 -0.023511 0.319181 0.000000 0.000000 0.000000
-0.346482 -0.130019 0.457596 0.000000 0.000000 0.000000
-0.340474 -0.165147 0.462871 0.000000 0.000000 0.000000
-0.337473 -0.155600 0.463707 0.000000 0.000000 0.000000
-0.329445 -0.175508 0.466244 0.000000 0.000000 0.000000
-0.332331 -0.143866 0.440615 0.000000 0.000000 0.000000
-0.343368 -0.166764 0.499032 0.000000 0.000000 0.000000
-0.459247 -0.053396 0.629544 0.000000 0.000000 0.000000
-0.319047 -0.134094 0.428848 0.000000 0.000000 0.000000
-0.338082 -0.181456 0.488673 0.000000 0.000000 0.000000
-0.459917 -0.062946 0.634420 0.000000 0.000000 0.000000
-0.134774 -0.195236 0.359278 0.000000 0.000000 0.000000
-0.118274 -0.173306 0.283160 0.000000 0.000000 0.000000
-0.165851 -0.087373 0.204843 0.000000 0.000000 0.000000
-0.462869 -0.042566 0.630362 0.000000 0.000000 0.000000
-0.458440 -0.050001 0.627803 0.000000 0.000000 0.000000
-0.447659 -0.035941 0.621635 0.000000 0.000000 0.000000
-0.449326 0.035354 0.512549 0.000000 0.000000 0.000000
-0.469389 -0.052306 0.637657 0.000000 0.000000 0.000000
-0.464621 0.080177 0.407889 0.000000 0.000000 0.000000
-0.296424 -0.187560 0.450301 0.000000 0.000000 0.000000
-0.105505 -0.100309 0.173554 0.000000 0.000000 0.000000
-0.105758 -0.102919 0.180623 0.000000 0.000000 0.000000
-0.293795 -0.175858 0.438660 0.000000 0.000000 0.000000
-0.242923 0.196757 0.132547 0.000000 0.000000 0.000000
-0.450913 -0.045147 0.627787 0.000000 0.000000 0.000000
-0.361579 -0.063076 0.441065 0.000000 0.000000 0.000000
-0.461630 -0.114858 0.700271 0.000000 0.000000 0.000000
-0.465419 -0.109512 0.702413 0.000000 0.000000 0.000000
-0.438799 -0.020837 0.611614 0.000000 0.000000 0.000000
-0.421215 -0.019467 0.602816 0.000000 0.000000 0.000000
-0.421327 -0.022469 0.607148 0.000000 0.000000 0.000000
-0.435274 -0.025046 0.615182 0.000000 0.000000 0.000000
-0.461311 -0.108714 0.689724 0.000000 0.000000 0.000000
-0.291803 0.195195 0.188796 0.000000 0.000000 0.000000
-0.427782 -0.027304 0.612393 0.000000 0.000000 0.000000
-0.425318 -0.025534 0.608205 0.000000 0.000000 0.000000
-0.240340 0.193955 0.156553 0.000000 0.000000 0.000000
-0.433523 -0.136559 0.664624 0.000000 0.000000 0.000000
-0.469064 -0.098825 0.698664 0.000000 0.000000 0.000000
-0.428224 -0.133506 0.637842 0.000000 0.000000 0.000000
-0.453274 -0.112419 0.692670 0.000000 0.000000 0.000000
-0.191734 0.133891 0.151102 0.000000 0.000000 0.000000
-0.098087 -0.125987 0.219885 0.000000 0.000000 0.000000
-0.431252 -0.139598 0.655627 0.000000 0.000000 0.000000
-0.342660 -0.081147 0.403474 0.000000 0.000000 0.000000
-0.436814 -0.128103 0.666191 0.000000 0.000000 0.000000
-0.450071 0.029476 0.492053 0.000000 0.000000 0.000000
-0.181376 -0.110352 0.216285 0.000000 0.000000 0.000000
-0.432224 -0.137656 0.663067 0.000000 0.000000 0.000000
-0.431634 -0.128566 0.650795 0.000000 0.000000 0.000000
-0.093798 -0.107652 0.187744 0.000000 0.000000 0.000000
-0.217569 0.124353 0.159589 0.000000 0.000000 0.000000
-0.108919 -0.108467 0.203684 0.000000 0.000000 0.000000
-0.346254 -0.094281 0.422531 0.000000 0.000000 0.000000
-0.433743 -0.127302 0.657582 0.000000 0.000000 0.000000
-0.183105 -0.114211 0.220292 0.000000 0.000000 0.000000
-0.454644 -0.103343 0.676143 0.000000 0.000000 0.000000
-0.426639 -0.142770 0.655251 0.000000 0.000000 0.000000
-0.434132 -0.136138 0.663098 0.000000 0.000000 0.000000
-0.128952 -0.009979 0.123278 0.000000 0.000000 0.000000
-0.432351 -0.139203 0.661774 0.000000 0.000000 0.000000
-0.344859 -0.172909 0.557029 0.000000 0.000000 0.000000
-0.258107 0.202897 0.134000 0.000000 0.000000 0.000000
-0.188151 0.112301 0.151555 0.000000 0.000000 0.000000
-0.173231 -0.198865 0.368239 0.000000 0.000000 0.000000
-0.237527 0.202816 0.133138 0.000000 0.000000 0.000000
-0.329803 -0.014146 0.337557 0.000000 0.000000 0.000000
-0.231229 0.205395 0.127842 0.000000 0.000000 0.000000
-0.157614 -0.200629 0.382852 0.000000 0.000000 0.000000
-0.429190 -0.147405 0.651747 0.000000 0.000000 0.000000
-0.243441 0.204331 0.132290 0.000000 0.000000 0.000000
-0.182204 -0.172194 0.327950 0.000000 0.000000 0.000000
-0.093637 -0.115784 0.191571 0.000000 0.000000 0.000000
-0.138609 0.022512 0.117378 0.000000 0.000000 0.000000
-0.140852 0.014404 0.124075 0.000000 0.000000 0.000000
-0.332987 -0.192103 0.534035 0.000000 0.000000 0.000000
-0.250556 0.206113 0.133743 0.000000 0.000000 0.000000
-0.434903 -0.138479 0.657125 0.000000 0.000000 0.000000
-0.432171 -0.136415 0.663685 0.000000 0.000000 0.000000
-0.441096 -0.135414 0.661817 0.000000 0.000000 0.000000
-0.170468 0.124144 0.151248 0.000000 0.000000 0.000000
-0.177488 -0.192538 0.357384 0.000000 0.000000 0.000000
-0.250611 0.203168 0.137286 0.000000 0.000000 0.000000
-0.341029 -0.025573 0.358335 0.000000 0.000000 0.000000
-0.439635 -0.123213 0.670284 0.000000 0.000000 0.000000
-0.154502 -0.203903 0.381077 0.000000 0.000000 0.000000
-0.425831 -0.147561 0.640357 0.000000 0.000000 0.000000
-0.231223 0.194833 0.130546 0.000000 0.000000 0.000000
-0.174844 -0.183488 0.348009 0.000000 0.000000 0.000000
-0.142807 0.024012 0.119352 0.000000 0.000000 0.000000
-0.334155 -0.187689 0.541780 0.000000 0.000000 0.000000
-0.253726 0.202902 0.142520 0.000000 0.000000 0.000000
-0.437661 -0.135693 0.663434 0.000000 0.000000 0.000000
-0.295649 0.193901 0.196213 0.000000 0.000000 0.000000
-0.430964 -0.139287 0.656034 0.000000 0.000000 0.000000
-0.433472 -0.143069 0.654199 0.000000 0.000000 0.000000
-0.443635 -0.120069 0.679696 0.000000 0.000000 0.000000
-0.458625 -0.105590 0.684162 0.000000 0.000000 0.000000
-0.457176 -0.113866 0.695281 0.000000 0.000000 0.000000
-0.439957 -0.126270 0.681767 0.000000 0.000000 0.000000
-0.191774 -0.095711 0.238519 0.000000 0.000000 0.000000
-0.163654 -0.186866 0.379506 0.000000 0.000000 0.000000
-0.240486 0.194392 0.152846 0.000000 0.000000 0.000000
-0.424304 0.018202 0.556841 0.000000 0.000000 0.000000
-0.239596 0.193059 0.146786 0.000000 0.000000 0.000000
-0.443599 -0.121364 0.680748 0.000000 0.000000 0.000000
-0.452548 -0.109498 0.667598 0.000000 0.000000 0.000000
-0.429140 0.010866 0.560929 0.000000 0.000000 0.000000
-0.444980 -0.117827 0.677744 0.000000 0.000000 0.000000
-0.211640 -0.030467 0.230739 0.000000 0.000000 0.000000
-0.465999 -0.101173 0.698374 0.000000 0.000000 0.000000
-0.240535 -0.153824 0.363433 0.000000 0.000000 0.000000
-0.439039 -0.123879 0.674944 0.000000 0.000000 0.000000
-0.192230 -0.134328 0.266577 0.000000 0.000000 0.000000
-0.436805 -0.122383 0.671099 0.000000 0.000000 0.000000
-0.212289 -0.102570 0.258916 0.000000 0.000000 0.000000
-0.161489 -0.198075 0.385329 0.000000 0.000000 0.000000
-0.248360 0.193244 0.152425 0.000000 0.000000 0.000000
-0.419791 0.000702 0.573146 0.000000 0.000000 0.000000
-0.241548 0.190198 0.153191 0.000000 0.000000 0.000000
-0.447965 -0.117364 0.685684 0.000000 0.000000 0.000000
-0.457912 -0.106536 0.680858 0.000000 0.000000 0.000000
-0.433185 -0.003355 0.576118 0.000000 0.000000 0.000000
-0.447579 -0.113650 0.675922 0.000000 0.000000 0.000000
-0.239298 -0.067377 0.265444 0.000000 0.000000 0.000000
-0.468328 -0.102492 0.700744 0.000000 0.000000 0.000000
-0.219748 -0.154791 0.335052 0.000000 0.000000 0.000000
-0.437495 -0.123720 0.666671 0.000000 0.000000 0.000000
-0.183989 -0.151835 0.284019 0.000000 0.000000 0.000000
-0.374860 -0.164433 0.594599 0.000000 0.000000 0.000000
-0.143420 -0.205556 0.323882 0.000000 0.000000 0.000000
-0.111552 -0.140972 0.248719 0.000000 0.000000 0.000000
-0.309255 0.225582 0.136726 0.000000 0.000000 0.000000
-0.442404 -0.113677 0.675822 0.000000 0.000000 0.000000
-0.282106 0.210797 0.136390 0.000000 0.000000 0.000000
-0.156869 -0.196990 0.330039 0.000000 0.000000 0.000000
-0.432035 -0.141028 0.666524 0.000000 0.000000 0.000000
-0.458933 -0.104370 0.700497 0.000000 0.000000 0.000000
-0.436295 -0.130272 0.667619 0.000000 0.000000 0.000000
-0.464448 -0.078616 0.661943 0.000000 0.000000 0.000000
-0.455438 -0.082554 0.656774 0.000000 0.000000 0.000000
-0.318242 0.229184 0.134914 0.000000 0.000000 0.000000
-0.302779 0.223201 0.137470 0.000000 0.000000 0.000000
-0.469151 -0.079659 0.661430 0.000000 0.000000 0.000000
-0.455429 -0.076521 0.652593 0.000000 0.000000 0.000000
-0.057202 -0.142713 0.252196 0.000000 0.000000 0.000000
-0.250724 -0.146949 0.400895 0.000000 0.000000 0.000000
-0.249107 0.209815 0.131524 0.000000 0.000000 0.000000
-0.445426 -0.084538 0.652150 0.000000 0.000000 0.000000
-0.264235 0.049672 0.238881 0.000000 0.000000 0.000000
-0.147101 -0.181024 0.294302 0.000000 0.000000 0.000000
-0.107420 -0.150925 0.262435 0.000000 0.000000 0.000000
-0.222398 -0.116475 0.305142 0.000000 0.000000 0.000000
-0.290756 0.215109 0.152810 0.000000 0.000000 0.000000
-0.315963 0.221284 0.139816 0.000000 0.000000 0.000000
-0.315744 0.224286 0.134795 0.000000 0.000000 0.000000
-0.276385 0.212225 0.147448 0.000000 0.000000 0.000000
-0.307656 0.218620 0.140406 0.000000 0.000000 0.000000
-0.285264 0.213374 0.144729 0.000000 0.000000 0.000000
-0.286490 -0.098385 0.364034 0.000000 0.000000 0.000000
-0.115316 -0.167298 0.258487 0.000000 0.000000 0.000000
-0.236873 0.204180 0.134605 0.000000 0.000000 0.000000
-0.435035 -0.130065 0.668703 0.000000 0.000000 0.000000
-0.462246 -0.085733 0.666305 0.000000 0.000000 0.000000
-0.469462 -0.067851 0.643062 0.000000 0.000000 0.000000
-0.287531 0.218169 0.134317 0.000000 0.000000 0.000000
-0.474557 -0.061663 0.642152 0.000000 0.000000 0.000000
-0.453851 -0.089666 0.658982 0.000000 0.000000 0.000000
-0.104451 -0.122574 0.216929 0.000000 0.000000 0.000000
-0.240803 -0.151467 0.409757 0.000000 0.000000 0.000000
-0.245197 0.212487 0.137686 0.000000 0.000000 0.000000
-0.315792 0.225055 0.142873 0.000000 0.000000 0.000000
-0.449307 -0.086091 0.643643 0.000000 0.000000 0.000000
-0.146925 -0.186079 0.307264 0.000000 0.000000 0.000000
-0.104417 -0.140672 0.260450 0.000000 0.000000 0.000000
-0.201980 -0.118325 0.261001 0.000000 0.000000 0.000000
-0.286439 0.221675 0.143472 0.000000 0.000000 0.000000
-0.305632 0.219526 0.138216 0.000000 0.000000 0.000000
-0.283814 -0.118361 0.387137 0.000000 0.000000 0.000000
-0.112533 -0.165607 0.261111 0.000000 0.000000 0.000000
-0.393503 -0.168477 0.622996 0.000000 0.000000 0.000000
-0.284624 0.213395 0.138765 0.000000 0.000000 0.000000
-0.236435 0.208915 0.136470 0.000000 0.000000 0.000000
-0.433105 -0.129336 0.658762 0.000000 0.000000 0.000000
-0.452772 -0.037971 0.612432 0.000000 0.000000 0.000000
-0.389978 -0.165563 0.612818 0.000000 0.000000 0.000000
-0.116656 -0.078924 0.210530 0.000000 0.000000 0.000000
-0.396975 -0.105093 0.606409 0.000000 0.000000 0.000000
-0.423658 -0.159437 0.641292 0.000000 0.000000 0.000000
-0.384808 -0.076815 0.560717 0.000000 0.000000 0.000000
-0.116506 -0.052094 0.154206 0.000000 0.000000 0.000000
-0.111692 -0.083035 0.165316 0.000000 0.000000 0.000000
-0.115933 -0.032996 0.197700 0.000000 0.000000 0.000000
-0.219641 -0.165442 0.437867 0.000000 0.000000 0.000000
-0.280668 0.030117 0.263553 0.000000 0.000000 0.000000
-0.121296 -0.090311 0.333571 0.000000 0.000000 0.000000
-0.385007 -0.087610 0.585685 0.000000 0.000000 0.000000
-0.414713 0.006930 0.562694 0.000000 0.000000 0.000000
-0.479071 0.047950 0.441068 0.000000 0.000000 0.000000
-0.363535 -0.170403 0.586523 0.000000 0.000000 0.000000
-0.299010 0.001344 0.295162 0.000000 0.000000 0.000000
-0.110345 -0.079108 0.157416 0.000000 0.000000 0.000000
-0.112609 -0.087840 0.206105 0.000000 0.000000 0.000000
-0.390966 -0.106448 0.606989 0.000000 0.000000 0.000000
-0.418463 -0.163321 0.638560 0.000000 0.000000 0.000000
-0.386009 -0.068321 0.567326 0.000000 0.000000 0.000000
-0.112310 -0.058975 0.174213 0.000000 0.000000 0.000000
-0.163721 0.138752 0.145869 0.000000 0.000000 0.000000
-0.108584 -0.070209 0.173489 0.000000 0.000000 0.000000
-0.114401 -0.034743 0.186274 0.000000 0.000000 0.000000
-0.219431 -0.152941 0.432477 0.000000 0.000000 0.000000
-0.220792 0.081360 0.187789 0.000000 0.000000 0.000000
-0.293926 0.019467 0.283221 0.000000 0.000000 0.000000
-0.118204 -0.091030 0.270636 0.000000 0.000000 0.000000
-0.117964 0.115276 0.177342 0.000000 0.000000 0.000000
-0.376183 -0.085509 0.567070 0.000000 0.000000 0.000000
-0.413610 0.001422 0.548620 0.000000 0.000000 0.000000
-0.404854 0.007170 0.567810 0.000000 0.000000 0.000000
-0.369037 -0.169742 0.591882 0.000000 0.000000 0.000000
-0.299218 0.224266 0.144447 0.000000 0.000000 0.000000
-0.434856 -0.114629 0.660985 0.000000 0.000000 0.000000
-0.440074 -0.017579 0.610045 0.000000 0.000000 0.000000
-0.410706 -0.024234 0.626371 0.000000 0.000000 0.000000
-0.461991 -0.056384 0.633838 0.000000 0.000000 0.000000
-0.436121 -0.130776 0.674725 0.000000 0.000000 0.000000
-0.462480 -0.047498 0.627110 0.000000 0.000000 0.000000
-0.123518 -0.016478 0.122802 0.000000 0.000000 0.000000
-0.451016 0.106073 0.387651 0.000000 0.000000 0.000000
-0.444604 0.111673 0.384955 0.000000 0.000000 0.000000
-0.128671 -0.190479 0.343359 0.000000 0.000000 0.000000
-0.155658 -0.130454 0.347547 0.000000 0.000000 0.000000
-0.275119 0.213667 0.134986 0.000000 0.000000 0.000000
-0.441457 0.112774 0.384356 0.000000 0.000000 0.000000
-0.455472 0.101072 0.392053 0.000000 0.000000 0.000000
-0.293824 0.010693 0.289964 0.000000 0.000000 0.000000
-0.180231 0.190676 0.120704 0.000000 0.000000 0.000000
-0.136612 -0.188989 0.350258 0.000000 0.000000 0.000000
-0.215741 0.202345 0.129923 0.000000 0.000000 0.000000
-0.286036 0.215791 0.135440 0.000000 0.000000 0.000000
-0.148331 0.095744 0.117199 0.000000 0.000000 0.000000
-0.446837 -0.050202 0.630608 0.000000 0.000000 0.000000
-0.433856 -0.135880 0.655810 0.000000 0.000000 0.000000
-0.125006 -0.029425 0.125250 0.000000 0.000000 0.000000
-0.446350 0.110126 0.386038 0.000000 0.000000 0.000000
-0.446186 0.113479 0.384694 0.000000 0.000000 0.000000
-0.127976 -0.193493 0.351689 0.000000 0.000000 0.000000
-0.273375 0.215840 0.133198 0.000000 0.000000 0.000000
-0.446237 0.106750 0.386898 0.000000 0.000000 0.000000
-0.451520 0.107433 0.389048 0.000000 0.000000 0.000000
-0.217336 0.199901 0.128445 0.000000 0.000000 0.000000
-0.131875 -0.184761 0.332364 0.000000 0.000000 0.000000
-0.209820 0.192394 0.127018 0.000000 0.000000 0.000000
-0.283990 0.207179 0.136426 0.000000 0.000000 0.000000
-0.373985 -0.168890 0.596199 0.000000 0.000000 0.000000
-0.156306 0.124890 0.116383 0.000000 0.000000 0.000000
-0.457727 -0.044185 0.633543 0.000000 0.000000 0.000000
-0.466354 -0.049926 0.633008 0.000000 0.000000 0.000000
-0.433453 -0.141094 0.657113 0.000000 0.000000 0.000000
-0.116106 -0.097853 0.272028 0.000000 0.000000 0.000000
-0.386864 -0.155029 0.597720 0.000000 0.000000 0.000000
-0.472400 -0.086074 0.673065 0.000000 0.000000 0.000000
-0.101354 -0.152788 0.271015 0.000000 0.000000 0.000000
-0.403861 0.079036 0.362317 0.000000 0.000000 0.000000
-0.340551 -0.186875 0.540328 0.000000 0.000000 0.000000
-0.341706 -0.188207 0.543105 0.000000 0.000000 0.000000
-0.431160 -0.019625 0.612522 0.000000 0.000000 0.000000
-0.239703 0.194631 0.143444 0.000000 0.000000 0.000000
-0.229618 0.206363 0.136095 0.000000 0.000000 0.000000
-0.244787 0.209878 0.131253 0.000000 0.000000 0.000000
-0.475909 -0.085736 0.668081 0.000000 0.000000 0.000000
-0.446343 0.104882 0.390183 0.000000 0.000000 0.000000
-0.123901 -0.031709 0.142603 0.000000 0.000000 0.000000
-0.122158 -0.034742 0.135235 0.000000 0.000000 0.000000
-0.455280 -0.106299 0.678097 0.000000 0.000000 0.000000
-0.152822 0.082977 0.120214 0.000000 0.000000 0.000000
-0.176043 -0.186724 0.424131 0.000000 0.000000 0.000000
-0.424267 0.115565 0.375415 0.000000 0.000000 0.000000
-0.127995 -0.036903 0.127158 0.000000 0.000000 0.000000
-0.100968 -0.152411 0.250422 0.000000 0.000000 0.000000
-0.387171 0.145982 0.294843 0.000000 0.000000 0.000000
-0.398009 0.137060 0.307051 0.000000 0.000000 0.000000
-0.456499 0.097724 0.395217 0.000000 0.000000 0.000000
-0.096903 -0.156820 0.271798 0.000000 0.000000 0.000000
-0.183442 -0.196500 0.435232 0.000000 0.000000 0.000000
-0.373445 0.150450 0.289178 0.000000 0.000000 0.000000
-0.120361 -0.024520 0.123714 0.000000 0.000000 0.000000
-0.468698 -0.083406 0.675627 0.000000 0.000000 0.000000
-0.425638 0.110126 0.382337 0.000000 0.000000 0.000000
-0.439851 0.114440 0.381200 0.000000 0.000000 0.000000
-0.475561 -0.086008 0.677170 0.000000 0.000000 0.000000
-0.126690 -0.135486 0.307226 0.000000 0.000000 0.000000
-0.124894 -0.016752 0.125560 0.000000 0.000000 0.000000
-0.107285 -0.158754 0.281013 0.000000 0.000000 0.000000
-0.455608 -0.037550 0.619090 0.000000 0.000000 0.000000
-0.116868 -0.037709 0.140929 0.000000 0.000000 0.000000
-0.119026 -0.030986 0.131664 0.000000 0.000000 0.000000
-0.454657 -0.106433 0.674207 0.000000 0.000000 0.000000
-0.147849 0.074642 0.114991 0.000000 0.000000 0.000000
-0.173671 -0.182359 0.422240 0.000000 0.000000 0.000000
-0.437518 0.113133 0.384738 0.000000 0.000000 0.000000
-0.432998 0.115447 0.376445 0.000000 0.000000 0.000000
-0.123279 -0.041496 0.128571 0.000000 0.000000 0.000000
-0.101449 -0.151318 0.258170 0.000000 0.000000 0.000000
-0.397201 0.128378 0.313761 0.000000 0.000000 0.000000
-0.452420 0.096023 0.394616 0.000000 0.000000 0.000000
-0.105760 -0.149969 0.266523 0.000000 0.000000 0.000000
-0.344995 0.153523 0.265668 0.000000 0.000000 0.000000
-0.386709 0.126086 0.314685 0.000000 0.000000 0.000000
-0.467561 -0.080576 0.678323 0.000000 0.000000 0.000000
-0.404156 0.139106 0.321113 0.000000 0.000000 0.000000
-0.421996 0.109449 0.374206 0.000000 0.000000 0.000000
-0.472853 -0.090065 0.682931 0.000000 0.000000 0.000000
-0.128980 -0.132223 0.306470 0.000000 0.000000 0.000000
-0.091325 -0.121397 0.199390 0.000000 0.000000 0.000000
-0.430456 0.005910 0.567653 0.000000 0.000000 0.000000
-0.468698 -0.089861 0.682965 0.000000 0.000000 0.000000
-0.457500 -0.040098 0.625616 0.000000 0.000000 0.000000
-0.148901 0.061257 0.119851 0.000000 0.000000 0.000000
-0.477777 -0.075658 0.654701 0.000000 0.000000 0.000000
-0.139161 0.067976 0.124362 0.000000 0.000000 0.000000
-0.440284 0.034291 0.527706 0.000000 0.000000 0.000000
-0.139642 0.084150 0.150648 0.000000 0.000000 0.000000
-0.458599 -0.112375 0.688358 0.000000 0.000000 0.000000
-0.451772 -0.053656 0.616748 0.000000 0.000000 0.000000
-0.453834 -0.030397 0.621921 0.000000 0.000000 0.000000
-0.128449 -0.003306 0.120798 0.000000 0.000000 0.000000
-0.462867 -0.039760 0.624963 0.000000 0.000000 0.000000
-0.369569 -0.154120 0.588250 0.000000 0.000000 0.000000
-0.448907 -0.029685 0.616535 0.000000 0.000000 0.000000
-0.451396 -0.030651 0.618300 0.000000 0.000000 0.000000
-0.363408 -0.170185 0.588957 0.000000 0.000000 0.000000
-0.147135 0.070898 0.140609 0.000000 0.000000 0.000000
-0.143214 0.084058 0.119402 0.000000 0.000000 0.000000
-0.108564 -0.180668 0.299166 0.000000 0.000000 0.000000
-0.180901 -0.197202 0.395351 0.000000 0.000000 0.000000
-0.156079 -0.131039 0.365310 0.000000 0.000000 0.000000
-0.180857 -0.065309 0.173233 0.000000 0.000000 0.000000
-0.255472 0.029833 0.239085 0.000000 0.000000 0.000000
-0.148257 0.055424 0.142218 0.000000 0.000000 0.000000
-0.371549 -0.167993 0.595197 0.000000 0.000000 0.000000
-0.414349 -0.024664 0.594288 0.000000 0.000000 0.000000
-0.222641 0.193591 0.138620 0.000000 0.000000 0.000000
-0.167484 -0.201100 0.400495 0.000000 0.000000 0.000000
-0.172962 -0.198702 0.413341 0.000000 0.000000 0.000000
-0.356234 -0.173513 0.577201 0.000000 0.000000 0.000000
-0.434663 0.031522 0.534997 0.000000 0.000000 0.000000
-0.444639 0.030929 0.512486 0.000000 0.000000 0.000000
-0.454157 0.038292 0.508232 0.000000 0.000000 0.000000
-0.139937 -0.178331 0.367731 0.000000 0.000000 0.000000
-0.458572 -0.036398 0.623768 0.000000 0.000000 0.000000
-0.257813 0.214989 0.134996 0.000000 0.000000 0.000000
-0.240984 0.208539 0.129035 0.000000 0.000000 0.000000
-0.227623 -0.183077 0.453241 0.000000 0.000000 0.000000
-0.441880 0.039813 0.533390 0.000000 0.000000 0.000000
-0.375564 -0.167602 0.601434 0.000000 0.000000 0.000000
-0.146023 0.084265 0.122621 0.000000 0.000000 0.000000
-0.456068 -0.055459 0.624510 0.000000 0.000000 0.000000
-0.383094 -0.166568 0.604587 0.000000 0.000000 0.000000
-0.146552 0.073904 0.135204 0.000000 0.000000 0.000000
-0.145553 0.095899 0.119436 0.000000 0.000000 0.000000
-0.108930 -0.185795 0.316715 0.000000 0.000000 0.000000
-0.171494 -0.190142 0.401728 0.000000 0.000000 0.000000
-0.095426 -0.160272 0.272583 0.000000 0.000000 0.000000
-0.157767 -0.134360 0.364453 0.000000 0.000000 0.000000
