ply
format ascii 1.0
comment VCGLIB generated
obj_info Generated by SPFormer!
element vertex 868
property float x
property float y
property float z
property float nx
property float ny
property float nz
end_header
0.701629 -0.512291 0.650324 0.000000 0.000000 0.000000
0.722905 -0.362858 0.631002 0.000000 0.000000 0.000000
0.740411 -0.260717 0.611681 0.000000 0.000000 0.000000
0.756778 -0.225514 0.606299 0.000000 0.000000 0.000000
0.783728 -0.216921 0.619061 0.000000 0.000000 0.000000
0.783712 -0.229101 0.624108 0.000000 0.000000 0.000000
0.699868 -0.517097 0.650691 0.000000 0.000000 0.000000
0.726981 -0.382532 0.636798 0.000000 0.000000 0.000000
0.729713 -0.300690 0.611027 0.000000 0.000000 0.000000
0.752620 -0.274103 0.625662 0.000000 0.000000 0.000000
0.736628 -0.473393 0.675635 0.000000 0.000000 0.000000
0.705850 -0.507947 0.655420 0.000000 0.000000 0.000000
0.792747 -0.240655 0.632170 0.000000 0.000000 0.000000
0.774751 -0.212560 0.614945 0.000000 0.000000 0.000000
0.659371 -0.364303 0.582426 0.000000 0.000000 0.000000
0.676528 -0.487676 0.625170 0.000000 0.000000 0.000000
0.782534 -0.455490 0.676650 0.000000 0.000000 0.000000
0.731868 -0.243151 0.591470 0.000000 0.000000 0.000000
0.654611 -0.436307 0.597414 0.000000 0.000000 0.000000
0.779387 -0.464608 0.679751 0.000000 0.000000 0.000000
0.810026 -0.356497 0.663447 0.000000 0.000000 0.000000
0.681031 -0.482767 0.631866 0.000000 0.000000 0.000000
0.674645 -0.460820 0.614557 0.000000 0.000000 0.000000
0.816816 -0.339611 0.663592 0.000000 0.000000 0.000000
0.675214 -0.486372 0.625897 0.000000 0.000000 0.000000
0.701987 -0.511162 0.647631 0.000000 0.000000 0.000000
0.744071 -0.342820 0.633632 0.000000 0.000000 0.000000
0.791697 -0.222831 0.628510 0.000000 0.000000 0.000000
0.789435 -0.227538 0.626689 0.000000 0.000000 0.000000
0.803458 -0.263724 0.639016 0.000000 0.000000 0.000000
0.650999 -0.373426 0.580970 0.000000 0.000000 0.000000
0.655093 -0.357345 0.578106 0.000000 0.000000 0.000000
0.713243 -0.510238 0.656392 0.000000 0.000000 0.000000
0.799067 -0.247502 0.638136 0.000000 0.000000 0.000000
0.811837 -0.331434 0.659230 0.000000 0.000000 0.000000
0.793141 -0.225991 0.630585 0.000000 0.000000 0.000000
0.797638 -0.236432 0.635303 0.000000 0.000000 0.000000
0.726919 -0.485738 0.662326 0.000000 0.000000 0.000000
0.763196 -0.245602 0.617310 0.000000 0.000000 0.000000
0.787945 -0.220321 0.624837 0.000000 0.000000 0.000000
0.740555 -0.328261 0.630013 0.000000 0.000000 0.000000
0.800520 -0.242873 0.637925 0.000000 0.000000 0.000000
0.709804 -0.277011 0.585714 0.000000 0.000000 0.000000
0.658386 -0.395515 0.597761 0.000000 0.000000 0.000000
0.676976 -0.409178 0.601623 0.000000 0.000000 0.000000
0.787708 -0.446630 0.675270 0.000000 0.000000 0.000000
0.790817 -0.228497 0.627145 0.000000 0.000000 0.000000
0.652526 -0.389008 0.588595 0.000000 0.000000 0.000000
0.752909 -0.309568 0.630128 0.000000 0.000000 0.000000
0.655157 -0.454281 0.600972 0.000000 0.000000 0.000000
0.795507 -0.405995 0.672529 0.000000 0.000000 0.000000
0.684485 -0.306659 0.576869 0.000000 0.000000 0.000000
0.810115 -0.357398 0.664920 0.000000 0.000000 0.000000
0.661559 -0.455464 0.601428 0.000000 0.000000 0.000000
0.767698 -0.447674 0.679189 0.000000 0.000000 0.000000
0.806190 -0.391289 0.676839 0.000000 0.000000 0.000000
0.660886 -0.339442 0.572991 0.000000 0.000000 0.000000
0.745850 -0.459949 0.662758 0.000000 0.000000 0.000000
0.793185 -0.306613 0.648343 0.000000 0.000000 0.000000
0.734029 -0.330746 0.626931 0.000000 0.000000 0.000000
0.754504 -0.294557 0.626872 0.000000 0.000000 0.000000
0.740514 -0.467761 0.662417 0.000000 0.000000 0.000000
0.748881 -0.427734 0.650680 0.000000 0.000000 0.000000
0.764257 -0.281628 0.630617 0.000000 0.000000 0.000000
0.776129 -0.355300 0.656407 0.000000 0.000000 0.000000
0.685580 -0.350805 0.603139 0.000000 0.000000 0.000000
0.749691 -0.369537 0.644056 0.000000 0.000000 0.000000
0.772304 -0.404062 0.659493 0.000000 0.000000 0.000000
0.758251 -0.318228 0.634531 0.000000 0.000000 0.000000
0.747585 -0.438938 0.651411 0.000000 0.000000 0.000000
0.757137 -0.391659 0.650415 0.000000 0.000000 0.000000
0.781885 -0.418442 0.668019 0.000000 0.000000 0.000000
0.772463 -0.456270 0.667779 0.000000 0.000000 0.000000
0.767169 -0.295656 0.633675 0.000000 0.000000 0.000000
0.739372 -0.448872 0.672604 0.000000 0.000000 0.000000
0.748450 -0.314335 0.631829 0.000000 0.000000 0.000000
0.790462 -0.287915 0.633689 0.000000 0.000000 0.000000
0.755654 -0.450954 0.665080 0.000000 0.000000 0.000000
0.778359 -0.402706 0.668138 0.000000 0.000000 0.000000
0.662412 -0.421886 0.603400 0.000000 0.000000 0.000000
0.763068 -0.306662 0.626420 0.000000 0.000000 0.000000
0.708493 -0.493714 0.647896 0.000000 0.000000 0.000000
0.720342 -0.455701 0.652330 0.000000 0.000000 0.000000
0.727424 -0.290361 0.606600 0.000000 0.000000 0.000000
0.718761 -0.449611 0.652903 0.000000 0.000000 0.000000
0.671624 -0.440898 0.612066 0.000000 0.000000 0.000000
0.671381 -0.466712 0.612283 0.000000 0.000000 0.000000
0.729905 -0.389114 0.619240 0.000000 0.000000 0.000000
0.764745 -0.436336 0.671921 0.000000 0.000000 0.000000
0.807403 -0.343344 0.664645 0.000000 0.000000 0.000000
0.716258 -0.437073 0.647346 0.000000 0.000000 0.000000
0.807710 -0.385263 0.680641 0.000000 0.000000 0.000000
0.747860 -0.295163 0.622028 0.000000 0.000000 0.000000
0.768112 -0.313119 0.632572 0.000000 0.000000 0.000000
0.768205 -0.304293 0.634036 0.000000 0.000000 0.000000
0.756674 -0.308618 0.623407 0.000000 0.000000 0.000000
0.735359 -0.466288 0.656457 0.000000 0.000000 0.000000
0.759951 -0.419183 0.656775 0.000000 0.000000 0.000000
0.768736 -0.284497 0.630671 0.000000 0.000000 0.000000
0.765371 -0.313779 0.636876 0.000000 0.000000 0.000000
0.680066 -0.380899 0.606233 0.000000 0.000000 0.000000
0.771269 -0.293885 0.631267 0.000000 0.000000 0.000000
0.760314 -0.292475 0.631211 0.000000 0.000000 0.000000
0.792228 -0.374102 0.661709 0.000000 0.000000 0.000000
0.756554 -0.331966 0.639113 0.000000 0.000000 0.000000
0.765859 -0.407092 0.656943 0.000000 0.000000 0.000000
0.659533 -0.463293 0.609013 0.000000 0.000000 0.000000
0.788267 -0.433631 0.673951 0.000000 0.000000 0.000000
0.701613 -0.356090 0.614140 0.000000 0.000000 0.000000
0.784253 -0.427991 0.673349 0.000000 0.000000 0.000000
0.785880 -0.448917 0.673392 0.000000 0.000000 0.000000
0.764018 -0.348856 0.641646 0.000000 0.000000 0.000000
0.755345 -0.325930 0.638865 0.000000 0.000000 0.000000
0.774600 -0.294641 0.632605 0.000000 0.000000 0.000000
0.742329 -0.455391 0.654334 0.000000 0.000000 0.000000
0.657804 -0.413067 0.596852 0.000000 0.000000 0.000000
0.761700 -0.301160 0.634036 0.000000 0.000000 0.000000
0.730800 -0.470016 0.655839 0.000000 0.000000 0.000000
0.714838 -0.461543 0.649796 0.000000 0.000000 0.000000
0.726121 -0.477286 0.651169 0.000000 0.000000 0.000000
0.732416 -0.295144 0.609963 0.000000 0.000000 0.000000
0.750528 -0.444436 0.654400 0.000000 0.000000 0.000000
0.670534 -0.468033 0.620211 0.000000 0.000000 0.000000
0.655105 -0.397948 0.593333 0.000000 0.000000 0.000000
0.719610 -0.420615 0.639010 0.000000 0.000000 0.000000
0.750726 -0.451398 0.671652 0.000000 0.000000 0.000000
0.656015 -0.436021 0.604898 0.000000 0.000000 0.000000
0.808943 -0.373074 0.668619 0.000000 0.000000 0.000000
0.805479 -0.375243 0.676032 0.000000 0.000000 0.000000
0.657078 -0.467121 0.609046 0.000000 0.000000 0.000000
0.733369 -0.246815 0.587256 0.000000 0.000000 0.000000
0.764493 -0.264908 0.626028 0.000000 0.000000 0.000000
0.659250 -0.419209 0.602896 0.000000 0.000000 0.000000
0.660964 -0.371231 0.596415 0.000000 0.000000 0.000000
0.660461 -0.394144 0.600094 0.000000 0.000000 0.000000
0.664112 -0.368704 0.594313 0.000000 0.000000 0.000000
0.806905 -0.312799 0.650578 0.000000 0.000000 0.000000
0.663806 -0.409583 0.603025 0.000000 0.000000 0.000000
0.672179 -0.450952 0.611138 0.000000 0.000000 0.000000
0.651906 -0.373753 0.583347 0.000000 0.000000 0.000000
0.659427 -0.375474 0.592876 0.000000 0.000000 0.000000
0.659472 -0.408911 0.598125 0.000000 0.000000 0.000000
0.654427 -0.376643 0.587043 0.000000 0.000000 0.000000
0.660092 -0.432941 0.600634 0.000000 0.000000 0.000000
0.778260 -0.425299 0.674866 0.000000 0.000000 0.000000
0.703905 -0.277399 0.582161 0.000000 0.000000 0.000000
0.758615 -0.282249 0.625265 0.000000 0.000000 0.000000
0.660300 -0.383119 0.591888 0.000000 0.000000 0.000000
0.665390 -0.381044 0.592522 0.000000 0.000000 0.000000
0.673506 -0.391160 0.604957 0.000000 0.000000 0.000000
0.648974 -0.369342 0.581063 0.000000 0.000000 0.000000
0.810022 -0.291681 0.647947 0.000000 0.000000 0.000000
0.674283 -0.405144 0.609281 0.000000 0.000000 0.000000
0.662699 -0.378569 0.588870 0.000000 0.000000 0.000000
0.730668 -0.507239 0.661668 0.000000 0.000000 0.000000
0.669617 -0.396892 0.602010 0.000000 0.000000 0.000000
0.664487 -0.424899 0.607160 0.000000 0.000000 0.000000
0.662577 -0.374837 0.591481 0.000000 0.000000 0.000000
0.757737 -0.459461 0.666154 0.000000 0.000000 0.000000
0.779728 -0.465510 0.675317 0.000000 0.000000 0.000000
0.790123 -0.447223 0.677712 0.000000 0.000000 0.000000
0.651751 -0.439172 0.594950 0.000000 0.000000 0.000000
0.775593 -0.217328 0.613525 0.000000 0.000000 0.000000
0.792970 -0.234903 0.628085 0.000000 0.000000 0.000000
0.807411 -0.365718 0.665333 0.000000 0.000000 0.000000
0.722958 -0.498134 0.655397 0.000000 0.000000 0.000000
0.806290 -0.279428 0.650850 0.000000 0.000000 0.000000
0.719118 -0.491226 0.667241 0.000000 0.000000 0.000000
0.767706 -0.378760 0.653568 0.000000 0.000000 0.000000
0.787780 -0.383453 0.675482 0.000000 0.000000 0.000000
0.702668 -0.390281 0.611230 0.000000 0.000000 0.000000
0.734981 -0.492414 0.658375 0.000000 0.000000 0.000000
0.716590 -0.499832 0.657471 0.000000 0.000000 0.000000
0.732352 -0.491041 0.659569 0.000000 0.000000 0.000000
0.780495 -0.382474 0.660799 0.000000 0.000000 0.000000
0.714915 -0.508929 0.656002 0.000000 0.000000 0.000000
0.737425 -0.502398 0.660005 0.000000 0.000000 0.000000
0.725977 -0.458908 0.658487 0.000000 0.000000 0.000000
0.757257 -0.428487 0.657169 0.000000 0.000000 0.000000
0.753367 -0.385853 0.643330 0.000000 0.000000 0.000000
0.803303 -0.365238 0.669025 0.000000 0.000000 0.000000
0.766130 -0.214135 0.610469 0.000000 0.000000 0.000000
0.747413 -0.240548 0.602499 0.000000 0.000000 0.000000
0.780494 -0.268547 0.633692 0.000000 0.000000 0.000000
0.663355 -0.461373 0.612303 0.000000 0.000000 0.000000
0.679343 -0.473117 0.622791 0.000000 0.000000 0.000000
0.685199 -0.493440 0.631124 0.000000 0.000000 0.000000
0.647034 -0.372902 0.580810 0.000000 0.000000 0.000000
0.649803 -0.401282 0.595206 0.000000 0.000000 0.000000
0.660820 -0.421704 0.607501 0.000000 0.000000 0.000000
0.680209 -0.486353 0.623381 0.000000 0.000000 0.000000
0.772718 -0.359686 0.649839 0.000000 0.000000 0.000000
0.795697 -0.364329 0.661222 0.000000 0.000000 0.000000
0.693651 -0.469824 0.639583 0.000000 0.000000 0.000000
0.676321 -0.455588 0.613959 0.000000 0.000000 0.000000
0.667059 -0.442758 0.615475 0.000000 0.000000 0.000000
0.674585 -0.447706 0.610700 0.000000 0.000000 0.000000
0.672338 -0.477809 0.621393 0.000000 0.000000 0.000000
0.807925 -0.304723 0.649777 0.000000 0.000000 0.000000
0.798136 -0.331837 0.655150 0.000000 0.000000 0.000000
0.674553 -0.456774 0.622122 0.000000 0.000000 0.000000
0.742168 -0.461278 0.660606 0.000000 0.000000 0.000000
0.667099 -0.453486 0.610007 0.000000 0.000000 0.000000
0.677016 -0.470415 0.615980 0.000000 0.000000 0.000000
0.803938 -0.397507 0.674123 0.000000 0.000000 0.000000
0.659503 -0.444407 0.600145 0.000000 0.000000 0.000000
0.798444 -0.381499 0.667823 0.000000 0.000000 0.000000
0.703684 -0.501861 0.649324 0.000000 0.000000 0.000000
0.689145 -0.490823 0.640287 0.000000 0.000000 0.000000
0.679482 -0.471766 0.626210 0.000000 0.000000 0.000000
0.668148 -0.451304 0.605915 0.000000 0.000000 0.000000
0.663453 -0.455079 0.606876 0.000000 0.000000 0.000000
0.674207 -0.487421 0.624899 0.000000 0.000000 0.000000
0.790672 -0.366216 0.662093 0.000000 0.000000 0.000000
0.736506 -0.440628 0.643696 0.000000 0.000000 0.000000
0.735332 -0.353501 0.635055 0.000000 0.000000 0.000000
0.668826 -0.462505 0.613097 0.000000 0.000000 0.000000
0.653048 -0.410311 0.594521 0.000000 0.000000 0.000000
0.654874 -0.443957 0.600016 0.000000 0.000000 0.000000
0.677868 -0.468133 0.624325 0.000000 0.000000 0.000000
0.725413 -0.430069 0.640003 0.000000 0.000000 0.000000
0.704123 -0.293366 0.590757 0.000000 0.000000 0.000000
0.794267 -0.242536 0.629116 0.000000 0.000000 0.000000
0.707693 -0.275771 0.583304 0.000000 0.000000 0.000000
0.785437 -0.430938 0.676756 0.000000 0.000000 0.000000
0.652364 -0.439880 0.595853 0.000000 0.000000 0.000000
0.717371 -0.303642 0.595679 0.000000 0.000000 0.000000
0.698679 -0.316402 0.589203 0.000000 0.000000 0.000000
0.678768 -0.369500 0.597127 0.000000 0.000000 0.000000
0.793890 -0.301121 0.644149 0.000000 0.000000 0.000000
0.698728 -0.320133 0.592482 0.000000 0.000000 0.000000
0.684822 -0.310208 0.581065 0.000000 0.000000 0.000000
0.710081 -0.317957 0.598957 0.000000 0.000000 0.000000
0.693514 -0.322799 0.590337 0.000000 0.000000 0.000000
0.681801 -0.413227 0.609387 0.000000 0.000000 0.000000
0.707487 -0.314403 0.596280 0.000000 0.000000 0.000000
0.713695 -0.336696 0.601918 0.000000 0.000000 0.000000
0.789022 -0.315989 0.645804 0.000000 0.000000 0.000000
0.705439 -0.298516 0.587490 0.000000 0.000000 0.000000
0.704697 -0.311885 0.588156 0.000000 0.000000 0.000000
0.700703 -0.331867 0.599470 0.000000 0.000000 0.000000
0.710687 -0.298415 0.585819 0.000000 0.000000 0.000000
0.794454 -0.438718 0.678792 0.000000 0.000000 0.000000
0.798735 -0.428503 0.679663 0.000000 0.000000 0.000000
0.738594 -0.279747 0.612410 0.000000 0.000000 0.000000
0.774318 -0.463113 0.672332 0.000000 0.000000 0.000000
0.781936 -0.462389 0.680578 0.000000 0.000000 0.000000
0.670807 -0.366841 0.593271 0.000000 0.000000 0.000000
0.783757 -0.376782 0.663324 0.000000 0.000000 0.000000
0.798562 -0.389801 0.670460 0.000000 0.000000 0.000000
0.665882 -0.472970 0.614919 0.000000 0.000000 0.000000
0.706112 -0.510450 0.654856 0.000000 0.000000 0.000000
0.790354 -0.394373 0.666967 0.000000 0.000000 0.000000
0.810819 -0.352094 0.663580 0.000000 0.000000 0.000000
0.791431 -0.370639 0.662451 0.000000 0.000000 0.000000
0.795750 -0.372036 0.669662 0.000000 0.000000 0.000000
0.797932 -0.407362 0.673675 0.000000 0.000000 0.000000
0.747603 -0.491926 0.661492 0.000000 0.000000 0.000000
0.649710 -0.400230 0.590981 0.000000 0.000000 0.000000
0.808093 -0.378629 0.674065 0.000000 0.000000 0.000000
0.642006 -0.398927 0.585811 0.000000 0.000000 0.000000
0.741239 -0.498636 0.656332 0.000000 0.000000 0.000000
0.678989 -0.412324 0.611926 0.000000 0.000000 0.000000
0.812890 -0.353332 0.665784 0.000000 0.000000 0.000000
0.659280 -0.444919 0.600690 0.000000 0.000000 0.000000
0.670527 -0.432059 0.610310 0.000000 0.000000 0.000000
0.793654 -0.402439 0.674205 0.000000 0.000000 0.000000
0.779600 -0.344476 0.649283 0.000000 0.000000 0.000000
0.806044 -0.361089 0.664453 0.000000 0.000000 0.000000
0.804616 -0.352040 0.660488 0.000000 0.000000 0.000000
0.789269 -0.382916 0.669670 0.000000 0.000000 0.000000
0.798883 -0.398712 0.673457 0.000000 0.000000 0.000000
0.743506 -0.496710 0.659743 0.000000 0.000000 0.000000
0.810103 -0.350845 0.663888 0.000000 0.000000 0.000000
0.649701 -0.415533 0.593486 0.000000 0.000000 0.000000
0.803890 -0.376342 0.668645 0.000000 0.000000 0.000000
0.679896 -0.384657 0.602757 0.000000 0.000000 0.000000
0.804452 -0.388809 0.675143 0.000000 0.000000 0.000000
0.663536 -0.453825 0.606026 0.000000 0.000000 0.000000
0.658336 -0.448003 0.606537 0.000000 0.000000 0.000000
0.657267 -0.448618 0.600617 0.000000 0.000000 0.000000
0.726475 -0.240042 0.587361 0.000000 0.000000 0.000000
0.801560 -0.394460 0.673033 0.000000 0.000000 0.000000
0.747399 -0.228567 0.596251 0.000000 0.000000 0.000000
0.723831 -0.252727 0.587924 0.000000 0.000000 0.000000
0.699483 -0.503570 0.652051 0.000000 0.000000 0.000000
0.703938 -0.515860 0.653744 0.000000 0.000000 0.000000
0.740638 -0.509172 0.658947 0.000000 0.000000 0.000000
0.807962 -0.365579 0.666891 0.000000 0.000000 0.000000
0.768520 -0.462418 0.668679 0.000000 0.000000 0.000000
0.807382 -0.295410 0.649309 0.000000 0.000000 0.000000
0.640700 -0.399838 0.586425 0.000000 0.000000 0.000000
0.728191 -0.497161 0.656694 0.000000 0.000000 0.000000
0.683834 -0.423163 0.605147 0.000000 0.000000 0.000000
0.803098 -0.392542 0.674679 0.000000 0.000000 0.000000
0.809508 -0.317375 0.653077 0.000000 0.000000 0.000000
0.812863 -0.342352 0.662704 0.000000 0.000000 0.000000
0.812065 -0.314981 0.655675 0.000000 0.000000 0.000000
0.803786 -0.344360 0.661068 0.000000 0.000000 0.000000
0.650054 -0.367679 0.578135 0.000000 0.000000 0.000000
0.667204 -0.449215 0.609432 0.000000 0.000000 0.000000
0.806418 -0.339187 0.658234 0.000000 0.000000 0.000000
0.790641 -0.350321 0.656064 0.000000 0.000000 0.000000
0.804597 -0.322510 0.658184 0.000000 0.000000 0.000000
0.809863 -0.309377 0.652970 0.000000 0.000000 0.000000
0.808913 -0.317531 0.651713 0.000000 0.000000 0.000000
0.738966 -0.236500 0.591060 0.000000 0.000000 0.000000
0.806218 -0.314148 0.645782 0.000000 0.000000 0.000000
0.809766 -0.286526 0.648673 0.000000 0.000000 0.000000
0.803173 -0.277560 0.639598 0.000000 0.000000 0.000000
0.803982 -0.309184 0.649410 0.000000 0.000000 0.000000
0.794605 -0.328562 0.653463 0.000000 0.000000 0.000000
0.784365 -0.358782 0.658162 0.000000 0.000000 0.000000
0.809934 -0.324567 0.662595 0.000000 0.000000 0.000000
0.815040 -0.345826 0.669034 0.000000 0.000000 0.000000
0.741538 -0.247664 0.601357 0.000000 0.000000 0.000000
0.809334 -0.290851 0.650470 0.000000 0.000000 0.000000
0.805177 -0.264039 0.640656 0.000000 0.000000 0.000000
0.806900 -0.297236 0.649865 0.000000 0.000000 0.000000
0.800415 -0.302569 0.652867 0.000000 0.000000 0.000000
0.803644 -0.311287 0.647425 0.000000 0.000000 0.000000
0.692101 -0.502619 0.640058 0.000000 0.000000 0.000000
0.792642 -0.228820 0.628894 0.000000 0.000000 0.000000
0.706573 -0.505562 0.653901 0.000000 0.000000 0.000000
0.707751 -0.489241 0.655518 0.000000 0.000000 0.000000
0.691875 -0.506855 0.643324 0.000000 0.000000 0.000000
0.715931 -0.512547 0.656221 0.000000 0.000000 0.000000
0.714697 -0.502503 0.654351 0.000000 0.000000 0.000000
0.755819 -0.219316 0.602280 0.000000 0.000000 0.000000
0.690678 -0.504461 0.634285 0.000000 0.000000 0.000000
0.699369 -0.503214 0.640081 0.000000 0.000000 0.000000
0.708784 -0.459856 0.644078 0.000000 0.000000 0.000000
0.731531 -0.247184 0.590891 0.000000 0.000000 0.000000
0.804604 -0.348172 0.666642 0.000000 0.000000 0.000000
0.702110 -0.509783 0.650212 0.000000 0.000000 0.000000
0.709662 -0.459653 0.644786 0.000000 0.000000 0.000000
0.702901 -0.479187 0.635442 0.000000 0.000000 0.000000
0.697883 -0.505950 0.649594 0.000000 0.000000 0.000000
0.681186 -0.488195 0.625638 0.000000 0.000000 0.000000
0.649531 -0.421310 0.596307 0.000000 0.000000 0.000000
0.667107 -0.330990 0.576621 0.000000 0.000000 0.000000
0.642563 -0.406756 0.589178 0.000000 0.000000 0.000000
0.668215 -0.460987 0.611854 0.000000 0.000000 0.000000
0.672470 -0.457396 0.612356 0.000000 0.000000 0.000000
0.650028 -0.409222 0.593292 0.000000 0.000000 0.000000
0.809865 -0.332594 0.660447 0.000000 0.000000 0.000000
0.806365 -0.322751 0.654167 0.000000 0.000000 0.000000
0.643970 -0.392841 0.585161 0.000000 0.000000 0.000000
0.652769 -0.418294 0.600477 0.000000 0.000000 0.000000
0.738398 -0.245429 0.596864 0.000000 0.000000 0.000000
0.813325 -0.338195 0.662963 0.000000 0.000000 0.000000
0.809860 -0.302579 0.651934 0.000000 0.000000 0.000000
0.662381 -0.439261 0.603548 0.000000 0.000000 0.000000
0.649579 -0.427659 0.595147 0.000000 0.000000 0.000000
0.814709 -0.285305 0.652133 0.000000 0.000000 0.000000
0.679178 -0.445698 0.610732 0.000000 0.000000 0.000000
0.671611 -0.470812 0.616056 0.000000 0.000000 0.000000
0.654584 -0.415728 0.592301 0.000000 0.000000 0.000000
0.646538 -0.409127 0.592266 0.000000 0.000000 0.000000
0.758894 -0.486617 0.671169 0.000000 0.000000 0.000000
0.657078 -0.429612 0.601987 0.000000 0.000000 0.000000
0.640466 -0.410195 0.590385 0.000000 0.000000 0.000000
0.679193 -0.484551 0.624166 0.000000 0.000000 0.000000
0.648261 -0.397306 0.590403 0.000000 0.000000 0.000000
0.807923 -0.285532 0.649178 0.000000 0.000000 0.000000
0.675770 -0.441802 0.615352 0.000000 0.000000 0.000000
0.708957 -0.511426 0.649206 0.000000 0.000000 0.000000
0.673929 -0.479050 0.616676 0.000000 0.000000 0.000000
0.657789 -0.389571 0.595541 0.000000 0.000000 0.000000
0.743599 -0.487050 0.664309 0.000000 0.000000 0.000000
0.773616 -0.210047 0.614704 0.000000 0.000000 0.000000
0.725063 -0.508331 0.658991 0.000000 0.000000 0.000000
0.699609 -0.504723 0.648642 0.000000 0.000000 0.000000
0.646007 -0.419153 0.593285 0.000000 0.000000 0.000000
0.753266 -0.479839 0.667396 0.000000 0.000000 0.000000
0.650326 -0.416915 0.592016 0.000000 0.000000 0.000000
0.664292 -0.470985 0.617528 0.000000 0.000000 0.000000
0.668391 -0.470843 0.614536 0.000000 0.000000 0.000000
0.669126 -0.474903 0.615185 0.000000 0.000000 0.000000
0.686934 -0.493478 0.638421 0.000000 0.000000 0.000000
0.652910 -0.419064 0.593423 0.000000 0.000000 0.000000
0.691087 -0.501757 0.639131 0.000000 0.000000 0.000000
0.692701 -0.500029 0.638417 0.000000 0.000000 0.000000
0.802504 -0.324732 0.653894 0.000000 0.000000 0.000000
0.653686 -0.355672 0.579042 0.000000 0.000000 0.000000
0.654113 -0.431289 0.593765 0.000000 0.000000 0.000000
0.777660 -0.202228 0.617462 0.000000 0.000000 0.000000
0.779205 -0.213707 0.618968 0.000000 0.000000 0.000000
0.766293 -0.231779 0.613157 0.000000 0.000000 0.000000
0.759984 -0.226365 0.609461 0.000000 0.000000 0.000000
0.655153 -0.441228 0.598070 0.000000 0.000000 0.000000
0.658190 -0.439672 0.603413 0.000000 0.000000 0.000000
0.776758 -0.208393 0.614953 0.000000 0.000000 0.000000
0.648556 -0.368326 0.579792 0.000000 0.000000 0.000000
0.658388 -0.380063 0.588984 0.000000 0.000000 0.000000
0.796938 -0.245972 0.632849 0.000000 0.000000 0.000000
0.662197 -0.462972 0.609421 0.000000 0.000000 0.000000
0.648172 -0.438819 0.598179 0.000000 0.000000 0.000000
0.750024 -0.493266 0.662466 0.000000 0.000000 0.000000
0.748157 -0.496479 0.660475 0.000000 0.000000 0.000000
0.651272 -0.366436 0.578792 0.000000 0.000000 0.000000
0.767290 -0.235268 0.619164 0.000000 0.000000 0.000000
0.719091 -0.425008 0.643886 0.000000 0.000000 0.000000
0.666990 -0.437335 0.608542 0.000000 0.000000 0.000000
0.661388 -0.377049 0.589319 0.000000 0.000000 0.000000
0.732075 -0.483678 0.659758 0.000000 0.000000 0.000000
0.650033 -0.365284 0.577738 0.000000 0.000000 0.000000
0.771581 -0.220198 0.613588 0.000000 0.000000 0.000000
0.664680 -0.446229 0.608517 0.000000 0.000000 0.000000
0.794407 -0.232030 0.629897 0.000000 0.000000 0.000000
0.658583 -0.433930 0.606921 0.000000 0.000000 0.000000
0.657423 -0.376417 0.584522 0.000000 0.000000 0.000000
0.732050 -0.498860 0.657647 0.000000 0.000000 0.000000
0.651897 -0.361501 0.577597 0.000000 0.000000 0.000000
0.649049 -0.368731 0.576136 0.000000 0.000000 0.000000
0.770362 -0.212183 0.614643 0.000000 0.000000 0.000000
0.702298 -0.517317 0.652172 0.000000 0.000000 0.000000
0.675317 -0.484974 0.620942 0.000000 0.000000 0.000000
0.666402 -0.469458 0.611720 0.000000 0.000000 0.000000
0.698094 -0.475671 0.630677 0.000000 0.000000 0.000000
0.678610 -0.474327 0.621948 0.000000 0.000000 0.000000
0.676565 -0.473371 0.621857 0.000000 0.000000 0.000000
0.700434 -0.453582 0.620504 0.000000 0.000000 0.000000
0.698521 -0.514766 0.646863 0.000000 0.000000 0.000000
0.676802 -0.484993 0.619272 0.000000 0.000000 0.000000
0.729769 -0.475616 0.672689 0.000000 0.000000 0.000000
0.642638 -0.411986 0.592380 0.000000 0.000000 0.000000
0.654431 -0.370088 0.583115 0.000000 0.000000 0.000000
0.810269 -0.358296 0.666093 0.000000 0.000000 0.000000
0.673471 -0.471790 0.617770 0.000000 0.000000 0.000000
0.675667 -0.483276 0.622363 0.000000 0.000000 0.000000
0.746982 -0.464234 0.668281 0.000000 0.000000 0.000000
0.718514 -0.259476 0.582032 0.000000 0.000000 0.000000
0.741157 -0.507538 0.660426 0.000000 0.000000 0.000000
0.683504 -0.489474 0.634891 0.000000 0.000000 0.000000
0.736154 -0.477245 0.674736 0.000000 0.000000 0.000000
0.737483 -0.479256 0.663582 0.000000 0.000000 0.000000
0.717216 -0.264259 0.587197 0.000000 0.000000 0.000000
0.720608 -0.490636 0.657967 0.000000 0.000000 0.000000
0.711478 -0.289698 0.582453 0.000000 0.000000 0.000000
0.657119 -0.439381 0.596867 0.000000 0.000000 0.000000
0.657690 -0.351932 0.578002 0.000000 0.000000 0.000000
0.808021 -0.299314 0.656109 0.000000 0.000000 0.000000
0.655515 -0.447160 0.597271 0.000000 0.000000 0.000000
0.809612 -0.322860 0.652213 0.000000 0.000000 0.000000
0.806622 -0.315635 0.652906 0.000000 0.000000 0.000000
0.809625 -0.310569 0.655672 0.000000 0.000000 0.000000
0.661646 -0.462545 0.605419 0.000000 0.000000 0.000000
0.797149 -0.424204 0.677979 0.000000 0.000000 0.000000
0.657713 -0.457449 0.602687 0.000000 0.000000 0.000000
0.806861 -0.293226 0.650675 0.000000 0.000000 0.000000
0.809659 -0.304628 0.653914 0.000000 0.000000 0.000000
0.811775 -0.300448 0.653812 0.000000 0.000000 0.000000
0.703433 -0.509904 0.654951 0.000000 0.000000 0.000000
0.645792 -0.407494 0.592046 0.000000 0.000000 0.000000
0.671811 -0.482042 0.619303 0.000000 0.000000 0.000000
0.643827 -0.404349 0.589849 0.000000 0.000000 0.000000
0.709486 -0.301837 0.585846 0.000000 0.000000 0.000000
0.659324 -0.450110 0.601466 0.000000 0.000000 0.000000
0.670041 -0.330980 0.577252 0.000000 0.000000 0.000000
0.673581 -0.330877 0.574600 0.000000 0.000000 0.000000
0.717934 -0.259376 0.582539 0.000000 0.000000 0.000000
0.738845 -0.235102 0.592313 0.000000 0.000000 0.000000
0.641776 -0.400093 0.585363 0.000000 0.000000 0.000000
0.810339 -0.309845 0.656559 0.000000 0.000000 0.000000
0.801585 -0.333779 0.657601 0.000000 0.000000 0.000000
0.664992 -0.451938 0.608747 0.000000 0.000000 0.000000
0.661510 -0.344250 0.576078 0.000000 0.000000 0.000000
0.703399 -0.268489 0.579092 0.000000 0.000000 0.000000
0.784839 -0.459035 0.678045 0.000000 0.000000 0.000000
0.810784 -0.315663 0.654494 0.000000 0.000000 0.000000
0.786779 -0.307104 0.648373 0.000000 0.000000 0.000000
0.732463 -0.473430 0.674227 0.000000 0.000000 0.000000
0.761266 -0.476617 0.670781 0.000000 0.000000 0.000000
0.676218 -0.315500 0.572963 0.000000 0.000000 0.000000
0.762855 -0.486078 0.670956 0.000000 0.000000 0.000000
0.673435 -0.353570 0.577124 0.000000 0.000000 0.000000
0.774527 -0.467773 0.681996 0.000000 0.000000 0.000000
0.657964 -0.345953 0.571754 0.000000 0.000000 0.000000
0.669722 -0.350168 0.578110 0.000000 0.000000 0.000000
0.809781 -0.306746 0.654017 0.000000 0.000000 0.000000
0.671899 -0.478397 0.619959 0.000000 0.000000 0.000000
0.653239 -0.429175 0.596639 0.000000 0.000000 0.000000
0.726172 -0.504711 0.658544 0.000000 0.000000 0.000000
0.747775 -0.495656 0.660265 0.000000 0.000000 0.000000
0.737860 -0.506104 0.659378 0.000000 0.000000 0.000000
0.645655 -0.415257 0.593656 0.000000 0.000000 0.000000
0.638788 -0.400362 0.587336 0.000000 0.000000 0.000000
0.706775 -0.269075 0.578658 0.000000 0.000000 0.000000
0.747086 -0.500136 0.661109 0.000000 0.000000 0.000000
0.682594 -0.320766 0.582333 0.000000 0.000000 0.000000
0.775168 -0.469879 0.673265 0.000000 0.000000 0.000000
0.711132 -0.272832 0.579485 0.000000 0.000000 0.000000
0.732611 -0.506708 0.658803 0.000000 0.000000 0.000000
0.751598 -0.219231 0.596504 0.000000 0.000000 0.000000
0.668754 -0.327543 0.574445 0.000000 0.000000 0.000000
0.735142 -0.497478 0.657697 0.000000 0.000000 0.000000
0.771634 -0.470040 0.668475 0.000000 0.000000 0.000000
0.680795 -0.316789 0.585427 0.000000 0.000000 0.000000
0.766451 -0.475084 0.675498 0.000000 0.000000 0.000000
0.773529 -0.468260 0.671374 0.000000 0.000000 0.000000
0.742309 -0.494507 0.657938 0.000000 0.000000 0.000000
0.776957 -0.210329 0.617743 0.000000 0.000000 0.000000
0.692612 -0.302185 0.577315 0.000000 0.000000 0.000000
0.770115 -0.218401 0.610109 0.000000 0.000000 0.000000
0.780976 -0.210285 0.620887 0.000000 0.000000 0.000000
0.774427 -0.225658 0.621300 0.000000 0.000000 0.000000
0.777602 -0.223875 0.621665 0.000000 0.000000 0.000000
0.651374 -0.395889 0.590520 0.000000 0.000000 0.000000
0.812472 -0.328191 0.662514 0.000000 0.000000 0.000000
0.779088 -0.209596 0.618456 0.000000 0.000000 0.000000
0.645677 -0.393119 0.584050 0.000000 0.000000 0.000000
0.653100 -0.416543 0.594694 0.000000 0.000000 0.000000
0.643609 -0.408807 0.586699 0.000000 0.000000 0.000000
0.726218 -0.507655 0.658064 0.000000 0.000000 0.000000
0.749408 -0.500795 0.661691 0.000000 0.000000 0.000000
0.791981 -0.225342 0.628330 0.000000 0.000000 0.000000
0.813912 -0.327811 0.661076 0.000000 0.000000 0.000000
0.651756 -0.384084 0.589312 0.000000 0.000000 0.000000
0.655794 -0.402847 0.596534 0.000000 0.000000 0.000000
0.716098 -0.260101 0.583317 0.000000 0.000000 0.000000
0.747455 -0.231308 0.598532 0.000000 0.000000 0.000000
0.811183 -0.318563 0.655124 0.000000 0.000000 0.000000
0.786609 -0.216995 0.622822 0.000000 0.000000 0.000000
0.775817 -0.221014 0.615595 0.000000 0.000000 0.000000
0.650180 -0.397503 0.596460 0.000000 0.000000 0.000000
0.649405 -0.387632 0.585948 0.000000 0.000000 0.000000
0.712674 -0.258031 0.584569 0.000000 0.000000 0.000000
0.744806 -0.241163 0.600059 0.000000 0.000000 0.000000
0.811049 -0.322514 0.658348 0.000000 0.000000 0.000000
0.779625 -0.211419 0.615769 0.000000 0.000000 0.000000
0.793153 -0.239449 0.628397 0.000000 0.000000 0.000000
0.736794 -0.234057 0.588768 0.000000 0.000000 0.000000
0.793494 -0.241097 0.629180 0.000000 0.000000 0.000000
0.784465 -0.256604 0.631174 0.000000 0.000000 0.000000
0.778791 -0.229503 0.622647 0.000000 0.000000 0.000000
0.802602 -0.252161 0.639033 0.000000 0.000000 0.000000
0.798091 -0.239813 0.634197 0.000000 0.000000 0.000000
0.643958 -0.405203 0.591110 0.000000 0.000000 0.000000
0.763507 -0.216627 0.606548 0.000000 0.000000 0.000000
0.677594 -0.315681 0.573977 0.000000 0.000000 0.000000
0.672711 -0.487291 0.620148 0.000000 0.000000 0.000000
0.760349 -0.223518 0.610134 0.000000 0.000000 0.000000
0.686651 -0.496958 0.634439 0.000000 0.000000 0.000000
0.812399 -0.323693 0.663352 0.000000 0.000000 0.000000
0.686805 -0.491657 0.628937 0.000000 0.000000 0.000000
0.652323 -0.435132 0.598243 0.000000 0.000000 0.000000
0.808808 -0.307668 0.656287 0.000000 0.000000 0.000000
0.762546 -0.220764 0.606885 0.000000 0.000000 0.000000
0.682637 -0.486192 0.624010 0.000000 0.000000 0.000000
0.652248 -0.424220 0.591756 0.000000 0.000000 0.000000
0.760550 -0.224984 0.611421 0.000000 0.000000 0.000000
0.804327 -0.305209 0.647576 0.000000 0.000000 0.000000
0.643372 -0.407549 0.589784 0.000000 0.000000 0.000000
0.764306 -0.216052 0.606062 0.000000 0.000000 0.000000
0.783403 -0.211111 0.621719 0.000000 0.000000 0.000000
0.647222 -0.382788 0.584175 0.000000 0.000000 0.000000
0.645387 -0.390658 0.582759 0.000000 0.000000 0.000000
0.648383 -0.378215 0.583347 0.000000 0.000000 0.000000
0.648947 -0.396863 0.589527 0.000000 0.000000 0.000000
0.648714 -0.401487 0.591779 0.000000 0.000000 0.000000
0.645511 -0.395062 0.584852 0.000000 0.000000 0.000000
0.648400 -0.406014 0.592901 0.000000 0.000000 0.000000
0.788219 -0.222507 0.624184 0.000000 0.000000 0.000000
0.712370 -0.428266 0.629492 0.000000 0.000000 0.000000
0.745781 -0.460477 0.657909 0.000000 0.000000 0.000000
0.694146 -0.508979 0.644002 0.000000 0.000000 0.000000
0.645378 -0.396729 0.584473 0.000000 0.000000 0.000000
0.698906 -0.510023 0.646888 0.000000 0.000000 0.000000
0.735130 -0.463346 0.675216 0.000000 0.000000 0.000000
0.688381 -0.497814 0.635108 0.000000 0.000000 0.000000
0.642243 -0.391174 0.580067 0.000000 0.000000 0.000000
0.786126 -0.225387 0.622279 0.000000 0.000000 0.000000
0.644511 -0.389605 0.581000 0.000000 0.000000 0.000000
0.801539 -0.387191 0.670290 0.000000 0.000000 0.000000
0.803600 -0.391800 0.677657 0.000000 0.000000 0.000000
0.692439 -0.297156 0.570525 0.000000 0.000000 0.000000
0.694175 -0.289978 0.578290 0.000000 0.000000 0.000000
0.802260 -0.266098 0.638628 0.000000 0.000000 0.000000
0.808239 -0.276143 0.646670 0.000000 0.000000 0.000000
0.802856 -0.404050 0.679478 0.000000 0.000000 0.000000
0.676103 -0.316527 0.576744 0.000000 0.000000 0.000000
0.679237 -0.301722 0.570851 0.000000 0.000000 0.000000
0.807147 -0.381045 0.673485 0.000000 0.000000 0.000000
0.805394 -0.387670 0.672865 0.000000 0.000000 0.000000
0.700135 -0.496092 0.650544 0.000000 0.000000 0.000000
0.696989 -0.501279 0.639316 0.000000 0.000000 0.000000
0.658725 -0.457073 0.600208 0.000000 0.000000 0.000000
0.798435 -0.289701 0.645672 0.000000 0.000000 0.000000
0.713775 -0.274364 0.576556 0.000000 0.000000 0.000000
0.664351 -0.468758 0.611712 0.000000 0.000000 0.000000
0.808342 -0.376991 0.672448 0.000000 0.000000 0.000000
0.809193 -0.295728 0.653123 0.000000 0.000000 0.000000
0.695451 -0.499547 0.636432 0.000000 0.000000 0.000000
0.796013 -0.267339 0.636664 0.000000 0.000000 0.000000
0.797756 -0.293947 0.646160 0.000000 0.000000 0.000000
0.798118 -0.395730 0.674484 0.000000 0.000000 0.000000
0.811090 -0.355532 0.666870 0.000000 0.000000 0.000000
0.809919 -0.303242 0.654537 0.000000 0.000000 0.000000
0.690586 -0.498273 0.635274 0.000000 0.000000 0.000000
0.745386 -0.485844 0.660476 0.000000 0.000000 0.000000
0.788188 -0.244284 0.628773 0.000000 0.000000 0.000000
0.680497 -0.321067 0.576816 0.000000 0.000000 0.000000
0.807208 -0.277235 0.647456 0.000000 0.000000 0.000000
0.680147 -0.311913 0.575053 0.000000 0.000000 0.000000
0.685134 -0.302100 0.575458 0.000000 0.000000 0.000000
0.747798 -0.498771 0.660142 0.000000 0.000000 0.000000
0.644817 -0.392513 0.581631 0.000000 0.000000 0.000000
0.650498 -0.389366 0.589201 0.000000 0.000000 0.000000
0.650384 -0.386638 0.584735 0.000000 0.000000 0.000000
0.653017 -0.387846 0.587867 0.000000 0.000000 0.000000
0.671889 -0.333832 0.578823 0.000000 0.000000 0.000000
0.658802 -0.378905 0.591418 0.000000 0.000000 0.000000
0.757203 -0.478978 0.669050 0.000000 0.000000 0.000000
0.645260 -0.388654 0.585234 0.000000 0.000000 0.000000
0.646957 -0.381661 0.582096 0.000000 0.000000 0.000000
0.656586 -0.342271 0.569726 0.000000 0.000000 0.000000
0.671059 -0.325011 0.576321 0.000000 0.000000 0.000000
0.652560 -0.430737 0.598619 0.000000 0.000000 0.000000
0.644934 -0.397427 0.585303 0.000000 0.000000 0.000000
0.654825 -0.390384 0.591898 0.000000 0.000000 0.000000
0.802104 -0.370397 0.669889 0.000000 0.000000 0.000000
0.664901 -0.333881 0.571818 0.000000 0.000000 0.000000
0.642658 -0.385645 0.579624 0.000000 0.000000 0.000000
0.761536 -0.477419 0.669797 0.000000 0.000000 0.000000
0.648731 -0.378537 0.580461 0.000000 0.000000 0.000000
0.648490 -0.378416 0.586034 0.000000 0.000000 0.000000
0.795431 -0.272181 0.641807 0.000000 0.000000 0.000000
0.642314 -0.419924 0.591840 0.000000 0.000000 0.000000
0.667533 -0.329156 0.572914 0.000000 0.000000 0.000000
0.646700 -0.389746 0.582247 0.000000 0.000000 0.000000
0.810272 -0.358029 0.668324 0.000000 0.000000 0.000000
0.817112 -0.354689 0.667890 0.000000 0.000000 0.000000
0.683156 -0.307826 0.574092 0.000000 0.000000 0.000000
0.805438 -0.271067 0.644430 0.000000 0.000000 0.000000
0.807089 -0.272502 0.639703 0.000000 0.000000 0.000000
0.805740 -0.282726 0.644336 0.000000 0.000000 0.000000
0.684612 -0.484513 0.627203 0.000000 0.000000 0.000000
0.766671 -0.213041 0.610871 0.000000 0.000000 0.000000
0.691943 -0.485029 0.628331 0.000000 0.000000 0.000000
0.789479 -0.264809 0.633870 0.000000 0.000000 0.000000
0.662133 -0.462400 0.607175 0.000000 0.000000 0.000000
0.687148 -0.486779 0.628292 0.000000 0.000000 0.000000
0.677226 -0.483901 0.622295 0.000000 0.000000 0.000000
0.671318 -0.474012 0.614398 0.000000 0.000000 0.000000
0.660045 -0.459898 0.605663 0.000000 0.000000 0.000000
0.688339 -0.481346 0.623952 0.000000 0.000000 0.000000
0.644883 -0.387448 0.580931 0.000000 0.000000 0.000000
0.810092 -0.283246 0.650119 0.000000 0.000000 0.000000
0.805666 -0.287619 0.647787 0.000000 0.000000 0.000000
0.785212 -0.316490 0.645684 0.000000 0.000000 0.000000
0.685716 -0.492099 0.627613 0.000000 0.000000 0.000000
0.796854 -0.246782 0.633886 0.000000 0.000000 0.000000
0.675564 -0.483495 0.624042 0.000000 0.000000 0.000000
0.666600 -0.461378 0.612882 0.000000 0.000000 0.000000
0.681296 -0.495711 0.632573 0.000000 0.000000 0.000000
0.807631 -0.287413 0.647935 0.000000 0.000000 0.000000
0.797685 -0.301834 0.645872 0.000000 0.000000 0.000000
0.804835 -0.291507 0.647911 0.000000 0.000000 0.000000
0.803773 -0.254401 0.642600 0.000000 0.000000 0.000000
0.676897 -0.473564 0.627522 0.000000 0.000000 0.000000
0.667347 -0.467392 0.617170 0.000000 0.000000 0.000000
0.674247 -0.477508 0.623732 0.000000 0.000000 0.000000
0.667020 -0.465251 0.610192 0.000000 0.000000 0.000000
0.671389 -0.479163 0.618331 0.000000 0.000000 0.000000
0.728047 -0.242340 0.587921 0.000000 0.000000 0.000000
0.689362 -0.502668 0.638642 0.000000 0.000000 0.000000
0.796276 -0.236470 0.632312 0.000000 0.000000 0.000000
0.688024 -0.299523 0.577254 0.000000 0.000000 0.000000
0.767054 -0.223599 0.615323 0.000000 0.000000 0.000000
0.647223 -0.380728 0.582005 0.000000 0.000000 0.000000
0.802625 -0.254359 0.640833 0.000000 0.000000 0.000000
0.779296 -0.211490 0.619335 0.000000 0.000000 0.000000
0.795425 -0.250951 0.630828 0.000000 0.000000 0.000000
0.729436 -0.250874 0.588961 0.000000 0.000000 0.000000
0.810523 -0.371949 0.667859 0.000000 0.000000 0.000000
0.793651 -0.239439 0.634217 0.000000 0.000000 0.000000
0.794260 -0.230412 0.632415 0.000000 0.000000 0.000000
0.790615 -0.241296 0.629055 0.000000 0.000000 0.000000
0.741888 -0.499504 0.660275 0.000000 0.000000 0.000000
0.650347 -0.431479 0.596896 0.000000 0.000000 0.000000
0.744591 -0.231823 0.596714 0.000000 0.000000 0.000000
0.684604 -0.305007 0.575339 0.000000 0.000000 0.000000
0.662220 -0.459534 0.606769 0.000000 0.000000 0.000000
0.661314 -0.465086 0.607199 0.000000 0.000000 0.000000
0.759834 -0.219192 0.609645 0.000000 0.000000 0.000000
0.665627 -0.478647 0.616668 0.000000 0.000000 0.000000
0.807209 -0.328285 0.656083 0.000000 0.000000 0.000000
0.659699 -0.457097 0.603236 0.000000 0.000000 0.000000
0.641765 -0.426230 0.589736 0.000000 0.000000 0.000000
0.661292 -0.467796 0.610176 0.000000 0.000000 0.000000
0.660020 -0.424610 0.603138 0.000000 0.000000 0.000000
0.745394 -0.489151 0.660590 0.000000 0.000000 0.000000
0.662148 -0.465199 0.607970 0.000000 0.000000 0.000000
0.650893 -0.426235 0.596250 0.000000 0.000000 0.000000
0.647772 -0.389123 0.584240 0.000000 0.000000 0.000000
0.754290 -0.493867 0.666819 0.000000 0.000000 0.000000
0.666891 -0.475412 0.612162 0.000000 0.000000 0.000000
0.664377 -0.373249 0.596726 0.000000 0.000000 0.000000
0.664608 -0.466589 0.610899 0.000000 0.000000 0.000000
0.663893 -0.458506 0.607229 0.000000 0.000000 0.000000
0.664805 -0.457732 0.612790 0.000000 0.000000 0.000000
0.659515 -0.454859 0.604414 0.000000 0.000000 0.000000
0.663356 -0.463587 0.609654 0.000000 0.000000 0.000000
0.663679 -0.468342 0.612229 0.000000 0.000000 0.000000
0.655156 -0.434905 0.593786 0.000000 0.000000 0.000000
0.664273 -0.457795 0.609694 0.000000 0.000000 0.000000
0.643171 -0.424574 0.594408 0.000000 0.000000 0.000000
0.674543 -0.377093 0.604410 0.000000 0.000000 0.000000
0.669917 -0.459048 0.612430 0.000000 0.000000 0.000000
0.654249 -0.444195 0.598785 0.000000 0.000000 0.000000
0.667648 -0.453505 0.614679 0.000000 0.000000 0.000000
0.651149 -0.428863 0.596747 0.000000 0.000000 0.000000
0.656013 -0.452697 0.599816 0.000000 0.000000 0.000000
0.684265 -0.313098 0.575941 0.000000 0.000000 0.000000
0.808573 -0.311806 0.652774 0.000000 0.000000 0.000000
0.686453 -0.302896 0.573335 0.000000 0.000000 0.000000
0.694164 -0.298457 0.581191 0.000000 0.000000 0.000000
0.667832 -0.320191 0.576095 0.000000 0.000000 0.000000
0.688970 -0.296598 0.577717 0.000000 0.000000 0.000000
0.693873 -0.300190 0.576437 0.000000 0.000000 0.000000
0.683700 -0.319729 0.577225 0.000000 0.000000 0.000000
0.697452 -0.290243 0.581724 0.000000 0.000000 0.000000
0.765716 -0.481008 0.671000 0.000000 0.000000 0.000000
0.690659 -0.296768 0.574972 0.000000 0.000000 0.000000
0.760501 -0.473974 0.667250 0.000000 0.000000 0.000000
0.797455 -0.263309 0.642528 0.000000 0.000000 0.000000
0.743187 -0.467564 0.678841 0.000000 0.000000 0.000000
0.700729 -0.284440 0.575532 0.000000 0.000000 0.000000
0.756919 -0.488581 0.669292 0.000000 0.000000 0.000000
0.692310 -0.298452 0.575709 0.000000 0.000000 0.000000
0.687363 -0.300872 0.573992 0.000000 0.000000 0.000000
0.698863 -0.287611 0.576170 0.000000 0.000000 0.000000
0.680299 -0.300930 0.569449 0.000000 0.000000 0.000000
0.691209 -0.307146 0.577240 0.000000 0.000000 0.000000
0.682506 -0.299700 0.576566 0.000000 0.000000 0.000000
0.693844 -0.302164 0.581476 0.000000 0.000000 0.000000
0.657254 -0.352609 0.574473 0.000000 0.000000 0.000000
0.728844 -0.465872 0.668545 0.000000 0.000000 0.000000
0.699595 -0.291449 0.577370 0.000000 0.000000 0.000000
0.656899 -0.423036 0.603949 0.000000 0.000000 0.000000
0.680625 -0.308025 0.571515 0.000000 0.000000 0.000000
0.658843 -0.344982 0.574715 0.000000 0.000000 0.000000
0.659310 -0.439690 0.596915 0.000000 0.000000 0.000000
0.647295 -0.432363 0.596442 0.000000 0.000000 0.000000
0.650695 -0.429632 0.594709 0.000000 0.000000 0.000000
0.773482 -0.474422 0.680317 0.000000 0.000000 0.000000
0.658636 -0.430751 0.598685 0.000000 0.000000 0.000000
0.654055 -0.435733 0.595488 0.000000 0.000000 0.000000
0.653035 -0.437545 0.594785 0.000000 0.000000 0.000000
0.650004 -0.425062 0.595545 0.000000 0.000000 0.000000
0.772442 -0.468869 0.670679 0.000000 0.000000 0.000000
0.656362 -0.429500 0.595014 0.000000 0.000000 0.000000
0.653162 -0.421913 0.598377 0.000000 0.000000 0.000000
0.656134 -0.438107 0.597444 0.000000 0.000000 0.000000
0.654882 -0.431360 0.594873 0.000000 0.000000 0.000000
0.759125 -0.480876 0.669403 0.000000 0.000000 0.000000
0.783708 -0.443637 0.681391 0.000000 0.000000 0.000000
0.701667 -0.512387 0.652301 0.000000 0.000000 0.000000
0.747238 -0.486471 0.670429 0.000000 0.000000 0.000000
0.758912 -0.483237 0.667391 0.000000 0.000000 0.000000
0.772520 -0.464701 0.668135 0.000000 0.000000 0.000000
0.777199 -0.434095 0.683028 0.000000 0.000000 0.000000
0.757883 -0.470153 0.678769 0.000000 0.000000 0.000000
0.750601 -0.469451 0.668726 0.000000 0.000000 0.000000
0.770244 -0.471975 0.675804 0.000000 0.000000 0.000000
0.776145 -0.469367 0.676980 0.000000 0.000000 0.000000
0.754738 -0.495621 0.665150 0.000000 0.000000 0.000000
0.700910 -0.515036 0.640001 0.000000 0.000000 0.000000
0.698475 -0.514420 0.644854 0.000000 0.000000 0.000000
0.800002 -0.254377 0.635248 0.000000 0.000000 0.000000
0.777623 -0.460409 0.668921 0.000000 0.000000 0.000000
0.762532 -0.216224 0.604968 0.000000 0.000000 0.000000
0.774990 -0.216554 0.618318 0.000000 0.000000 0.000000
0.647304 -0.374013 0.582034 0.000000 0.000000 0.000000
0.765936 -0.465839 0.666295 0.000000 0.000000 0.000000
0.697326 -0.505561 0.649634 0.000000 0.000000 0.000000
0.693159 -0.509249 0.638646 0.000000 0.000000 0.000000
0.761636 -0.360628 0.649401 0.000000 0.000000 0.000000
0.738653 -0.285209 0.610288 0.000000 0.000000 0.000000
0.759601 -0.377310 0.635449 0.000000 0.000000 0.000000
0.701806 -0.461901 0.644656 0.000000 0.000000 0.000000
0.747076 -0.463362 0.664882 0.000000 0.000000 0.000000
0.787141 -0.328065 0.644401 0.000000 0.000000 0.000000
0.771751 -0.292558 0.632753 0.000000 0.000000 0.000000
0.740968 -0.403609 0.633200 0.000000 0.000000 0.000000
0.776121 -0.435007 0.675818 0.000000 0.000000 0.000000
0.749565 -0.358367 0.638368 0.000000 0.000000 0.000000
0.649659 -0.388450 0.579564 0.000000 0.000000 0.000000
0.788202 -0.267761 0.633373 0.000000 0.000000 0.000000
0.683463 -0.360552 0.603005 0.000000 0.000000 0.000000
0.745542 -0.312742 0.622859 0.000000 0.000000 0.000000
0.727689 -0.358566 0.632833 0.000000 0.000000 0.000000
0.682246 -0.365396 0.596266 0.000000 0.000000 0.000000
0.700544 -0.436829 0.628286 0.000000 0.000000 0.000000
0.745267 -0.369517 0.642152 0.000000 0.000000 0.000000
0.701395 -0.469555 0.638722 0.000000 0.000000 0.000000
0.687544 -0.468677 0.632122 0.000000 0.000000 0.000000
0.750034 -0.287122 0.623694 0.000000 0.000000 0.000000
0.736428 -0.383176 0.642978 0.000000 0.000000 0.000000
0.740150 -0.452783 0.654662 0.000000 0.000000 0.000000
0.687017 -0.468032 0.629601 0.000000 0.000000 0.000000
0.728071 -0.338575 0.627483 0.000000 0.000000 0.000000
0.739997 -0.359295 0.614885 0.000000 0.000000 0.000000
0.739118 -0.391308 0.636789 0.000000 0.000000 0.000000
0.732420 -0.346185 0.619043 0.000000 0.000000 0.000000
0.683634 -0.457527 0.627911 0.000000 0.000000 0.000000
0.740993 -0.387734 0.640975 0.000000 0.000000 0.000000
0.724598 -0.473371 0.651491 0.000000 0.000000 0.000000
0.717688 -0.338178 0.611001 0.000000 0.000000 0.000000
0.732018 -0.396831 0.642621 0.000000 0.000000 0.000000
0.737428 -0.413057 0.649447 0.000000 0.000000 0.000000
0.745626 -0.376429 0.643777 0.000000 0.000000 0.000000
0.694131 -0.403865 0.609069 0.000000 0.000000 0.000000
0.766444 -0.453325 0.668422 0.000000 0.000000 0.000000
0.755242 -0.482518 0.664947 0.000000 0.000000 0.000000
0.736283 -0.321759 0.621488 0.000000 0.000000 0.000000
0.742591 -0.287068 0.617741 0.000000 0.000000 0.000000
0.698222 -0.477433 0.647419 0.000000 0.000000 0.000000
0.749136 -0.231360 0.598052 0.000000 0.000000 0.000000
0.786681 -0.437417 0.672426 0.000000 0.000000 0.000000
0.710832 -0.350535 0.597099 0.000000 0.000000 0.000000
0.704147 -0.415269 0.623357 0.000000 0.000000 0.000000
0.673120 -0.481728 0.620457 0.000000 0.000000 0.000000
0.764179 -0.461257 0.677123 0.000000 0.000000 0.000000
0.711402 -0.371175 0.612195 0.000000 0.000000 0.000000
0.783547 -0.443680 0.671958 0.000000 0.000000 0.000000
0.736308 -0.382339 0.642888 0.000000 0.000000 0.000000
0.749680 -0.391152 0.645328 0.000000 0.000000 0.000000
0.710622 -0.470845 0.651088 0.000000 0.000000 0.000000
0.662347 -0.377669 0.592837 0.000000 0.000000 0.000000
0.703387 -0.476222 0.644022 0.000000 0.000000 0.000000
0.698997 -0.516377 0.646952 0.000000 0.000000 0.000000
0.653885 -0.372562 0.575307 0.000000 0.000000 0.000000
0.749307 -0.381979 0.642012 0.000000 0.000000 0.000000
0.749932 -0.310320 0.618226 0.000000 0.000000 0.000000
0.760455 -0.317675 0.636140 0.000000 0.000000 0.000000
0.709618 -0.502029 0.645661 0.000000 0.000000 0.000000
0.761580 -0.449160 0.666857 0.000000 0.000000 0.000000
0.755017 -0.378701 0.643927 0.000000 0.000000 0.000000
0.752273 -0.306904 0.631240 0.000000 0.000000 0.000000
0.741844 -0.389045 0.626597 0.000000 0.000000 0.000000
0.765428 -0.474072 0.669349 0.000000 0.000000 0.000000
0.749332 -0.371282 0.646741 0.000000 0.000000 0.000000
0.775851 -0.292164 0.635174 0.000000 0.000000 0.000000
0.742690 -0.326352 0.631215 0.000000 0.000000 0.000000
0.717884 -0.336543 0.620032 0.000000 0.000000 0.000000
0.691043 -0.449528 0.625984 0.000000 0.000000 0.000000
0.695494 -0.457037 0.637176 0.000000 0.000000 0.000000
0.741410 -0.363299 0.641546 0.000000 0.000000 0.000000
0.700933 -0.464690 0.638025 0.000000 0.000000 0.000000
0.703660 -0.489605 0.645300 0.000000 0.000000 0.000000
0.761204 -0.243335 0.618273 0.000000 0.000000 0.000000
0.741383 -0.398930 0.647227 0.000000 0.000000 0.000000
0.723097 -0.469059 0.654834 0.000000 0.000000 0.000000
0.678744 -0.457387 0.614002 0.000000 0.000000 0.000000
0.755747 -0.371624 0.643701 0.000000 0.000000 0.000000
0.743978 -0.410077 0.646627 0.000000 0.000000 0.000000
0.737474 -0.398130 0.646017 0.000000 0.000000 0.000000
0.734520 -0.351264 0.619768 0.000000 0.000000 0.000000
0.678743 -0.486688 0.624975 0.000000 0.000000 0.000000
0.752483 -0.387585 0.648248 0.000000 0.000000 0.000000
0.727751 -0.480202 0.658503 0.000000 0.000000 0.000000
0.752406 -0.291115 0.625988 0.000000 0.000000 0.000000
0.716933 -0.379527 0.631327 0.000000 0.000000 0.000000
0.734191 -0.404253 0.659175 0.000000 0.000000 0.000000
0.740335 -0.338455 0.633601 0.000000 0.000000 0.000000
0.716970 -0.342781 0.601265 0.000000 0.000000 0.000000
