ply
format ascii 1.0
comment VCGLIB generated
obj_info Generated by SPFormer!
element vertex 884
property float x
property float y
property float z
property float nx
property float ny
property float nz
end_header
0.288599 0.957378 2.137995 0.000000 0.000000 0.000000
0.403462 0.836484 2.071486 0.000000 0.000000 0.000000
0.341614 0.752935 2.128457 0.000000 0.000000 0.000000
0.211715 0.943100 2.186778 0.000000 0.000000 0.000000
0.239745 0.840958 2.164844 0.000000 0.000000 0.000000
0.352097 0.758094 2.123624 0.000000 0.000000 0.000000
0.399558 0.882947 2.054476 0.000000 0.000000 0.000000
0.311402 0.944008 2.106551 0.000000 0.000000 0.000000
0.253809 0.987225 2.182292 0.000000 0.000000 0.000000
0.301067 0.944803 2.117790 0.000000 0.000000 0.000000
0.216245 0.945014 2.184767 0.000000 0.000000 0.000000
0.312040 0.937622 2.110013 0.000000 0.000000 0.000000
0.404654 0.848010 2.067348 0.000000 0.000000 0.000000
0.289553 0.753761 2.123323 0.000000 0.000000 0.000000
0.392918 0.853373 2.068513 0.000000 0.000000 0.000000
0.274994 0.761343 2.126600 0.000000 0.000000 0.000000
0.201012 0.940810 2.184262 0.000000 0.000000 0.000000
0.331212 0.941180 2.077392 0.000000 0.000000 0.000000
0.249164 0.975353 2.180800 0.000000 0.000000 0.000000
0.315170 0.938284 2.101396 0.000000 0.000000 0.000000
0.325776 0.749833 2.128833 0.000000 0.000000 0.000000
0.362692 0.761551 2.123766 0.000000 0.000000 0.000000
0.393841 0.874191 2.061756 0.000000 0.000000 0.000000
0.338348 0.907830 2.089549 0.000000 0.000000 0.000000
0.273397 0.790207 2.134688 0.000000 0.000000 0.000000
0.309580 0.764480 2.126574 0.000000 0.000000 0.000000
0.193047 0.943697 2.187593 0.000000 0.000000 0.000000
0.277435 0.945134 2.147326 0.000000 0.000000 0.000000
0.236032 0.930704 2.168769 0.000000 0.000000 0.000000
0.392291 0.748681 2.114734 0.000000 0.000000 0.000000
0.254115 0.968675 2.173973 0.000000 0.000000 0.000000
0.207267 0.919580 2.177797 0.000000 0.000000 0.000000
0.318569 0.936933 2.097970 0.000000 0.000000 0.000000
0.409516 0.856606 2.056675 0.000000 0.000000 0.000000
0.309223 0.753377 2.131603 0.000000 0.000000 0.000000
0.307198 0.742486 2.136482 0.000000 0.000000 0.000000
0.398902 0.858723 2.065763 0.000000 0.000000 0.000000
0.242282 0.914615 2.161668 0.000000 0.000000 0.000000
0.426525 0.796152 2.079450 0.000000 0.000000 0.000000
0.325633 0.741845 2.140272 0.000000 0.000000 0.000000
0.337430 0.920390 2.082506 0.000000 0.000000 0.000000
0.293859 0.937155 2.131962 0.000000 0.000000 0.000000
0.338931 0.883300 2.095298 0.000000 0.000000 0.000000
0.377984 0.908563 2.063710 0.000000 0.000000 0.000000
0.376624 0.917136 2.063612 0.000000 0.000000 0.000000
0.263403 0.804086 2.150366 0.000000 0.000000 0.000000
0.323554 0.949413 2.084840 0.000000 0.000000 0.000000
0.379976 0.762204 2.109772 0.000000 0.000000 0.000000
0.367569 0.910397 2.069244 0.000000 0.000000 0.000000
0.247943 0.971083 2.179189 0.000000 0.000000 0.000000
0.380675 0.885627 2.065684 0.000000 0.000000 0.000000
0.385066 0.889960 2.059020 0.000000 0.000000 0.000000
0.262735 0.765726 2.129148 0.000000 0.000000 0.000000
0.310685 0.951393 2.101902 0.000000 0.000000 0.000000
0.401146 0.749751 2.106995 0.000000 0.000000 0.000000
0.377189 0.882262 2.072227 0.000000 0.000000 0.000000
0.179958 0.914107 2.175798 0.000000 0.000000 0.000000
0.378556 0.751251 2.134130 0.000000 0.000000 0.000000
0.218617 0.976745 2.193625 0.000000 0.000000 0.000000
0.250287 0.848957 2.157711 0.000000 0.000000 0.000000
0.351219 0.807880 2.107319 0.000000 0.000000 0.000000
0.306572 0.952432 2.111200 0.000000 0.000000 0.000000
0.383130 0.900371 2.061699 0.000000 0.000000 0.000000
0.228001 0.977014 2.189621 0.000000 0.000000 0.000000
0.315111 0.948664 2.100100 0.000000 0.000000 0.000000
0.191321 0.891634 2.169532 0.000000 0.000000 0.000000
0.378033 0.860592 2.082155 0.000000 0.000000 0.000000
0.350995 0.912080 2.078916 0.000000 0.000000 0.000000
0.360905 0.907041 2.073642 0.000000 0.000000 0.000000
0.242570 0.781897 2.145480 0.000000 0.000000 0.000000
0.207214 0.897851 2.168751 0.000000 0.000000 0.000000
0.215214 0.952839 2.187473 0.000000 0.000000 0.000000
0.330196 0.909754 2.092758 0.000000 0.000000 0.000000
0.301230 0.758214 2.124200 0.000000 0.000000 0.000000
0.297982 0.952111 2.123811 0.000000 0.000000 0.000000
0.309370 0.950705 2.103315 0.000000 0.000000 0.000000
0.274480 0.807280 2.141281 0.000000 0.000000 0.000000
0.324497 0.734981 2.148786 0.000000 0.000000 0.000000
0.237251 0.926068 2.167319 0.000000 0.000000 0.000000
0.241731 0.849208 2.156944 0.000000 0.000000 0.000000
0.252116 0.984104 2.182338 0.000000 0.000000 0.000000
0.307843 0.978647 2.100078 0.000000 0.000000 0.000000
0.313049 0.743233 2.134013 0.000000 0.000000 0.000000
0.230323 0.945113 2.176505 0.000000 0.000000 0.000000
0.301131 0.961457 2.119506 0.000000 0.000000 0.000000
0.316398 0.945638 2.096096 0.000000 0.000000 0.000000
0.194299 0.911987 2.174006 0.000000 0.000000 0.000000
0.368733 0.740380 2.142601 0.000000 0.000000 0.000000
0.318787 0.749944 2.128308 0.000000 0.000000 0.000000
0.381847 0.752065 2.120535 0.000000 0.000000 0.000000
0.185060 0.914794 2.174426 0.000000 0.000000 0.000000
0.274859 0.976178 2.158491 0.000000 0.000000 0.000000
0.216478 0.959344 2.188874 0.000000 0.000000 0.000000
0.263634 0.773891 2.134110 0.000000 0.000000 0.000000
0.306080 0.966076 2.109172 0.000000 0.000000 0.000000
0.277013 0.935405 2.144909 0.000000 0.000000 0.000000
0.313838 0.934396 2.097993 0.000000 0.000000 0.000000
0.387867 0.867745 2.069641 0.000000 0.000000 0.000000
0.297854 0.971058 2.126946 0.000000 0.000000 0.000000
0.260589 0.809031 2.149471 0.000000 0.000000 0.000000
0.207597 0.956444 2.188494 0.000000 0.000000 0.000000
0.228558 0.921617 2.168840 0.000000 0.000000 0.000000
0.229809 0.955895 2.182563 0.000000 0.000000 0.000000
0.332308 0.941594 2.078563 0.000000 0.000000 0.000000
0.352451 0.742369 2.142226 0.000000 0.000000 0.000000
0.317207 0.771990 2.129750 0.000000 0.000000 0.000000
0.358083 0.917958 2.073742 0.000000 0.000000 0.000000
0.403918 0.868174 2.056142 0.000000 0.000000 0.000000
0.269950 0.984535 2.169155 0.000000 0.000000 0.000000
0.280631 0.765024 2.124001 0.000000 0.000000 0.000000
0.251492 0.956149 2.169739 0.000000 0.000000 0.000000
0.342835 0.747582 2.135826 0.000000 0.000000 0.000000
0.208296 0.896686 2.164636 0.000000 0.000000 0.000000
0.215861 0.914833 2.169220 0.000000 0.000000 0.000000
0.221007 0.947909 2.185266 0.000000 0.000000 0.000000
0.308603 0.921837 2.113816 0.000000 0.000000 0.000000
0.318800 0.961606 2.085826 0.000000 0.000000 0.000000
0.265616 0.772029 2.130313 0.000000 0.000000 0.000000
0.367927 0.905709 2.069793 0.000000 0.000000 0.000000
0.247120 0.965843 2.177501 0.000000 0.000000 0.000000
0.299502 0.942329 2.121473 0.000000 0.000000 0.000000
0.284917 0.967466 2.142458 0.000000 0.000000 0.000000
0.289665 0.953245 2.137074 0.000000 0.000000 0.000000
0.240505 0.965908 2.180081 0.000000 0.000000 0.000000
0.321321 0.947820 2.088830 0.000000 0.000000 0.000000
0.327271 0.746094 2.134133 0.000000 0.000000 0.000000
0.204055 0.963577 2.193165 0.000000 0.000000 0.000000
0.319198 0.916967 2.101272 0.000000 0.000000 0.000000
0.276592 0.786919 2.136957 0.000000 0.000000 0.000000
0.333264 0.739233 2.143990 0.000000 0.000000 0.000000
0.199609 0.871634 2.174312 0.000000 0.000000 0.000000
0.367236 0.880474 2.077298 0.000000 0.000000 0.000000
0.266863 0.979482 2.165731 0.000000 0.000000 0.000000
0.298586 0.919329 2.122788 0.000000 0.000000 0.000000
0.223802 0.956812 2.185364 0.000000 0.000000 0.000000
0.356757 0.890236 2.079555 0.000000 0.000000 0.000000
0.211818 0.948185 2.186697 0.000000 0.000000 0.000000
0.276821 0.793127 2.132732 0.000000 0.000000 0.000000
0.261426 0.786524 2.139668 0.000000 0.000000 0.000000
0.345091 0.930952 2.075017 0.000000 0.000000 0.000000
0.283438 0.972391 2.145954 0.000000 0.000000 0.000000
0.231595 0.977698 2.188624 0.000000 0.000000 0.000000
0.197214 0.879687 2.164291 0.000000 0.000000 0.000000
0.295568 0.977003 2.134806 0.000000 0.000000 0.000000
0.321303 0.928803 2.097646 0.000000 0.000000 0.000000
0.305537 0.977988 2.111684 0.000000 0.000000 0.000000
0.376113 0.900845 2.069227 0.000000 0.000000 0.000000
0.232906 0.947390 2.177077 0.000000 0.000000 0.000000
0.252019 0.782397 2.141000 0.000000 0.000000 0.000000
0.311213 0.953329 2.108157 0.000000 0.000000 0.000000
0.290694 0.969187 2.137193 0.000000 0.000000 0.000000
0.345316 0.740252 2.151144 0.000000 0.000000 0.000000
0.211763 0.961275 2.190408 0.000000 0.000000 0.000000
0.309323 0.973395 2.098163 0.000000 0.000000 0.000000
0.232979 0.962588 2.183667 0.000000 0.000000 0.000000
0.243563 0.825499 2.163547 0.000000 0.000000 0.000000
0.176852 0.925533 2.182451 0.000000 0.000000 0.000000
0.216627 0.866411 2.178490 0.000000 0.000000 0.000000
0.383320 0.751484 2.120115 0.000000 0.000000 0.000000
0.194097 0.936074 2.183897 0.000000 0.000000 0.000000
0.243479 0.798339 2.157017 0.000000 0.000000 0.000000
0.192304 0.906290 2.174687 0.000000 0.000000 0.000000
0.369966 0.746090 2.129902 0.000000 0.000000 0.000000
0.264699 0.769086 2.130586 0.000000 0.000000 0.000000
0.235505 0.951353 2.177523 0.000000 0.000000 0.000000
0.336092 0.935606 2.076260 0.000000 0.000000 0.000000
0.338633 0.750919 2.129818 0.000000 0.000000 0.000000
0.301825 0.980628 2.122560 0.000000 0.000000 0.000000
0.378308 0.907788 2.063445 0.000000 0.000000 0.000000
0.233301 0.983011 2.191272 0.000000 0.000000 0.000000
0.179093 0.904911 2.175560 0.000000 0.000000 0.000000
0.387279 0.899772 2.057116 0.000000 0.000000 0.000000
0.189617 0.923308 2.178721 0.000000 0.000000 0.000000
0.336691 0.942952 2.073913 0.000000 0.000000 0.000000
0.285379 0.979976 2.151608 0.000000 0.000000 0.000000
0.305164 0.974975 2.111778 0.000000 0.000000 0.000000
0.365279 0.743595 2.142977 0.000000 0.000000 0.000000
0.337222 0.741540 2.141304 0.000000 0.000000 0.000000
0.245502 0.833011 2.160341 0.000000 0.000000 0.000000
0.368755 0.919491 2.067936 0.000000 0.000000 0.000000
0.303605 0.975497 2.115252 0.000000 0.000000 0.000000
0.286912 0.954947 2.141212 0.000000 0.000000 0.000000
0.321380 0.944291 2.086660 0.000000 0.000000 0.000000
0.227313 0.857713 2.162668 0.000000 0.000000 0.000000
0.233702 0.860879 2.165391 0.000000 0.000000 0.000000
0.301329 0.977951 2.121206 0.000000 0.000000 0.000000
0.357783 0.938473 2.069807 0.000000 0.000000 0.000000
0.309008 0.965384 2.104244 0.000000 0.000000 0.000000
0.348406 0.919775 2.079568 0.000000 0.000000 0.000000
0.314428 0.958315 2.094488 0.000000 0.000000 0.000000
0.350789 0.938456 2.069400 0.000000 0.000000 0.000000
0.206464 0.871799 2.174345 0.000000 0.000000 0.000000
0.312306 0.953030 2.104370 0.000000 0.000000 0.000000
0.292233 0.986049 2.145056 0.000000 0.000000 0.000000
0.370170 0.753109 2.125406 0.000000 0.000000 0.000000
0.402346 0.885294 2.055834 0.000000 0.000000 0.000000
0.245085 0.970933 2.175298 0.000000 0.000000 0.000000
0.241938 0.821277 2.164887 0.000000 0.000000 0.000000
0.304338 0.961565 2.113052 0.000000 0.000000 0.000000
0.372238 0.908554 2.066677 0.000000 0.000000 0.000000
0.242935 0.961510 2.176801 0.000000 0.000000 0.000000
0.233408 0.973181 2.186171 0.000000 0.000000 0.000000
0.300658 0.965709 2.119140 0.000000 0.000000 0.000000
0.370700 0.749092 2.129328 0.000000 0.000000 0.000000
0.311910 0.946913 2.102518 0.000000 0.000000 0.000000
0.300932 0.976861 2.129657 0.000000 0.000000 0.000000
0.220019 0.853331 2.170656 0.000000 0.000000 0.000000
0.214933 0.962107 2.190697 0.000000 0.000000 0.000000
0.217926 0.965691 2.189161 0.000000 0.000000 0.000000
0.238013 0.833733 2.166983 0.000000 0.000000 0.000000
0.388618 0.906276 2.056084 0.000000 0.000000 0.000000
0.295268 0.981602 2.140944 0.000000 0.000000 0.000000
0.243108 0.807090 2.162956 0.000000 0.000000 0.000000
0.339844 0.920749 2.080426 0.000000 0.000000 0.000000
0.316652 0.955221 2.096795 0.000000 0.000000 0.000000
0.340873 0.914987 2.075982 0.000000 0.000000 0.000000
0.386165 0.753120 2.116473 0.000000 0.000000 0.000000
0.202792 0.866552 2.173305 0.000000 0.000000 0.000000
0.327119 0.941768 2.081980 0.000000 0.000000 0.000000
0.387109 0.749109 2.123300 0.000000 0.000000 0.000000
0.175402 0.905041 2.174936 0.000000 0.000000 0.000000
0.374595 0.746336 2.129394 0.000000 0.000000 0.000000
0.173348 0.912374 2.178332 0.000000 0.000000 0.000000
0.315607 0.737899 2.140432 0.000000 0.000000 0.000000
0.322866 0.951321 2.080278 0.000000 0.000000 0.000000
0.254185 0.800392 2.151890 0.000000 0.000000 0.000000
0.298147 0.965564 2.125043 0.000000 0.000000 0.000000
0.351792 0.740026 2.147782 0.000000 0.000000 0.000000
0.369394 0.909096 2.068605 0.000000 0.000000 0.000000
0.206871 0.954983 2.193061 0.000000 0.000000 0.000000
0.323654 0.738451 2.144167 0.000000 0.000000 0.000000
0.323036 0.928513 2.094847 0.000000 0.000000 0.000000
0.317687 0.954771 2.088381 0.000000 0.000000 0.000000
0.360968 0.912740 2.071732 0.000000 0.000000 0.000000
0.413967 0.861191 2.051066 0.000000 0.000000 0.000000
0.325970 0.926420 2.093465 0.000000 0.000000 0.000000
0.381857 0.762468 2.123839 0.000000 0.000000 0.000000
0.316014 0.870043 2.115148 0.000000 0.000000 0.000000
0.237703 0.937272 2.169910 0.000000 0.000000 0.000000
0.234445 0.911047 2.162664 0.000000 0.000000 0.000000
0.298533 0.817756 2.132776 0.000000 0.000000 0.000000
0.228707 0.879279 2.155314 0.000000 0.000000 0.000000
0.258555 0.815606 2.151101 0.000000 0.000000 0.000000
0.303553 0.816294 2.124737 0.000000 0.000000 0.000000
0.274415 0.836927 2.141349 0.000000 0.000000 0.000000
0.249675 0.818936 2.158087 0.000000 0.000000 0.000000
0.326492 0.857652 2.113108 0.000000 0.000000 0.000000
0.247238 0.801632 2.155002 0.000000 0.000000 0.000000
0.369247 0.820890 2.095962 0.000000 0.000000 0.000000
0.285882 0.807042 2.132523 0.000000 0.000000 0.000000
0.252302 0.788876 2.145490 0.000000 0.000000 0.000000
0.287881 0.960054 2.138942 0.000000 0.000000 0.000000
0.274894 0.944632 2.146405 0.000000 0.000000 0.000000
0.291384 0.886531 2.134891 0.000000 0.000000 0.000000
0.276560 0.797926 2.136919 0.000000 0.000000 0.000000
0.246874 0.924536 2.162119 0.000000 0.000000 0.000000
0.287362 0.829777 2.132283 0.000000 0.000000 0.000000
0.206902 0.928155 2.180815 0.000000 0.000000 0.000000
0.386695 0.820494 2.095561 0.000000 0.000000 0.000000
0.400237 0.773807 2.095728 0.000000 0.000000 0.000000
0.277597 0.843328 2.137702 0.000000 0.000000 0.000000
0.347395 0.902834 2.085280 0.000000 0.000000 0.000000
0.267980 0.927533 2.148066 0.000000 0.000000 0.000000
0.224845 0.897819 2.167574 0.000000 0.000000 0.000000
0.215268 0.853435 2.175261 0.000000 0.000000 0.000000
0.356711 0.938644 2.069358 0.000000 0.000000 0.000000
0.270507 0.931190 2.150292 0.000000 0.000000 0.000000
0.290255 0.735735 2.133004 0.000000 0.000000 0.000000
0.369652 0.817452 2.095757 0.000000 0.000000 0.000000
0.391624 0.894704 2.057621 0.000000 0.000000 0.000000
0.203151 0.951694 2.190849 0.000000 0.000000 0.000000
0.404114 0.744811 2.102347 0.000000 0.000000 0.000000
0.265305 0.925532 2.151890 0.000000 0.000000 0.000000
0.278641 0.813562 2.139243 0.000000 0.000000 0.000000
0.293883 0.882151 2.126548 0.000000 0.000000 0.000000
0.268212 0.890583 2.143217 0.000000 0.000000 0.000000
0.379964 0.787726 2.096249 0.000000 0.000000 0.000000
0.203461 0.891349 2.165343 0.000000 0.000000 0.000000
0.266762 0.853486 2.142397 0.000000 0.000000 0.000000
0.251354 0.857036 2.154003 0.000000 0.000000 0.000000
0.288636 0.785517 2.126428 0.000000 0.000000 0.000000
0.394512 0.794303 2.091880 0.000000 0.000000 0.000000
0.328891 0.930611 2.090607 0.000000 0.000000 0.000000
0.288918 0.926028 2.134690 0.000000 0.000000 0.000000
0.263059 0.822687 2.148979 0.000000 0.000000 0.000000
0.255450 0.839140 2.152957 0.000000 0.000000 0.000000
0.306298 0.885880 2.118661 0.000000 0.000000 0.000000
0.351380 0.747690 2.135008 0.000000 0.000000 0.000000
0.270429 0.863475 2.140923 0.000000 0.000000 0.000000
0.290866 0.971718 2.140275 0.000000 0.000000 0.000000
0.266276 0.787323 2.137831 0.000000 0.000000 0.000000
0.255282 0.895086 2.154924 0.000000 0.000000 0.000000
0.390774 0.776253 2.097492 0.000000 0.000000 0.000000
0.268874 0.925389 2.147857 0.000000 0.000000 0.000000
0.342832 0.749776 2.121417 0.000000 0.000000 0.000000
0.335782 0.836210 2.107452 0.000000 0.000000 0.000000
0.270163 0.800087 2.141732 0.000000 0.000000 0.000000
0.211252 0.941452 2.182659 0.000000 0.000000 0.000000
0.396384 0.740766 2.119282 0.000000 0.000000 0.000000
0.300445 0.737782 2.135667 0.000000 0.000000 0.000000
0.265247 0.775182 2.133114 0.000000 0.000000 0.000000
0.339860 0.746912 2.135425 0.000000 0.000000 0.000000
0.289248 0.936550 2.134091 0.000000 0.000000 0.000000
0.386176 0.774769 2.099426 0.000000 0.000000 0.000000
0.393474 0.757261 2.114295 0.000000 0.000000 0.000000
0.361949 0.904755 2.077609 0.000000 0.000000 0.000000
0.207890 0.966495 2.192854 0.000000 0.000000 0.000000
0.240801 0.935046 2.168834 0.000000 0.000000 0.000000
0.208973 0.969212 2.194216 0.000000 0.000000 0.000000
0.391402 0.758875 2.108371 0.000000 0.000000 0.000000
0.393036 0.749829 2.117896 0.000000 0.000000 0.000000
0.402094 0.741170 2.112514 0.000000 0.000000 0.000000
0.388088 0.747715 2.125824 0.000000 0.000000 0.000000
0.392381 0.889687 2.056230 0.000000 0.000000 0.000000
0.273438 0.915712 2.146039 0.000000 0.000000 0.000000
0.316408 0.961862 2.085260 0.000000 0.000000 0.000000
0.420460 0.786029 2.084498 0.000000 0.000000 0.000000
0.308612 0.974364 2.103604 0.000000 0.000000 0.000000
0.357400 0.926214 2.074040 0.000000 0.000000 0.000000
0.261599 0.986458 2.177574 0.000000 0.000000 0.000000
0.199484 0.888457 2.165190 0.000000 0.000000 0.000000
0.342417 0.753052 2.136317 0.000000 0.000000 0.000000
0.285613 0.932967 2.142267 0.000000 0.000000 0.000000
0.369794 0.762300 2.113467 0.000000 0.000000 0.000000
0.384190 0.898704 2.060699 0.000000 0.000000 0.000000
0.298295 0.925296 2.124078 0.000000 0.000000 0.000000
0.317948 0.951388 2.086694 0.000000 0.000000 0.000000
0.388691 0.908782 2.055331 0.000000 0.000000 0.000000
0.248944 0.805312 2.156740 0.000000 0.000000 0.000000
0.384941 0.737818 2.132917 0.000000 0.000000 0.000000
0.209158 0.976890 2.200310 0.000000 0.000000 0.000000
0.372275 0.895845 2.070176 0.000000 0.000000 0.000000
0.366914 0.748077 2.135098 0.000000 0.000000 0.000000
0.315599 0.819411 2.122538 0.000000 0.000000 0.000000
0.299201 0.828393 2.127983 0.000000 0.000000 0.000000
0.366768 0.791404 2.118664 0.000000 0.000000 0.000000
0.275748 0.926791 2.146152 0.000000 0.000000 0.000000
0.387069 0.904533 2.057865 0.000000 0.000000 0.000000
0.385584 0.790510 2.109225 0.000000 0.000000 0.000000
0.266167 0.942724 2.155714 0.000000 0.000000 0.000000
0.382022 0.909886 2.062240 0.000000 0.000000 0.000000
0.232319 0.967210 2.182320 0.000000 0.000000 0.000000
0.361991 0.756984 2.128897 0.000000 0.000000 0.000000
0.387554 0.890524 2.060360 0.000000 0.000000 0.000000
0.350437 0.922479 2.077625 0.000000 0.000000 0.000000
0.387993 0.745522 2.129897 0.000000 0.000000 0.000000
0.244137 0.943535 2.166735 0.000000 0.000000 0.000000
0.266306 0.830501 2.146477 0.000000 0.000000 0.000000
0.243624 0.932790 2.167461 0.000000 0.000000 0.000000
0.385203 0.769058 2.105714 0.000000 0.000000 0.000000
0.282002 0.769586 2.127077 0.000000 0.000000 0.000000
0.207185 0.959677 2.191738 0.000000 0.000000 0.000000
0.411213 0.783254 2.091382 0.000000 0.000000 0.000000
0.421647 0.835212 2.060414 0.000000 0.000000 0.000000
0.296790 0.753331 2.127181 0.000000 0.000000 0.000000
0.259320 0.793118 2.146168 0.000000 0.000000 0.000000
0.245698 0.806625 2.158399 0.000000 0.000000 0.000000
0.235073 0.798776 2.164186 0.000000 0.000000 0.000000
0.290264 0.793496 2.135038 0.000000 0.000000 0.000000
0.306382 0.950738 2.118842 0.000000 0.000000 0.000000
0.246951 0.772010 2.135906 0.000000 0.000000 0.000000
0.240298 0.813328 2.165135 0.000000 0.000000 0.000000
0.267758 0.797555 2.142064 0.000000 0.000000 0.000000
0.428896 0.806229 2.071360 0.000000 0.000000 0.000000
0.301449 0.773764 2.128417 0.000000 0.000000 0.000000
0.432122 0.803675 2.069148 0.000000 0.000000 0.000000
0.272768 0.785461 2.136607 0.000000 0.000000 0.000000
0.250518 0.780426 2.140152 0.000000 0.000000 0.000000
0.369747 0.912614 2.069080 0.000000 0.000000 0.000000
0.258633 0.859598 2.149226 0.000000 0.000000 0.000000
0.419667 0.780802 2.087853 0.000000 0.000000 0.000000
0.429026 0.807226 2.070811 0.000000 0.000000 0.000000
0.293995 0.780652 2.128304 0.000000 0.000000 0.000000
0.228081 0.939083 2.175265 0.000000 0.000000 0.000000
0.216254 0.968698 2.191291 0.000000 0.000000 0.000000
0.302995 0.974078 2.118713 0.000000 0.000000 0.000000
0.212627 0.975258 2.195238 0.000000 0.000000 0.000000
0.308031 0.978380 2.108610 0.000000 0.000000 0.000000
0.432215 0.795561 2.079101 0.000000 0.000000 0.000000
0.238750 0.818248 2.167916 0.000000 0.000000 0.000000
0.248105 0.787884 2.145992 0.000000 0.000000 0.000000
0.423188 0.820765 2.064327 0.000000 0.000000 0.000000
0.236814 0.984452 2.190237 0.000000 0.000000 0.000000
0.203788 0.973097 2.197497 0.000000 0.000000 0.000000
0.197235 0.932511 2.182968 0.000000 0.000000 0.000000
0.304219 0.980481 2.114666 0.000000 0.000000 0.000000
0.234176 0.983296 2.191030 0.000000 0.000000 0.000000
0.333595 0.942309 2.076405 0.000000 0.000000 0.000000
0.295852 0.963479 2.130228 0.000000 0.000000 0.000000
0.237897 0.779286 2.144250 0.000000 0.000000 0.000000
0.412544 0.767391 2.092970 0.000000 0.000000 0.000000
0.375276 0.790754 2.100081 0.000000 0.000000 0.000000
0.319557 0.954621 2.088729 0.000000 0.000000 0.000000
0.341138 0.795642 2.111693 0.000000 0.000000 0.000000
0.200222 0.966233 2.195312 0.000000 0.000000 0.000000
0.256264 0.913059 2.156393 0.000000 0.000000 0.000000
0.255827 0.821758 2.156852 0.000000 0.000000 0.000000
0.350199 0.791610 2.109971 0.000000 0.000000 0.000000
0.248979 0.982962 2.181277 0.000000 0.000000 0.000000
0.250250 0.771794 2.132960 0.000000 0.000000 0.000000
0.323271 0.813159 2.115922 0.000000 0.000000 0.000000
0.426626 0.811329 2.072648 0.000000 0.000000 0.000000
0.307710 0.976165 2.103086 0.000000 0.000000 0.000000
0.399922 0.752206 2.110856 0.000000 0.000000 0.000000
0.327450 0.922544 2.088844 0.000000 0.000000 0.000000
0.369798 0.924584 2.070186 0.000000 0.000000 0.000000
0.381063 0.782390 2.117214 0.000000 0.000000 0.000000
0.323810 0.902755 2.102701 0.000000 0.000000 0.000000
0.372995 0.896506 2.069211 0.000000 0.000000 0.000000
0.392941 0.779526 2.106973 0.000000 0.000000 0.000000
0.420462 0.860623 2.047419 0.000000 0.000000 0.000000
0.333607 0.932520 2.081515 0.000000 0.000000 0.000000
0.401004 0.747930 2.111555 0.000000 0.000000 0.000000
0.375400 0.920508 2.065389 0.000000 0.000000 0.000000
0.266833 0.967631 2.162019 0.000000 0.000000 0.000000
0.269783 0.959114 2.158306 0.000000 0.000000 0.000000
0.236838 0.823485 2.169257 0.000000 0.000000 0.000000
0.404302 0.888105 2.046923 0.000000 0.000000 0.000000
0.399953 0.874699 2.048250 0.000000 0.000000 0.000000
0.394511 0.879522 2.056915 0.000000 0.000000 0.000000
0.216545 0.918166 2.170349 0.000000 0.000000 0.000000
0.281677 0.740286 2.126485 0.000000 0.000000 0.000000
0.412751 0.743373 2.101465 0.000000 0.000000 0.000000
0.400606 0.905265 2.043650 0.000000 0.000000 0.000000
0.282080 0.753362 2.124981 0.000000 0.000000 0.000000
0.232156 0.832856 2.172801 0.000000 0.000000 0.000000
0.221069 0.912817 2.167916 0.000000 0.000000 0.000000
0.245971 0.814357 2.160949 0.000000 0.000000 0.000000
0.396978 0.894017 2.051566 0.000000 0.000000 0.000000
0.407622 0.739696 2.108658 0.000000 0.000000 0.000000
0.406635 0.890088 2.041492 0.000000 0.000000 0.000000
0.236243 0.812290 2.168826 0.000000 0.000000 0.000000
0.244771 0.969826 2.180415 0.000000 0.000000 0.000000
0.303690 0.971275 2.113989 0.000000 0.000000 0.000000
0.404595 0.895637 2.041314 0.000000 0.000000 0.000000
0.234422 0.974143 2.184909 0.000000 0.000000 0.000000
0.368596 0.744507 2.137880 0.000000 0.000000 0.000000
0.193789 0.872563 2.177789 0.000000 0.000000 0.000000
0.275672 0.748039 2.121398 0.000000 0.000000 0.000000
0.265607 0.986836 2.174804 0.000000 0.000000 0.000000
0.366402 0.740859 2.139899 0.000000 0.000000 0.000000
0.391807 0.751294 2.117835 0.000000 0.000000 0.000000
0.237815 0.963338 2.179263 0.000000 0.000000 0.000000
0.330048 0.743425 2.136129 0.000000 0.000000 0.000000
0.435235 0.809471 2.060877 0.000000 0.000000 0.000000
0.244670 0.974750 2.181964 0.000000 0.000000 0.000000
0.312689 0.965453 2.095540 0.000000 0.000000 0.000000
0.186768 0.921517 2.181316 0.000000 0.000000 0.000000
0.302206 0.914416 2.119941 0.000000 0.000000 0.000000
0.365359 0.931674 2.070500 0.000000 0.000000 0.000000
0.412088 0.745160 2.099016 0.000000 0.000000 0.000000
0.235327 0.917798 2.166941 0.000000 0.000000 0.000000
0.318759 0.958130 2.085840 0.000000 0.000000 0.000000
0.304496 0.970318 2.114053 0.000000 0.000000 0.000000
0.305939 0.974154 2.109419 0.000000 0.000000 0.000000
0.418414 0.870513 2.045097 0.000000 0.000000 0.000000
0.314208 0.958576 2.093589 0.000000 0.000000 0.000000
0.430655 0.850148 2.044935 0.000000 0.000000 0.000000
0.308819 0.965214 2.107397 0.000000 0.000000 0.000000
0.184019 0.885296 2.171737 0.000000 0.000000 0.000000
0.312528 0.963745 2.097986 0.000000 0.000000 0.000000
0.308368 0.738882 2.137829 0.000000 0.000000 0.000000
0.389082 0.738310 2.124915 0.000000 0.000000 0.000000
0.314982 0.971911 2.097487 0.000000 0.000000 0.000000
0.315507 0.956110 2.093920 0.000000 0.000000 0.000000
0.314272 0.960873 2.097528 0.000000 0.000000 0.000000
0.308692 0.961843 2.101902 0.000000 0.000000 0.000000
0.311966 0.969284 2.095644 0.000000 0.000000 0.000000
0.417940 0.850902 2.052874 0.000000 0.000000 0.000000
0.310811 0.963500 2.101517 0.000000 0.000000 0.000000
0.304215 0.977078 2.113167 0.000000 0.000000 0.000000
0.383839 0.734065 2.130492 0.000000 0.000000 0.000000
0.313297 0.964819 2.094828 0.000000 0.000000 0.000000
0.413718 0.777648 2.094720 0.000000 0.000000 0.000000
0.242546 0.786136 2.148890 0.000000 0.000000 0.000000
0.315383 0.955923 2.094458 0.000000 0.000000 0.000000
0.321396 0.935821 2.090843 0.000000 0.000000 0.000000
0.411389 0.866717 2.048934 0.000000 0.000000 0.000000
0.398977 0.894239 2.047178 0.000000 0.000000 0.000000
0.328792 0.833811 2.113723 0.000000 0.000000 0.000000
0.348802 0.835007 2.105274 0.000000 0.000000 0.000000
0.321035 0.954603 2.079866 0.000000 0.000000 0.000000
0.398340 0.740394 2.115646 0.000000 0.000000 0.000000
0.409047 0.868868 2.046122 0.000000 0.000000 0.000000
0.336083 0.840583 2.111939 0.000000 0.000000 0.000000
0.426222 0.858418 2.047555 0.000000 0.000000 0.000000
0.400450 0.737435 2.115727 0.000000 0.000000 0.000000
0.287254 0.771688 2.124259 0.000000 0.000000 0.000000
0.299891 0.790287 2.125252 0.000000 0.000000 0.000000
0.345560 0.744279 2.142045 0.000000 0.000000 0.000000
0.187123 0.872722 2.176999 0.000000 0.000000 0.000000
0.393164 0.904214 2.050413 0.000000 0.000000 0.000000
0.394230 0.899944 2.050294 0.000000 0.000000 0.000000
0.206950 0.857697 2.171183 0.000000 0.000000 0.000000
0.327193 0.940516 2.093226 0.000000 0.000000 0.000000
0.352498 0.932248 2.073424 0.000000 0.000000 0.000000
0.308839 0.795633 2.126277 0.000000 0.000000 0.000000
0.326699 0.763577 2.120359 0.000000 0.000000 0.000000
0.367617 0.917990 2.068804 0.000000 0.000000 0.000000
0.308988 0.777882 2.116083 0.000000 0.000000 0.000000
0.334252 0.945037 2.074296 0.000000 0.000000 0.000000
0.308278 0.971953 2.104106 0.000000 0.000000 0.000000
0.280290 0.975319 2.150685 0.000000 0.000000 0.000000
0.341933 0.941076 2.073221 0.000000 0.000000 0.000000
0.308057 0.979545 2.107004 0.000000 0.000000 0.000000
0.401199 0.731044 2.116704 0.000000 0.000000 0.000000
0.323509 0.937708 2.086570 0.000000 0.000000 0.000000
0.250891 0.776051 2.137356 0.000000 0.000000 0.000000
0.388557 0.742043 2.125154 0.000000 0.000000 0.000000
0.192626 0.937589 2.185246 0.000000 0.000000 0.000000
0.207130 0.983943 2.202098 0.000000 0.000000 0.000000
0.426507 0.863794 2.043536 0.000000 0.000000 0.000000
0.425670 0.793139 2.068246 0.000000 0.000000 0.000000
0.344468 0.760951 2.120692 0.000000 0.000000 0.000000
0.238288 0.799073 2.160905 0.000000 0.000000 0.000000
0.355843 0.737451 2.151617 0.000000 0.000000 0.000000
0.313014 0.968636 2.094297 0.000000 0.000000 0.000000
0.314804 0.961532 2.092072 0.000000 0.000000 0.000000
0.243222 0.963463 2.180261 0.000000 0.000000 0.000000
0.310824 0.968374 2.099300 0.000000 0.000000 0.000000
0.292290 0.963681 2.133633 0.000000 0.000000 0.000000
0.291721 0.979329 2.141325 0.000000 0.000000 0.000000
0.231699 0.974799 2.188085 0.000000 0.000000 0.000000
0.244920 0.877951 2.150597 0.000000 0.000000 0.000000
0.298508 0.982837 2.133666 0.000000 0.000000 0.000000
0.241077 0.776267 2.139398 0.000000 0.000000 0.000000
0.245707 0.795576 2.153955 0.000000 0.000000 0.000000
0.253730 0.768485 2.132895 0.000000 0.000000 0.000000
0.395246 0.732428 2.123205 0.000000 0.000000 0.000000
0.402454 0.738043 2.114057 0.000000 0.000000 0.000000
0.390309 0.764343 2.108957 0.000000 0.000000 0.000000
0.274604 0.761232 2.122972 0.000000 0.000000 0.000000
0.306103 0.970374 2.109284 0.000000 0.000000 0.000000
0.295722 0.976832 2.134434 0.000000 0.000000 0.000000
0.235799 0.809870 2.168989 0.000000 0.000000 0.000000
0.304531 0.943938 2.121493 0.000000 0.000000 0.000000
0.186875 0.912980 2.175250 0.000000 0.000000 0.000000
0.324107 0.875811 2.111243 0.000000 0.000000 0.000000
0.299316 0.978665 2.127318 0.000000 0.000000 0.000000
0.241948 0.802677 2.160606 0.000000 0.000000 0.000000
0.354908 0.920186 2.072392 0.000000 0.000000 0.000000
0.389473 0.736172 2.128213 0.000000 0.000000 0.000000
0.203303 0.973142 2.198493 0.000000 0.000000 0.000000
0.253343 0.759532 2.127917 0.000000 0.000000 0.000000
0.383545 0.743195 2.122946 0.000000 0.000000 0.000000
0.269997 0.754439 2.121939 0.000000 0.000000 0.000000
0.308968 0.970966 2.102360 0.000000 0.000000 0.000000
0.313886 0.961218 2.105217 0.000000 0.000000 0.000000
0.330544 0.896489 2.101839 0.000000 0.000000 0.000000
0.317322 0.735969 2.145606 0.000000 0.000000 0.000000
0.297637 0.957412 2.125765 0.000000 0.000000 0.000000
0.248135 0.765854 2.133277 0.000000 0.000000 0.000000
0.287719 0.958979 2.142164 0.000000 0.000000 0.000000
0.405218 0.730850 2.107925 0.000000 0.000000 0.000000
0.246248 0.799710 2.152031 0.000000 0.000000 0.000000
0.180924 0.897849 2.176434 0.000000 0.000000 0.000000
0.416971 0.760343 2.094011 0.000000 0.000000 0.000000
0.239212 0.795101 2.160017 0.000000 0.000000 0.000000
0.236001 0.791079 2.156123 0.000000 0.000000 0.000000
0.183550 0.906047 2.174654 0.000000 0.000000 0.000000
0.341870 0.936449 2.072381 0.000000 0.000000 0.000000
0.178014 0.909881 2.176219 0.000000 0.000000 0.000000
0.355265 0.923406 2.071733 0.000000 0.000000 0.000000
0.281943 0.978564 2.151334 0.000000 0.000000 0.000000
0.231639 0.818183 2.176971 0.000000 0.000000 0.000000
0.189706 0.895436 2.175730 0.000000 0.000000 0.000000
0.409642 0.869054 2.051433 0.000000 0.000000 0.000000
0.242325 0.791159 2.152274 0.000000 0.000000 0.000000
0.241062 0.974624 2.180593 0.000000 0.000000 0.000000
0.221714 0.967847 2.187373 0.000000 0.000000 0.000000
0.265583 0.985655 2.172775 0.000000 0.000000 0.000000
0.375773 0.746417 2.129878 0.000000 0.000000 0.000000
0.221067 0.950765 2.184817 0.000000 0.000000 0.000000
0.337292 0.934029 2.079511 0.000000 0.000000 0.000000
0.315591 0.948266 2.096273 0.000000 0.000000 0.000000
0.345461 0.934200 2.071127 0.000000 0.000000 0.000000
0.193995 0.873475 2.176226 0.000000 0.000000 0.000000
0.222043 0.973654 2.191076 0.000000 0.000000 0.000000
0.329145 0.891266 2.099492 0.000000 0.000000 0.000000
0.286240 0.910208 2.131862 0.000000 0.000000 0.000000
0.346900 0.847307 2.101531 0.000000 0.000000 0.000000
0.232703 0.842649 2.167103 0.000000 0.000000 0.000000
0.198129 0.901699 2.166516 0.000000 0.000000 0.000000
0.410438 0.796181 2.086974 0.000000 0.000000 0.000000
0.230427 0.864726 2.167802 0.000000 0.000000 0.000000
0.328354 0.836303 2.113770 0.000000 0.000000 0.000000
0.260353 0.972692 2.167759 0.000000 0.000000 0.000000
0.403326 0.823853 2.077073 0.000000 0.000000 0.000000
0.339899 0.938176 2.077867 0.000000 0.000000 0.000000
0.268059 0.969761 2.162272 0.000000 0.000000 0.000000
0.384222 0.774687 2.099222 0.000000 0.000000 0.000000
0.413053 0.761527 2.098315 0.000000 0.000000 0.000000
0.218841 0.876751 2.173640 0.000000 0.000000 0.000000
0.378043 0.887120 2.070661 0.000000 0.000000 0.000000
0.273360 0.871981 2.142721 0.000000 0.000000 0.000000
0.267933 0.862794 2.144526 0.000000 0.000000 0.000000
0.283154 0.868145 2.136066 0.000000 0.000000 0.000000
0.318316 0.834300 2.118395 0.000000 0.000000 0.000000
0.345234 0.821890 2.114830 0.000000 0.000000 0.000000
0.338642 0.813262 2.108819 0.000000 0.000000 0.000000
0.291358 0.852249 2.130069 0.000000 0.000000 0.000000
0.347419 0.880305 2.098683 0.000000 0.000000 0.000000
0.413544 0.801361 2.081132 0.000000 0.000000 0.000000
0.214858 0.923054 2.171256 0.000000 0.000000 0.000000
0.256476 0.980643 2.175152 0.000000 0.000000 0.000000
0.328293 0.943551 2.080358 0.000000 0.000000 0.000000
0.323975 0.902766 2.101580 0.000000 0.000000 0.000000
0.287486 0.738339 2.131497 0.000000 0.000000 0.000000
0.282033 0.960469 2.148573 0.000000 0.000000 0.000000
0.279629 0.949740 2.145764 0.000000 0.000000 0.000000
0.396264 0.818765 2.081625 0.000000 0.000000 0.000000
0.351963 0.939266 2.067142 0.000000 0.000000 0.000000
0.235718 0.807713 2.169488 0.000000 0.000000 0.000000
0.269912 0.761963 2.124777 0.000000 0.000000 0.000000
0.299203 0.846847 2.126837 0.000000 0.000000 0.000000
0.246504 0.888260 2.149450 0.000000 0.000000 0.000000
0.238892 0.976478 2.184632 0.000000 0.000000 0.000000
0.330081 0.851823 2.110399 0.000000 0.000000 0.000000
0.348288 0.843089 2.100292 0.000000 0.000000 0.000000
0.327091 0.874058 2.107208 0.000000 0.000000 0.000000
0.388260 0.850700 2.074278 0.000000 0.000000 0.000000
0.314027 0.755514 2.123939 0.000000 0.000000 0.000000
0.330742 0.936287 2.084358 0.000000 0.000000 0.000000
0.328133 0.945540 2.079267 0.000000 0.000000 0.000000
0.382433 0.757566 2.113950 0.000000 0.000000 0.000000
0.409338 0.771142 2.097896 0.000000 0.000000 0.000000
0.196744 0.886443 2.168961 0.000000 0.000000 0.000000
0.382928 0.884099 2.068443 0.000000 0.000000 0.000000
0.354153 0.818064 2.107742 0.000000 0.000000 0.000000
0.210475 0.860733 2.179719 0.000000 0.000000 0.000000
0.344260 0.892662 2.093274 0.000000 0.000000 0.000000
0.288727 0.855210 2.132168 0.000000 0.000000 0.000000
0.397701 0.789346 2.089921 0.000000 0.000000 0.000000
0.325842 0.854248 2.110430 0.000000 0.000000 0.000000
0.322382 0.823278 2.115662 0.000000 0.000000 0.000000
0.283908 0.921335 2.140444 0.000000 0.000000 0.000000
0.283043 0.854700 2.134205 0.000000 0.000000 0.000000
0.343054 0.911908 2.084579 0.000000 0.000000 0.000000
0.291144 0.737729 2.132210 0.000000 0.000000 0.000000
0.203147 0.875672 2.168107 0.000000 0.000000 0.000000
0.342729 0.904899 2.082988 0.000000 0.000000 0.000000
0.273869 0.966621 2.154934 0.000000 0.000000 0.000000
0.276663 0.954429 2.153145 0.000000 0.000000 0.000000
0.379581 0.848023 2.079613 0.000000 0.000000 0.000000
0.232841 0.808687 2.172051 0.000000 0.000000 0.000000
0.271603 0.770127 2.129501 0.000000 0.000000 0.000000
0.228281 0.900645 2.159294 0.000000 0.000000 0.000000
0.212530 0.888770 2.164936 0.000000 0.000000 0.000000
0.240933 0.790110 2.153759 0.000000 0.000000 0.000000
0.334183 0.929957 2.079585 0.000000 0.000000 0.000000
0.303803 0.982934 2.110506 0.000000 0.000000 0.000000
0.373118 0.738229 2.137682 0.000000 0.000000 0.000000
0.363687 0.736160 2.148189 0.000000 0.000000 0.000000
0.234760 0.784514 2.150016 0.000000 0.000000 0.000000
0.239499 0.771451 2.133386 0.000000 0.000000 0.000000
0.389602 0.736177 2.128069 0.000000 0.000000 0.000000
0.367627 0.756017 2.138309 0.000000 0.000000 0.000000
0.238827 0.784876 2.149882 0.000000 0.000000 0.000000
0.435737 0.810542 2.055596 0.000000 0.000000 0.000000
0.241014 0.784290 2.147640 0.000000 0.000000 0.000000
0.197956 0.949902 2.190774 0.000000 0.000000 0.000000
0.365250 0.748382 2.127520 0.000000 0.000000 0.000000
0.196921 0.970270 2.198811 0.000000 0.000000 0.000000
0.265672 0.755988 2.121986 0.000000 0.000000 0.000000
0.244783 0.778976 2.142234 0.000000 0.000000 0.000000
0.289196 0.755919 2.129871 0.000000 0.000000 0.000000
0.251140 0.776116 2.136618 0.000000 0.000000 0.000000
0.275294 0.986722 2.163542 0.000000 0.000000 0.000000
0.227097 0.894343 2.167093 0.000000 0.000000 0.000000
0.372052 0.756619 2.119522 0.000000 0.000000 0.000000
0.360019 0.745669 2.136096 0.000000 0.000000 0.000000
0.431545 0.820535 2.049762 0.000000 0.000000 0.000000
0.236741 0.781488 2.147004 0.000000 0.000000 0.000000
0.240484 0.784438 2.148352 0.000000 0.000000 0.000000
0.357280 0.741586 2.143006 0.000000 0.000000 0.000000
0.198583 0.973146 2.199977 0.000000 0.000000 0.000000
0.196395 0.961571 2.195231 0.000000 0.000000 0.000000
0.173690 0.912138 2.177914 0.000000 0.000000 0.000000
0.264359 0.759032 2.126399 0.000000 0.000000 0.000000
0.286358 0.764451 2.131388 0.000000 0.000000 0.000000
0.289659 0.988639 2.150795 0.000000 0.000000 0.000000
0.270787 0.988797 2.170314 0.000000 0.000000 0.000000
0.247445 0.867478 2.156766 0.000000 0.000000 0.000000
0.331051 0.947684 2.072700 0.000000 0.000000 0.000000
0.175463 0.908312 2.176132 0.000000 0.000000 0.000000
0.437556 0.806264 2.061534 0.000000 0.000000 0.000000
0.405860 0.737220 2.111777 0.000000 0.000000 0.000000
0.281016 0.747120 2.117993 0.000000 0.000000 0.000000
0.215473 0.983923 2.201513 0.000000 0.000000 0.000000
0.415130 0.832711 2.064753 0.000000 0.000000 0.000000
0.358537 0.736538 2.151651 0.000000 0.000000 0.000000
0.317375 0.742759 2.138671 0.000000 0.000000 0.000000
0.301873 0.982789 2.121128 0.000000 0.000000 0.000000
0.402345 0.764639 2.104826 0.000000 0.000000 0.000000
0.418469 0.769894 2.092952 0.000000 0.000000 0.000000
0.397747 0.737201 2.114794 0.000000 0.000000 0.000000
0.283553 0.745433 2.124011 0.000000 0.000000 0.000000
0.267385 0.754909 2.125330 0.000000 0.000000 0.000000
0.395093 0.741001 2.123256 0.000000 0.000000 0.000000
0.411505 0.887485 2.037416 0.000000 0.000000 0.000000
0.362900 0.919069 2.071604 0.000000 0.000000 0.000000
0.274765 0.738008 2.122024 0.000000 0.000000 0.000000
0.372124 0.741535 2.142595 0.000000 0.000000 0.000000
0.436002 0.802919 2.061067 0.000000 0.000000 0.000000
0.394582 0.740948 2.120684 0.000000 0.000000 0.000000
0.317369 0.746157 2.133501 0.000000 0.000000 0.000000
0.406498 0.748455 2.105590 0.000000 0.000000 0.000000
0.405049 0.754984 2.104785 0.000000 0.000000 0.000000
0.384019 0.740014 2.133743 0.000000 0.000000 0.000000
0.318581 0.770721 2.117740 0.000000 0.000000 0.000000
0.365078 0.927323 2.069532 0.000000 0.000000 0.000000
0.327314 0.935093 2.084976 0.000000 0.000000 0.000000
0.299948 0.739851 2.132628 0.000000 0.000000 0.000000
0.300723 0.962477 2.119819 0.000000 0.000000 0.000000
0.181089 0.900069 2.173741 0.000000 0.000000 0.000000
0.244400 0.799174 2.153049 0.000000 0.000000 0.000000
0.225990 0.984182 2.195817 0.000000 0.000000 0.000000
0.179807 0.913806 2.179352 0.000000 0.000000 0.000000
0.173619 0.911044 2.177130 0.000000 0.000000 0.000000
0.262642 0.960643 2.161762 0.000000 0.000000 0.000000
0.377301 0.924022 2.063427 0.000000 0.000000 0.000000
0.263452 0.957872 2.161405 0.000000 0.000000 0.000000
0.239853 0.792508 2.157062 0.000000 0.000000 0.000000
0.245282 0.786452 2.146454 0.000000 0.000000 0.000000
0.287123 0.741765 2.123181 0.000000 0.000000 0.000000
0.262014 0.938328 2.156270 0.000000 0.000000 0.000000
0.178791 0.916960 2.178018 0.000000 0.000000 0.000000
0.385429 0.914710 2.059241 0.000000 0.000000 0.000000
0.235757 0.788195 2.155325 0.000000 0.000000 0.000000
0.249794 0.792955 2.146350 0.000000 0.000000 0.000000
0.385881 0.914207 2.056120 0.000000 0.000000 0.000000
0.264481 0.958007 2.158176 0.000000 0.000000 0.000000
0.292319 0.739929 2.132103 0.000000 0.000000 0.000000
0.258728 0.946297 2.159816 0.000000 0.000000 0.000000
0.345789 0.930730 2.079764 0.000000 0.000000 0.000000
0.305656 0.967208 2.110915 0.000000 0.000000 0.000000
0.411098 0.739276 2.109216 0.000000 0.000000 0.000000
0.306024 0.959778 2.111408 0.000000 0.000000 0.000000
0.438997 0.819238 2.049709 0.000000 0.000000 0.000000
0.355358 0.941170 2.069400 0.000000 0.000000 0.000000
0.320083 0.945131 2.100074 0.000000 0.000000 0.000000
0.431546 0.818846 2.060997 0.000000 0.000000 0.000000
0.311559 0.972380 2.095558 0.000000 0.000000 0.000000
0.425517 0.815861 2.066890 0.000000 0.000000 0.000000
0.310752 0.963004 2.102001 0.000000 0.000000 0.000000
0.187540 0.879335 2.173638 0.000000 0.000000 0.000000
0.430029 0.838121 2.052415 0.000000 0.000000 0.000000
0.439914 0.816655 2.055837 0.000000 0.000000 0.000000
0.424510 0.827018 2.063734 0.000000 0.000000 0.000000
0.427000 0.819276 2.062577 0.000000 0.000000 0.000000
0.428434 0.819565 2.061007 0.000000 0.000000 0.000000
0.334398 0.941027 2.073344 0.000000 0.000000 0.000000
0.298700 0.978446 2.128719 0.000000 0.000000 0.000000
0.379890 0.927492 2.063915 0.000000 0.000000 0.000000
0.178815 0.900909 2.174756 0.000000 0.000000 0.000000
0.361059 0.753132 2.126927 0.000000 0.000000 0.000000
0.419432 0.804648 2.076890 0.000000 0.000000 0.000000
0.283555 0.743260 2.132045 0.000000 0.000000 0.000000
0.174291 0.902976 2.174946 0.000000 0.000000 0.000000
0.404415 0.764820 2.101671 0.000000 0.000000 0.000000
0.375834 0.913975 2.065111 0.000000 0.000000 0.000000
0.236000 0.793665 2.158703 0.000000 0.000000 0.000000
0.402853 0.764065 2.095725 0.000000 0.000000 0.000000
0.242522 0.996598 2.192316 0.000000 0.000000 0.000000
0.307724 0.962175 2.104615 0.000000 0.000000 0.000000
0.431252 0.826014 2.052822 0.000000 0.000000 0.000000
0.357241 0.938530 2.072957 0.000000 0.000000 0.000000
0.179929 0.895950 2.174906 0.000000 0.000000 0.000000
0.294621 0.748028 2.133487 0.000000 0.000000 0.000000
0.234958 0.966825 2.180245 0.000000 0.000000 0.000000
0.294586 0.744809 2.134685 0.000000 0.000000 0.000000
0.236652 0.789534 2.154506 0.000000 0.000000 0.000000
0.173014 0.906207 2.176282 0.000000 0.000000 0.000000
0.278014 0.748527 2.123595 0.000000 0.000000 0.000000
0.302317 0.733736 2.140354 0.000000 0.000000 0.000000
0.257481 0.988188 2.180817 0.000000 0.000000 0.000000
0.237331 0.986310 2.190662 0.000000 0.000000 0.000000
0.223793 0.979466 2.193212 0.000000 0.000000 0.000000
0.235001 0.788585 2.154232 0.000000 0.000000 0.000000
0.409476 0.739707 2.103588 0.000000 0.000000 0.000000
0.432219 0.789280 2.081259 0.000000 0.000000 0.000000
0.281935 0.754319 2.125787 0.000000 0.000000 0.000000
0.249710 0.770362 2.134550 0.000000 0.000000 0.000000
0.381269 0.917507 2.061536 0.000000 0.000000 0.000000
0.189637 0.880330 2.171894 0.000000 0.000000 0.000000
0.201156 0.889267 2.170957 0.000000 0.000000 0.000000
0.213761 0.881680 2.160292 0.000000 0.000000 0.000000
0.207005 0.875711 2.164757 0.000000 0.000000 0.000000
0.376465 0.926412 2.067010 0.000000 0.000000 0.000000
0.220666 0.868767 2.159487 0.000000 0.000000 0.000000
0.208127 0.885630 2.164251 0.000000 0.000000 0.000000
0.203060 0.895972 2.156889 0.000000 0.000000 0.000000
0.211341 0.862000 2.171537 0.000000 0.000000 0.000000
0.201419 0.883043 2.165502 0.000000 0.000000 0.000000
0.194813 0.879915 2.169135 0.000000 0.000000 0.000000
0.192282 0.885562 2.167525 0.000000 0.000000 0.000000
0.236583 0.787858 2.153733 0.000000 0.000000 0.000000
0.209519 0.863917 2.178360 0.000000 0.000000 0.000000
0.370205 0.906224 2.067189 0.000000 0.000000 0.000000
0.375168 0.922311 2.066400 0.000000 0.000000 0.000000
0.207089 0.868621 2.168762 0.000000 0.000000 0.000000
0.206007 0.858654 2.178193 0.000000 0.000000 0.000000
0.391621 0.747250 2.122477 0.000000 0.000000 0.000000
0.431116 0.827239 2.059590 0.000000 0.000000 0.000000
0.415586 0.881069 2.039238 0.000000 0.000000 0.000000
0.256844 0.760164 2.125195 0.000000 0.000000 0.000000
0.438207 0.806993 2.067065 0.000000 0.000000 0.000000
0.374070 0.766113 2.108595 0.000000 0.000000 0.000000
0.195294 0.967353 2.198892 0.000000 0.000000 0.000000
0.198726 0.968012 2.197234 0.000000 0.000000 0.000000
0.283898 0.742639 2.132540 0.000000 0.000000 0.000000
0.302868 0.797576 2.124262 0.000000 0.000000 0.000000
0.303048 0.982673 2.116894 0.000000 0.000000 0.000000
0.374341 0.775544 2.104088 0.000000 0.000000 0.000000
0.287711 0.777988 2.128700 0.000000 0.000000 0.000000
0.227442 0.983766 2.194186 0.000000 0.000000 0.000000
0.238074 0.986349 2.190476 0.000000 0.000000 0.000000
0.237449 0.990207 2.192547 0.000000 0.000000 0.000000
0.183012 0.887946 2.175459 0.000000 0.000000 0.000000
0.360812 0.779909 2.117673 0.000000 0.000000 0.000000
0.209048 0.978925 2.198087 0.000000 0.000000 0.000000
0.324492 0.799217 2.116233 0.000000 0.000000 0.000000
0.304472 0.980512 2.110447 0.000000 0.000000 0.000000
0.409856 0.772551 2.089792 0.000000 0.000000 0.000000
0.240887 0.983901 2.187938 0.000000 0.000000 0.000000
0.186331 0.883673 2.173079 0.000000 0.000000 0.000000
0.411144 0.887745 2.039505 0.000000 0.000000 0.000000
0.436476 0.812119 2.060447 0.000000 0.000000 0.000000
0.234520 0.790809 2.156386 0.000000 0.000000 0.000000
0.297593 0.972581 2.131201 0.000000 0.000000 0.000000
0.245309 0.986600 2.185634 0.000000 0.000000 0.000000
0.409637 0.884770 2.040722 0.000000 0.000000 0.000000
0.427431 0.872779 2.039762 0.000000 0.000000 0.000000
0.428297 0.781109 2.082786 0.000000 0.000000 0.000000
0.420074 0.877943 2.040340 0.000000 0.000000 0.000000
0.243865 0.787074 2.149137 0.000000 0.000000 0.000000
0.421021 0.871550 2.041219 0.000000 0.000000 0.000000
0.435335 0.780187 2.079636 0.000000 0.000000 0.000000
0.173306 0.935631 2.186216 0.000000 0.000000 0.000000
0.424515 0.776972 2.086658 0.000000 0.000000 0.000000
0.416378 0.869844 2.043512 0.000000 0.000000 0.000000
0.234793 0.824909 2.173030 0.000000 0.000000 0.000000
0.239327 0.810754 2.166130 0.000000 0.000000 0.000000
0.196357 0.904192 2.170746 0.000000 0.000000 0.000000
0.220468 0.980718 2.194760 0.000000 0.000000 0.000000
0.438934 0.824580 2.051181 0.000000 0.000000 0.000000
0.427678 0.794691 2.078634 0.000000 0.000000 0.000000
0.439173 0.818479 2.055754 0.000000 0.000000 0.000000
0.231480 0.828547 2.175779 0.000000 0.000000 0.000000
0.433292 0.805572 2.066736 0.000000 0.000000 0.000000
0.438831 0.806090 2.064473 0.000000 0.000000 0.000000
0.190782 0.874184 2.175156 0.000000 0.000000 0.000000
0.191763 0.908393 2.170675 0.000000 0.000000 0.000000
0.431188 0.810953 2.053165 0.000000 0.000000 0.000000
0.234420 0.823748 2.173007 0.000000 0.000000 0.000000
0.252173 0.976910 2.180161 0.000000 0.000000 0.000000
0.196445 0.895343 2.168073 0.000000 0.000000 0.000000
0.274418 0.969777 2.154058 0.000000 0.000000 0.000000
0.186222 0.891113 2.170884 0.000000 0.000000 0.000000
0.175293 0.903065 2.176003 0.000000 0.000000 0.000000
0.298814 0.976740 2.127110 0.000000 0.000000 0.000000
0.371559 0.733263 2.146025 0.000000 0.000000 0.000000
0.240459 0.984247 2.190690 0.000000 0.000000 0.000000
0.299124 0.980295 2.129053 0.000000 0.000000 0.000000
0.364586 0.736947 2.148163 0.000000 0.000000 0.000000
0.242260 0.772100 2.134947 0.000000 0.000000 0.000000
0.401693 0.908003 2.042913 0.000000 0.000000 0.000000
0.260820 0.759950 2.127069 0.000000 0.000000 0.000000
0.389340 0.915853 2.054697 0.000000 0.000000 0.000000
0.301118 0.982283 2.123991 0.000000 0.000000 0.000000
0.242306 0.781308 2.144111 0.000000 0.000000 0.000000
0.346654 0.936635 2.074400 0.000000 0.000000 0.000000
0.320923 0.954323 2.083537 0.000000 0.000000 0.000000
0.436422 0.802433 2.062386 0.000000 0.000000 0.000000
0.439648 0.804633 2.064642 0.000000 0.000000 0.000000
0.286535 0.992972 2.155896 0.000000 0.000000 0.000000
0.246577 0.953012 2.169128 0.000000 0.000000 0.000000
0.248184 0.954318 2.170403 0.000000 0.000000 0.000000
0.280031 0.989006 2.161229 0.000000 0.000000 0.000000
0.231640 0.793076 2.164752 0.000000 0.000000 0.000000
0.218121 0.955812 2.185981 0.000000 0.000000 0.000000
0.328598 0.949303 2.074606 0.000000 0.000000 0.000000
0.324181 0.954225 2.076881 0.000000 0.000000 0.000000
0.231005 0.956421 2.177986 0.000000 0.000000 0.000000
