ply
format ascii 1.0
comment VCGLIB generated
obj_info Generated by SPFormer!
element vertex 884
property float x
property float y
property float z
property float nx
property float ny
property float nz
end_header
0.079461 0.778976 3.628718 0.000000 0.000000 0.000000
0.117981 0.812431 3.564181 0.000000 0.000000 0.000000
0.179758 0.789469 3.685895 0.000000 0.000000 0.000000
0.093593 0.786468 3.623398 0.000000 0.000000 0.000000
0.128886 0.820635 3.557951 0.000000 0.000000 0.000000
0.126927 0.763322 3.707618 0.000000 0.000000 0.000000
0.171214 0.764981 3.723801 0.000000 0.000000 0.000000
0.098330 0.746967 3.722578 0.000000 0.000000 0.000000
0.077470 0.764253 3.653157 0.000000 0.000000 0.000000
0.169580 0.763677 3.709550 0.000000 0.000000 0.000000
0.109509 0.738568 3.714846 0.000000 0.000000 0.000000
0.257322 0.791852 3.538790 0.000000 0.000000 0.000000
0.079651 0.787253 3.621775 0.000000 0.000000 0.000000
0.145255 0.793412 3.641264 0.000000 0.000000 0.000000
0.124159 0.739072 3.725139 0.000000 0.000000 0.000000
0.281173 0.806444 3.545226 0.000000 0.000000 0.000000
0.151104 0.803770 3.579244 0.000000 0.000000 0.000000
0.164988 0.800283 3.605323 0.000000 0.000000 0.000000
0.134570 0.793383 3.630191 0.000000 0.000000 0.000000
0.180321 0.754562 3.722487 0.000000 0.000000 0.000000
0.129353 0.810336 3.619999 0.000000 0.000000 0.000000
0.238574 0.795439 3.688817 0.000000 0.000000 0.000000
0.246720 0.798720 3.676149 0.000000 0.000000 0.000000
0.167346 0.805723 3.587853 0.000000 0.000000 0.000000
0.142218 0.787475 3.629272 0.000000 0.000000 0.000000
0.193030 0.767021 3.713816 0.000000 0.000000 0.000000
0.117262 0.801098 3.594352 0.000000 0.000000 0.000000
0.112286 0.724793 3.726292 0.000000 0.000000 0.000000
0.130916 0.745163 3.740077 0.000000 0.000000 0.000000
0.154281 0.779849 3.694099 0.000000 0.000000 0.000000
0.183660 0.775682 3.713237 0.000000 0.000000 0.000000
0.109911 0.743969 3.703017 0.000000 0.000000 0.000000
0.115798 0.776104 3.673429 0.000000 0.000000 0.000000
0.219957 0.808897 3.513490 0.000000 0.000000 0.000000
0.076167 0.750796 3.680322 0.000000 0.000000 0.000000
0.076573 0.780323 3.621663 0.000000 0.000000 0.000000
0.114542 0.767333 3.695301 0.000000 0.000000 0.000000
0.148752 0.748420 3.708372 0.000000 0.000000 0.000000
0.164136 0.801175 3.605069 0.000000 0.000000 0.000000
0.121723 0.798371 3.626233 0.000000 0.000000 0.000000
0.102885 0.794649 3.630744 0.000000 0.000000 0.000000
0.170951 0.750371 3.725798 0.000000 0.000000 0.000000
0.206747 0.776499 3.680439 0.000000 0.000000 0.000000
0.200194 0.782548 3.696035 0.000000 0.000000 0.000000
0.169335 0.796782 3.625508 0.000000 0.000000 0.000000
0.183815 0.806288 3.522634 0.000000 0.000000 0.000000
0.086529 0.800669 3.586624 0.000000 0.000000 0.000000
0.088977 0.796888 3.593745 0.000000 0.000000 0.000000
0.100485 0.793293 3.593626 0.000000 0.000000 0.000000
0.101820 0.799308 3.548829 0.000000 0.000000 0.000000
0.113307 0.798266 3.543834 0.000000 0.000000 0.000000
0.145191 0.756955 3.701830 0.000000 0.000000 0.000000
0.168057 0.800455 3.603827 0.000000 0.000000 0.000000
0.076047 0.766088 3.659323 0.000000 0.000000 0.000000
0.203238 0.799311 3.620466 0.000000 0.000000 0.000000
0.206839 0.802853 3.631326 0.000000 0.000000 0.000000
0.094129 0.752421 3.686666 0.000000 0.000000 0.000000
0.199969 0.801278 3.638173 0.000000 0.000000 0.000000
0.094375 0.730076 3.723212 0.000000 0.000000 0.000000
0.113019 0.798903 3.580319 0.000000 0.000000 0.000000
0.185084 0.791631 3.677917 0.000000 0.000000 0.000000
0.264159 0.812683 3.642209 0.000000 0.000000 0.000000
0.216537 0.808394 3.642704 0.000000 0.000000 0.000000
0.145120 0.803847 3.616919 0.000000 0.000000 0.000000
0.174068 0.804859 3.591429 0.000000 0.000000 0.000000
0.152656 0.786242 3.669506 0.000000 0.000000 0.000000
0.079946 0.799413 3.592381 0.000000 0.000000 0.000000
0.113233 0.767035 3.689972 0.000000 0.000000 0.000000
0.163685 0.806697 3.579783 0.000000 0.000000 0.000000
0.226330 0.787298 3.656591 0.000000 0.000000 0.000000
0.078732 0.768444 3.662512 0.000000 0.000000 0.000000
0.066587 0.742027 3.715674 0.000000 0.000000 0.000000
0.114411 0.802882 3.611692 0.000000 0.000000 0.000000
0.201945 0.802288 3.630551 0.000000 0.000000 0.000000
0.162170 0.801165 3.610537 0.000000 0.000000 0.000000
0.191744 0.800757 3.608721 0.000000 0.000000 0.000000
0.227224 0.811503 3.597235 0.000000 0.000000 0.000000
0.153867 0.789077 3.648391 0.000000 0.000000 0.000000
0.178583 0.808823 3.574589 0.000000 0.000000 0.000000
0.257690 0.818009 3.624375 0.000000 0.000000 0.000000
0.138863 0.800740 3.528855 0.000000 0.000000 0.000000
0.142666 0.799674 3.524694 0.000000 0.000000 0.000000
0.127975 0.800230 3.533513 0.000000 0.000000 0.000000
0.129779 0.797520 3.553590 0.000000 0.000000 0.000000
0.114337 0.808790 3.618855 0.000000 0.000000 0.000000
0.067371 0.743919 3.692754 0.000000 0.000000 0.000000
0.118670 0.783908 3.658936 0.000000 0.000000 0.000000
0.148977 0.801517 3.525257 0.000000 0.000000 0.000000
0.078776 0.741798 3.694832 0.000000 0.000000 0.000000
0.129567 0.804336 3.541400 0.000000 0.000000 0.000000
0.145442 0.804381 3.607291 0.000000 0.000000 0.000000
0.138903 0.802669 3.606954 0.000000 0.000000 0.000000
0.111594 0.806075 3.603328 0.000000 0.000000 0.000000
0.164121 0.798671 3.623468 0.000000 0.000000 0.000000
0.216827 0.760829 3.701729 0.000000 0.000000 0.000000
0.246403 0.810973 3.520825 0.000000 0.000000 0.000000
0.148321 0.801337 3.519453 0.000000 0.000000 0.000000
0.168243 0.807442 3.531239 0.000000 0.000000 0.000000
0.174566 0.807586 3.564325 0.000000 0.000000 0.000000
0.069227 0.745955 3.686694 0.000000 0.000000 0.000000
0.074592 0.748209 3.689195 0.000000 0.000000 0.000000
0.149521 0.789110 3.620404 0.000000 0.000000 0.000000
0.198326 0.802810 3.597761 0.000000 0.000000 0.000000
0.136630 0.812853 3.585876 0.000000 0.000000 0.000000
0.182133 0.799432 3.608052 0.000000 0.000000 0.000000
0.136657 0.806315 3.594177 0.000000 0.000000 0.000000
0.167158 0.787845 3.614896 0.000000 0.000000 0.000000
0.174071 0.802571 3.599284 0.000000 0.000000 0.000000
0.204259 0.803273 3.607144 0.000000 0.000000 0.000000
0.118940 0.814487 3.557179 0.000000 0.000000 0.000000
0.081782 0.732879 3.722375 0.000000 0.000000 0.000000
0.224662 0.809904 3.510605 0.000000 0.000000 0.000000
0.194367 0.790537 3.499808 0.000000 0.000000 0.000000
0.138620 0.807826 3.539696 0.000000 0.000000 0.000000
0.076012 0.763000 3.674966 0.000000 0.000000 0.000000
0.130164 0.810290 3.550954 0.000000 0.000000 0.000000
0.236063 0.810084 3.646837 0.000000 0.000000 0.000000
0.079245 0.732436 3.714042 0.000000 0.000000 0.000000
0.089466 0.728098 3.723132 0.000000 0.000000 0.000000
0.181332 0.802587 3.615054 0.000000 0.000000 0.000000
0.217112 0.808195 3.642169 0.000000 0.000000 0.000000
0.226872 0.807715 3.614254 0.000000 0.000000 0.000000
0.266897 0.766567 3.566075 0.000000 0.000000 0.000000
0.194028 0.801565 3.605015 0.000000 0.000000 0.000000
0.091856 0.799840 3.578732 0.000000 0.000000 0.000000
0.253039 0.781431 3.529186 0.000000 0.000000 0.000000
0.094592 0.809090 3.583872 0.000000 0.000000 0.000000
0.149785 0.803276 3.592366 0.000000 0.000000 0.000000
0.108780 0.723751 3.735784 0.000000 0.000000 0.000000
0.215116 0.806212 3.654536 0.000000 0.000000 0.000000
0.100017 0.735625 3.729755 0.000000 0.000000 0.000000
0.209757 0.812494 3.523053 0.000000 0.000000 0.000000
0.190665 0.796782 3.508707 0.000000 0.000000 0.000000
0.203031 0.805982 3.601382 0.000000 0.000000 0.000000
0.222928 0.810405 3.643823 0.000000 0.000000 0.000000
0.198555 0.811007 3.583128 0.000000 0.000000 0.000000
0.071629 0.743966 3.691631 0.000000 0.000000 0.000000
0.245795 0.771902 3.560237 0.000000 0.000000 0.000000
0.157652 0.804011 3.584013 0.000000 0.000000 0.000000
0.270542 0.816536 3.631918 0.000000 0.000000 0.000000
0.250441 0.815193 3.547549 0.000000 0.000000 0.000000
0.297043 0.810566 3.578647 0.000000 0.000000 0.000000
0.096900 0.734117 3.731229 0.000000 0.000000 0.000000
0.117490 0.783943 3.665513 0.000000 0.000000 0.000000
0.099969 0.729793 3.728796 0.000000 0.000000 0.000000
0.145977 0.810378 3.569883 0.000000 0.000000 0.000000
0.171409 0.808770 3.566094 0.000000 0.000000 0.000000
0.103389 0.742089 3.718386 0.000000 0.000000 0.000000
0.293752 0.792245 3.536041 0.000000 0.000000 0.000000
0.081463 0.768243 3.665620 0.000000 0.000000 0.000000
0.088767 0.797010 3.575796 0.000000 0.000000 0.000000
0.124383 0.737615 3.731212 0.000000 0.000000 0.000000
0.162075 0.808518 3.555131 0.000000 0.000000 0.000000
0.234537 0.815111 3.564281 0.000000 0.000000 0.000000
0.173644 0.792655 3.501205 0.000000 0.000000 0.000000
0.108162 0.803126 3.554832 0.000000 0.000000 0.000000
0.142816 0.808431 3.537765 0.000000 0.000000 0.000000
0.113490 0.807686 3.552721 0.000000 0.000000 0.000000
0.318214 0.820032 3.551322 0.000000 0.000000 0.000000
0.105167 0.799772 3.574786 0.000000 0.000000 0.000000
0.136310 0.812468 3.561630 0.000000 0.000000 0.000000
0.229009 0.816294 3.547196 0.000000 0.000000 0.000000
0.317726 0.835027 3.564964 0.000000 0.000000 0.000000
0.131987 0.817557 3.556453 0.000000 0.000000 0.000000
0.120867 0.751483 3.711360 0.000000 0.000000 0.000000
0.134851 0.811495 3.598954 0.000000 0.000000 0.000000
0.192706 0.799027 3.514310 0.000000 0.000000 0.000000
0.160413 0.806337 3.572098 0.000000 0.000000 0.000000
0.182831 0.756124 3.726451 0.000000 0.000000 0.000000
0.093813 0.724949 3.740427 0.000000 0.000000 0.000000
0.130965 0.775840 3.681846 0.000000 0.000000 0.000000
0.149531 0.787657 3.668747 0.000000 0.000000 0.000000
0.125118 0.761197 3.694605 0.000000 0.000000 0.000000
0.257884 0.808877 3.653282 0.000000 0.000000 0.000000
0.093710 0.795192 3.611665 0.000000 0.000000 0.000000
0.176944 0.804495 3.587061 0.000000 0.000000 0.000000
0.126283 0.818066 3.576140 0.000000 0.000000 0.000000
0.270608 0.797030 3.665902 0.000000 0.000000 0.000000
0.138622 0.781610 3.672184 0.000000 0.000000 0.000000
0.131363 0.745798 3.719782 0.000000 0.000000 0.000000
0.318364 0.838534 3.560077 0.000000 0.000000 0.000000
0.156528 0.791761 3.653239 0.000000 0.000000 0.000000
0.135437 0.727889 3.736503 0.000000 0.000000 0.000000
0.122077 0.759704 3.701952 0.000000 0.000000 0.000000
0.096046 0.815596 3.567813 0.000000 0.000000 0.000000
0.127431 0.814990 3.556340 0.000000 0.000000 0.000000
0.072416 0.785673 3.606114 0.000000 0.000000 0.000000
0.074098 0.770073 3.643404 0.000000 0.000000 0.000000
0.203795 0.756146 3.716362 0.000000 0.000000 0.000000
0.113331 0.724691 3.740413 0.000000 0.000000 0.000000
0.132003 0.778549 3.676707 0.000000 0.000000 0.000000
0.248167 0.804132 3.665446 0.000000 0.000000 0.000000
0.175791 0.743269 3.738177 0.000000 0.000000 0.000000
0.122953 0.810190 3.568900 0.000000 0.000000 0.000000
0.088983 0.771647 3.660104 0.000000 0.000000 0.000000
0.298748 0.814358 3.602757 0.000000 0.000000 0.000000
0.139308 0.808432 3.540915 0.000000 0.000000 0.000000
0.153838 0.810300 3.563207 0.000000 0.000000 0.000000
0.219406 0.808763 3.596268 0.000000 0.000000 0.000000
0.185740 0.794916 3.563153 0.000000 0.000000 0.000000
0.153720 0.798507 3.618408 0.000000 0.000000 0.000000
0.123361 0.806021 3.626704 0.000000 0.000000 0.000000
0.071602 0.749654 3.679923 0.000000 0.000000 0.000000
0.067363 0.752421 3.678162 0.000000 0.000000 0.000000
0.129009 0.790880 3.644034 0.000000 0.000000 0.000000
0.110386 0.785355 3.655368 0.000000 0.000000 0.000000
0.148703 0.797071 3.623640 0.000000 0.000000 0.000000
0.098711 0.759515 3.691330 0.000000 0.000000 0.000000
0.180575 0.807466 3.584176 0.000000 0.000000 0.000000
0.109551 0.791840 3.638957 0.000000 0.000000 0.000000
0.149274 0.796780 3.623250 0.000000 0.000000 0.000000
0.148118 0.792375 3.613958 0.000000 0.000000 0.000000
0.084021 0.770477 3.665837 0.000000 0.000000 0.000000
0.073015 0.767342 3.660318 0.000000 0.000000 0.000000
0.132729 0.799269 3.637518 0.000000 0.000000 0.000000
0.113696 0.786958 3.653145 0.000000 0.000000 0.000000
0.146777 0.809659 3.547117 0.000000 0.000000 0.000000
0.195479 0.796105 3.636366 0.000000 0.000000 0.000000
0.113052 0.736701 3.730356 0.000000 0.000000 0.000000
0.163719 0.809081 3.538049 0.000000 0.000000 0.000000
0.175291 0.801043 3.518767 0.000000 0.000000 0.000000
0.233090 0.781328 3.706178 0.000000 0.000000 0.000000
0.207169 0.805636 3.552777 0.000000 0.000000 0.000000
0.311485 0.819086 3.575773 0.000000 0.000000 0.000000
0.223494 0.808392 3.662437 0.000000 0.000000 0.000000
0.152280 0.800437 3.520673 0.000000 0.000000 0.000000
0.194518 0.762263 3.707464 0.000000 0.000000 0.000000
0.235602 0.791398 3.697334 0.000000 0.000000 0.000000
0.212392 0.810800 3.573240 0.000000 0.000000 0.000000
0.273051 0.817997 3.579949 0.000000 0.000000 0.000000
0.197358 0.799285 3.674867 0.000000 0.000000 0.000000
0.066146 0.763345 3.657892 0.000000 0.000000 0.000000
0.095345 0.806531 3.578307 0.000000 0.000000 0.000000
0.304694 0.816421 3.544901 0.000000 0.000000 0.000000
0.202912 0.799852 3.650738 0.000000 0.000000 0.000000
0.208405 0.805054 3.668936 0.000000 0.000000 0.000000
0.231593 0.780848 3.700244 0.000000 0.000000 0.000000
0.082534 0.780919 3.635712 0.000000 0.000000 0.000000
0.180850 0.777849 3.704893 0.000000 0.000000 0.000000
0.082473 0.800929 3.587285 0.000000 0.000000 0.000000
0.266468 0.804913 3.513908 0.000000 0.000000 0.000000
0.214448 0.805167 3.654267 0.000000 0.000000 0.000000
0.207247 0.802872 3.653436 0.000000 0.000000 0.000000
0.193234 0.798831 3.615866 0.000000 0.000000 0.000000
0.088914 0.793599 3.574805 0.000000 0.000000 0.000000
0.302007 0.809016 3.561523 0.000000 0.000000 0.000000
0.108948 0.739423 3.726911 0.000000 0.000000 0.000000
0.182686 0.797239 3.630426 0.000000 0.000000 0.000000
0.098559 0.727460 3.736476 0.000000 0.000000 0.000000
0.193362 0.800701 3.620174 0.000000 0.000000 0.000000
0.197183 0.801228 3.657459 0.000000 0.000000 0.000000
0.222060 0.807549 3.608493 0.000000 0.000000 0.000000
0.224021 0.801327 3.495788 0.000000 0.000000 0.000000
0.205398 0.799510 3.627646 0.000000 0.000000 0.000000
0.176742 0.811190 3.547513 0.000000 0.000000 0.000000
0.183648 0.797731 3.647228 0.000000 0.000000 0.000000
0.233291 0.790622 3.639146 0.000000 0.000000 0.000000
0.154623 0.748009 3.726235 0.000000 0.000000 0.000000
0.084425 0.783315 3.629389 0.000000 0.000000 0.000000
0.075747 0.766193 3.669590 0.000000 0.000000 0.000000
0.114411 0.733134 3.735012 0.000000 0.000000 0.000000
0.249759 0.809932 3.659011 0.000000 0.000000 0.000000
0.113164 0.724730 3.734785 0.000000 0.000000 0.000000
0.258016 0.818602 3.586363 0.000000 0.000000 0.000000
0.077329 0.766929 3.664692 0.000000 0.000000 0.000000
0.208397 0.812662 3.574720 0.000000 0.000000 0.000000
0.065261 0.763242 3.657341 0.000000 0.000000 0.000000
0.218866 0.806893 3.627428 0.000000 0.000000 0.000000
0.238779 0.818985 3.576297 0.000000 0.000000 0.000000
0.225561 0.815465 3.559942 0.000000 0.000000 0.000000
0.240834 0.814778 3.566128 0.000000 0.000000 0.000000
0.229848 0.810804 3.634874 0.000000 0.000000 0.000000
0.241180 0.808487 3.586213 0.000000 0.000000 0.000000
0.213055 0.803331 3.507246 0.000000 0.000000 0.000000
0.258549 0.815086 3.597066 0.000000 0.000000 0.000000
0.218315 0.812609 3.570299 0.000000 0.000000 0.000000
0.221635 0.818244 3.549894 0.000000 0.000000 0.000000
0.159445 0.806154 3.528318 0.000000 0.000000 0.000000
0.228229 0.809504 3.617596 0.000000 0.000000 0.000000
0.063515 0.762076 3.647727 0.000000 0.000000 0.000000
0.076656 0.741426 3.706749 0.000000 0.000000 0.000000
0.149287 0.808536 3.540225 0.000000 0.000000 0.000000
0.224852 0.793621 3.688203 0.000000 0.000000 0.000000
0.246370 0.814784 3.637318 0.000000 0.000000 0.000000
0.091729 0.736380 3.701343 0.000000 0.000000 0.000000
0.236463 0.812412 3.622450 0.000000 0.000000 0.000000
0.081449 0.747342 3.701587 0.000000 0.000000 0.000000
0.080193 0.736388 3.694661 0.000000 0.000000 0.000000
0.222175 0.808568 3.629258 0.000000 0.000000 0.000000
0.218589 0.774891 3.672945 0.000000 0.000000 0.000000
0.246478 0.806915 3.672432 0.000000 0.000000 0.000000
0.246508 0.806043 3.640978 0.000000 0.000000 0.000000
0.086777 0.745999 3.690081 0.000000 0.000000 0.000000
0.220932 0.805939 3.615732 0.000000 0.000000 0.000000
0.084264 0.751655 3.683147 0.000000 0.000000 0.000000
0.072306 0.737654 3.710877 0.000000 0.000000 0.000000
0.234891 0.809433 3.608713 0.000000 0.000000 0.000000
0.248009 0.776612 3.679206 0.000000 0.000000 0.000000
0.078750 0.796565 3.650697 0.000000 0.000000 0.000000
0.110982 0.738250 3.730765 0.000000 0.000000 0.000000
0.191544 0.810586 3.564425 0.000000 0.000000 0.000000
0.126101 0.792558 3.651728 0.000000 0.000000 0.000000
0.092742 0.749101 3.714105 0.000000 0.000000 0.000000
0.192953 0.810328 3.564296 0.000000 0.000000 0.000000
0.142374 0.801990 3.603876 0.000000 0.000000 0.000000
0.249719 0.808418 3.543111 0.000000 0.000000 0.000000
0.137072 0.806440 3.539301 0.000000 0.000000 0.000000
0.054085 0.757245 3.672328 0.000000 0.000000 0.000000
0.159137 0.806422 3.533848 0.000000 0.000000 0.000000
0.183826 0.772116 3.694477 0.000000 0.000000 0.000000
0.155010 0.755779 3.738288 0.000000 0.000000 0.000000
0.206572 0.747531 3.722348 0.000000 0.000000 0.000000
0.141838 0.745606 3.733413 0.000000 0.000000 0.000000
0.177285 0.803427 3.600998 0.000000 0.000000 0.000000
0.072042 0.756170 3.676917 0.000000 0.000000 0.000000
0.213340 0.809469 3.641352 0.000000 0.000000 0.000000
0.140776 0.730417 3.744392 0.000000 0.000000 0.000000
0.162058 0.741217 3.734346 0.000000 0.000000 0.000000
0.193278 0.770668 3.718135 0.000000 0.000000 0.000000
0.214588 0.766542 3.713339 0.000000 0.000000 0.000000
0.193017 0.814051 3.534773 0.000000 0.000000 0.000000
0.145406 0.804506 3.532413 0.000000 0.000000 0.000000
0.194994 0.751300 3.722925 0.000000 0.000000 0.000000
0.222914 0.772497 3.694954 0.000000 0.000000 0.000000
0.151102 0.808967 3.583715 0.000000 0.000000 0.000000
0.199615 0.764496 3.720198 0.000000 0.000000 0.000000
0.084701 0.759101 3.683754 0.000000 0.000000 0.000000
0.230555 0.811460 3.647276 0.000000 0.000000 0.000000
0.078665 0.787934 3.594485 0.000000 0.000000 0.000000
0.072414 0.765276 3.667871 0.000000 0.000000 0.000000
0.203931 0.816484 3.536353 0.000000 0.000000 0.000000
0.308870 0.835277 3.629114 0.000000 0.000000 0.000000
0.070828 0.818009 3.683650 0.000000 0.000000 0.000000
0.070312 0.764172 3.663545 0.000000 0.000000 0.000000
0.148117 0.816561 3.550536 0.000000 0.000000 0.000000
0.248461 0.817768 3.591166 0.000000 0.000000 0.000000
0.072786 0.760187 3.680944 0.000000 0.000000 0.000000
0.243918 0.815559 3.608062 0.000000 0.000000 0.000000
0.255823 0.806148 3.661178 0.000000 0.000000 0.000000
0.182868 0.812254 3.533710 0.000000 0.000000 0.000000
0.215775 0.812511 3.574974 0.000000 0.000000 0.000000
0.111577 0.800027 3.539722 0.000000 0.000000 0.000000
0.070138 0.765576 3.657859 0.000000 0.000000 0.000000
0.236916 0.810570 3.608879 0.000000 0.000000 0.000000
0.065588 0.749077 3.694405 0.000000 0.000000 0.000000
0.252738 0.823587 3.612024 0.000000 0.000000 0.000000
0.260754 0.795233 3.664300 0.000000 0.000000 0.000000
0.089175 0.798877 3.597614 0.000000 0.000000 0.000000
0.167278 0.807882 3.528402 0.000000 0.000000 0.000000
0.165301 0.798341 3.516228 0.000000 0.000000 0.000000
0.182474 0.795727 3.512258 0.000000 0.000000 0.000000
0.127263 0.788008 3.637059 0.000000 0.000000 0.000000
0.163558 0.796366 3.540523 0.000000 0.000000 0.000000
0.149583 0.806085 3.606245 0.000000 0.000000 0.000000
0.134837 0.781417 3.640837 0.000000 0.000000 0.000000
0.132125 0.786093 3.634881 0.000000 0.000000 0.000000
0.095977 0.780886 3.649468 0.000000 0.000000 0.000000
0.139481 0.798621 3.524339 0.000000 0.000000 0.000000
0.298732 0.824057 3.636074 0.000000 0.000000 0.000000
0.113518 0.809876 3.552121 0.000000 0.000000 0.000000
0.155948 0.805835 3.531598 0.000000 0.000000 0.000000
0.075099 0.755159 3.682144 0.000000 0.000000 0.000000
0.264994 0.816982 3.577224 0.000000 0.000000 0.000000
0.164286 0.791318 3.657891 0.000000 0.000000 0.000000
0.246127 0.815016 3.604584 0.000000 0.000000 0.000000
0.251749 0.795493 3.554490 0.000000 0.000000 0.000000
0.146865 0.767694 3.668603 0.000000 0.000000 0.000000
0.158607 0.789666 3.623222 0.000000 0.000000 0.000000
0.178842 0.797502 3.624312 0.000000 0.000000 0.000000
0.069090 0.743055 3.718930 0.000000 0.000000 0.000000
0.132996 0.780530 3.670119 0.000000 0.000000 0.000000
0.255761 0.815648 3.613138 0.000000 0.000000 0.000000
0.275585 0.798593 3.521097 0.000000 0.000000 0.000000
0.136838 0.766424 3.658318 0.000000 0.000000 0.000000
0.155540 0.794933 3.628043 0.000000 0.000000 0.000000
0.116376 0.778447 3.670578 0.000000 0.000000 0.000000
0.062425 0.756522 3.677141 0.000000 0.000000 0.000000
0.218206 0.771613 3.711315 0.000000 0.000000 0.000000
0.258658 0.777821 3.569267 0.000000 0.000000 0.000000
0.082878 0.791734 3.593121 0.000000 0.000000 0.000000
0.135658 0.807463 3.543513 0.000000 0.000000 0.000000
0.162589 0.801527 3.612634 0.000000 0.000000 0.000000
0.157222 0.756902 3.664007 0.000000 0.000000 0.000000
0.169039 0.751130 3.724703 0.000000 0.000000 0.000000
0.193787 0.802283 3.620057 0.000000 0.000000 0.000000
0.188729 0.801056 3.610332 0.000000 0.000000 0.000000
0.226538 0.764472 3.710028 0.000000 0.000000 0.000000
0.157612 0.765022 3.715867 0.000000 0.000000 0.000000
0.233942 0.814350 3.525870 0.000000 0.000000 0.000000
0.179265 0.796419 3.623975 0.000000 0.000000 0.000000
0.154631 0.749227 3.674085 0.000000 0.000000 0.000000
0.151641 0.744246 3.731297 0.000000 0.000000 0.000000
0.214371 0.806033 3.604620 0.000000 0.000000 0.000000
0.100109 0.800600 3.555015 0.000000 0.000000 0.000000
0.153855 0.780206 3.689491 0.000000 0.000000 0.000000
0.214985 0.770313 3.706547 0.000000 0.000000 0.000000
0.176548 0.795952 3.634241 0.000000 0.000000 0.000000
0.143376 0.791948 3.652340 0.000000 0.000000 0.000000
0.065809 0.760033 3.671366 0.000000 0.000000 0.000000
0.210766 0.803187 3.633774 0.000000 0.000000 0.000000
0.304224 0.805703 3.553425 0.000000 0.000000 0.000000
0.170223 0.745623 3.734763 0.000000 0.000000 0.000000
0.305293 0.812747 3.566051 0.000000 0.000000 0.000000
0.275027 0.796950 3.546586 0.000000 0.000000 0.000000
0.309997 0.820587 3.557440 0.000000 0.000000 0.000000
0.270020 0.815341 3.553060 0.000000 0.000000 0.000000
0.210850 0.804861 3.645561 0.000000 0.000000 0.000000
0.184519 0.750919 3.731643 0.000000 0.000000 0.000000
0.273900 0.792344 3.537007 0.000000 0.000000 0.000000
0.251708 0.804290 3.500597 0.000000 0.000000 0.000000
0.301832 0.820873 3.574126 0.000000 0.000000 0.000000
0.189766 0.798643 3.647233 0.000000 0.000000 0.000000
0.063906 0.742596 3.707639 0.000000 0.000000 0.000000
0.278702 0.810802 3.667187 0.000000 0.000000 0.000000
0.148629 0.811441 3.560104 0.000000 0.000000 0.000000
0.149090 0.744213 3.675089 0.000000 0.000000 0.000000
0.210767 0.802539 3.623007 0.000000 0.000000 0.000000
0.162633 0.810819 3.560786 0.000000 0.000000 0.000000
0.237096 0.826122 3.570329 0.000000 0.000000 0.000000
0.234116 0.812926 3.599540 0.000000 0.000000 0.000000
0.146403 0.782247 3.679417 0.000000 0.000000 0.000000
0.226988 0.809390 3.623408 0.000000 0.000000 0.000000
0.162046 0.756583 3.660257 0.000000 0.000000 0.000000
0.150929 0.795810 3.516621 0.000000 0.000000 0.000000
0.151543 0.808420 3.569233 0.000000 0.000000 0.000000
0.132701 0.808973 3.548670 0.000000 0.000000 0.000000
0.116224 0.806638 3.547996 0.000000 0.000000 0.000000
0.250541 0.813620 3.606236 0.000000 0.000000 0.000000
0.200075 0.809362 3.579546 0.000000 0.000000 0.000000
0.131218 0.803323 3.537175 0.000000 0.000000 0.000000
0.317474 0.816622 3.546393 0.000000 0.000000 0.000000
0.133248 0.795478 3.524785 0.000000 0.000000 0.000000
0.295238 0.828875 3.637013 0.000000 0.000000 0.000000
0.199440 0.810179 3.574094 0.000000 0.000000 0.000000
0.259278 0.815042 3.518812 0.000000 0.000000 0.000000
0.132628 0.808202 3.545491 0.000000 0.000000 0.000000
0.219725 0.809043 3.599718 0.000000 0.000000 0.000000
0.235485 0.812877 3.589682 0.000000 0.000000 0.000000
0.284355 0.802998 3.563180 0.000000 0.000000 0.000000
0.154297 0.799405 3.514970 0.000000 0.000000 0.000000
0.074700 0.734038 3.719182 0.000000 0.000000 0.000000
0.125130 0.794602 3.532316 0.000000 0.000000 0.000000
0.182309 0.793808 3.632061 0.000000 0.000000 0.000000
0.071534 0.737707 3.705358 0.000000 0.000000 0.000000
0.211337 0.809337 3.593482 0.000000 0.000000 0.000000
0.122236 0.831288 3.569102 0.000000 0.000000 0.000000
0.206001 0.802163 3.617629 0.000000 0.000000 0.000000
0.217323 0.812766 3.531348 0.000000 0.000000 0.000000
0.153930 0.803658 3.526501 0.000000 0.000000 0.000000
0.148498 0.801714 3.526320 0.000000 0.000000 0.000000
0.245969 0.796451 3.497742 0.000000 0.000000 0.000000
0.187607 0.796684 3.628058 0.000000 0.000000 0.000000
0.069132 0.747229 3.693784 0.000000 0.000000 0.000000
0.086973 0.767494 3.671930 0.000000 0.000000 0.000000
0.214717 0.811551 3.575477 0.000000 0.000000 0.000000
0.121319 0.834454 3.557602 0.000000 0.000000 0.000000
0.195481 0.802596 3.606577 0.000000 0.000000 0.000000
0.075830 0.796740 3.619085 0.000000 0.000000 0.000000
0.085939 0.819251 3.526409 0.000000 0.000000 0.000000
0.212986 0.804251 3.623264 0.000000 0.000000 0.000000
0.075210 0.798125 3.616034 0.000000 0.000000 0.000000
0.084592 0.822844 3.540547 0.000000 0.000000 0.000000
0.191763 0.796268 3.627850 0.000000 0.000000 0.000000
0.106895 0.818675 3.554720 0.000000 0.000000 0.000000
0.086989 0.793620 3.602425 0.000000 0.000000 0.000000
0.089709 0.798543 3.576130 0.000000 0.000000 0.000000
0.215081 0.811854 3.560000 0.000000 0.000000 0.000000
0.086824 0.810195 3.577824 0.000000 0.000000 0.000000
0.090993 0.805027 3.570222 0.000000 0.000000 0.000000
0.226131 0.814957 3.573039 0.000000 0.000000 0.000000
0.199137 0.810664 3.580940 0.000000 0.000000 0.000000
0.088853 0.791597 3.585141 0.000000 0.000000 0.000000
0.217192 0.802631 3.551409 0.000000 0.000000 0.000000
0.093001 0.809374 3.569916 0.000000 0.000000 0.000000
0.129025 0.729086 3.741086 0.000000 0.000000 0.000000
0.247502 0.815394 3.566538 0.000000 0.000000 0.000000
0.260533 0.818219 3.580332 0.000000 0.000000 0.000000
0.232594 0.816264 3.551646 0.000000 0.000000 0.000000
0.237094 0.766012 3.575092 0.000000 0.000000 0.000000
0.123970 0.803539 3.537571 0.000000 0.000000 0.000000
0.121829 0.808946 3.544478 0.000000 0.000000 0.000000
0.256697 0.809193 3.666690 0.000000 0.000000 0.000000
0.112718 0.814764 3.558702 0.000000 0.000000 0.000000
0.141786 0.741616 3.735579 0.000000 0.000000 0.000000
0.141550 0.809714 3.540500 0.000000 0.000000 0.000000
0.236101 0.809490 3.508900 0.000000 0.000000 0.000000
0.133470 0.814926 3.557600 0.000000 0.000000 0.000000
0.267172 0.799225 3.668875 0.000000 0.000000 0.000000
0.249333 0.793195 3.689719 0.000000 0.000000 0.000000
0.105296 0.802215 3.550226 0.000000 0.000000 0.000000
0.078023 0.789477 3.595154 0.000000 0.000000 0.000000
0.094118 0.798977 3.577430 0.000000 0.000000 0.000000
0.078380 0.791860 3.591663 0.000000 0.000000 0.000000
0.129410 0.751048 3.733982 0.000000 0.000000 0.000000
0.159880 0.735738 3.742880 0.000000 0.000000 0.000000
0.138081 0.740069 3.740547 0.000000 0.000000 0.000000
0.127421 0.750850 3.729445 0.000000 0.000000 0.000000
0.149801 0.736086 3.744808 0.000000 0.000000 0.000000
0.116037 0.763050 3.733908 0.000000 0.000000 0.000000
0.258931 0.817052 3.562627 0.000000 0.000000 0.000000
0.097096 0.797775 3.574334 0.000000 0.000000 0.000000
0.159377 0.791115 3.649343 0.000000 0.000000 0.000000
0.239464 0.782060 3.690910 0.000000 0.000000 0.000000
0.159184 0.793068 3.632867 0.000000 0.000000 0.000000
0.290985 0.818049 3.616299 0.000000 0.000000 0.000000
0.107604 0.810469 3.563450 0.000000 0.000000 0.000000
0.063601 0.763141 3.661285 0.000000 0.000000 0.000000
0.150425 0.790434 3.638325 0.000000 0.000000 0.000000
0.248904 0.792272 3.685107 0.000000 0.000000 0.000000
0.158173 0.799949 3.621489 0.000000 0.000000 0.000000
0.278185 0.815519 3.634215 0.000000 0.000000 0.000000
0.107267 0.810171 3.557106 0.000000 0.000000 0.000000
0.060984 0.759436 3.672492 0.000000 0.000000 0.000000
0.153912 0.802089 3.616818 0.000000 0.000000 0.000000
0.152503 0.787152 3.658728 0.000000 0.000000 0.000000
0.266745 0.805753 3.646772 0.000000 0.000000 0.000000
0.065690 0.763417 3.653396 0.000000 0.000000 0.000000
0.149911 0.796640 3.633637 0.000000 0.000000 0.000000
0.186442 0.796033 3.658498 0.000000 0.000000 0.000000
0.160547 0.791756 3.639029 0.000000 0.000000 0.000000
0.176244 0.795690 3.632837 0.000000 0.000000 0.000000
0.174765 0.796358 3.637983 0.000000 0.000000 0.000000
0.194192 0.802925 3.617663 0.000000 0.000000 0.000000
0.115709 0.801944 3.535919 0.000000 0.000000 0.000000
0.179940 0.795946 3.653802 0.000000 0.000000 0.000000
0.148578 0.802586 3.528063 0.000000 0.000000 0.000000
0.271018 0.805346 3.526610 0.000000 0.000000 0.000000
0.228049 0.789002 3.689165 0.000000 0.000000 0.000000
0.244825 0.793931 3.513253 0.000000 0.000000 0.000000
0.265043 0.812930 3.514872 0.000000 0.000000 0.000000
0.141512 0.785203 3.671924 0.000000 0.000000 0.000000
0.235677 0.798252 3.691397 0.000000 0.000000 0.000000
0.279610 0.814742 3.644778 0.000000 0.000000 0.000000
0.170883 0.793501 3.647536 0.000000 0.000000 0.000000
0.188172 0.796651 3.670531 0.000000 0.000000 0.000000
0.185030 0.797592 3.643697 0.000000 0.000000 0.000000
0.172003 0.792974 3.652636 0.000000 0.000000 0.000000
0.188441 0.799652 3.610967 0.000000 0.000000 0.000000
0.137237 0.799423 3.526042 0.000000 0.000000 0.000000
0.182307 0.794018 3.663686 0.000000 0.000000 0.000000
0.126352 0.798407 3.531017 0.000000 0.000000 0.000000
0.122718 0.799902 3.532683 0.000000 0.000000 0.000000
0.267736 0.814839 3.512244 0.000000 0.000000 0.000000
0.154276 0.804210 3.528790 0.000000 0.000000 0.000000
0.230060 0.789978 3.703269 0.000000 0.000000 0.000000
0.121978 0.810294 3.551074 0.000000 0.000000 0.000000
0.306529 0.810334 3.555646 0.000000 0.000000 0.000000
0.120469 0.808968 3.547828 0.000000 0.000000 0.000000
0.068888 0.755105 3.678252 0.000000 0.000000 0.000000
0.230548 0.771847 3.702364 0.000000 0.000000 0.000000
0.307820 0.813846 3.540921 0.000000 0.000000 0.000000
0.306885 0.803934 3.550087 0.000000 0.000000 0.000000
0.319553 0.824633 3.549249 0.000000 0.000000 0.000000
0.073898 0.749585 3.698524 0.000000 0.000000 0.000000
0.304851 0.804785 3.565598 0.000000 0.000000 0.000000
0.270016 0.801902 3.514175 0.000000 0.000000 0.000000
0.106616 0.810750 3.570140 0.000000 0.000000 0.000000
0.269388 0.815658 3.517414 0.000000 0.000000 0.000000
0.244528 0.810873 3.514352 0.000000 0.000000 0.000000
0.250284 0.801480 3.505805 0.000000 0.000000 0.000000
0.270580 0.814773 3.648530 0.000000 0.000000 0.000000
0.310498 0.829958 3.596666 0.000000 0.000000 0.000000
0.089160 0.808528 3.568857 0.000000 0.000000 0.000000
0.316529 0.816665 3.534734 0.000000 0.000000 0.000000
0.252954 0.785356 3.671337 0.000000 0.000000 0.000000
0.135353 0.809778 3.563291 0.000000 0.000000 0.000000
0.271280 0.811060 3.675496 0.000000 0.000000 0.000000
0.272934 0.811741 3.667022 0.000000 0.000000 0.000000
0.219707 0.783584 3.707987 0.000000 0.000000 0.000000
0.226065 0.783627 3.702367 0.000000 0.000000 0.000000
0.288529 0.798125 3.525591 0.000000 0.000000 0.000000
0.201830 0.760094 3.710747 0.000000 0.000000 0.000000
0.232075 0.769712 3.704351 0.000000 0.000000 0.000000
0.202799 0.778416 3.709703 0.000000 0.000000 0.000000
0.282775 0.814324 3.532502 0.000000 0.000000 0.000000
0.192258 0.787071 3.697677 0.000000 0.000000 0.000000
0.237864 0.793563 3.690133 0.000000 0.000000 0.000000
0.302923 0.803671 3.525284 0.000000 0.000000 0.000000
0.221450 0.782527 3.702140 0.000000 0.000000 0.000000
0.225441 0.778794 3.710086 0.000000 0.000000 0.000000
0.218219 0.779876 3.710770 0.000000 0.000000 0.000000
0.245995 0.791184 3.687176 0.000000 0.000000 0.000000
0.193540 0.781033 3.712650 0.000000 0.000000 0.000000
0.285148 0.814347 3.528632 0.000000 0.000000 0.000000
0.157303 0.761625 3.726514 0.000000 0.000000 0.000000
0.234226 0.797908 3.697108 0.000000 0.000000 0.000000
0.150423 0.780973 3.676766 0.000000 0.000000 0.000000
0.157874 0.774006 3.697789 0.000000 0.000000 0.000000
0.120863 0.805388 3.540227 0.000000 0.000000 0.000000
0.136891 0.775899 3.693155 0.000000 0.000000 0.000000
0.173820 0.789256 3.691343 0.000000 0.000000 0.000000
0.122900 0.804714 3.541439 0.000000 0.000000 0.000000
0.262681 0.803929 3.551025 0.000000 0.000000 0.000000
0.196399 0.799892 3.632703 0.000000 0.000000 0.000000
0.091288 0.800092 3.567984 0.000000 0.000000 0.000000
0.201773 0.753930 3.723258 0.000000 0.000000 0.000000
0.315900 0.816142 3.533593 0.000000 0.000000 0.000000
0.090777 0.807116 3.569794 0.000000 0.000000 0.000000
0.069976 0.752424 3.683428 0.000000 0.000000 0.000000
0.314201 0.807479 3.535094 0.000000 0.000000 0.000000
0.278378 0.819060 3.574640 0.000000 0.000000 0.000000
0.309593 0.824076 3.585728 0.000000 0.000000 0.000000
0.097372 0.803474 3.566724 0.000000 0.000000 0.000000
0.092370 0.805822 3.570699 0.000000 0.000000 0.000000
0.063593 0.750348 3.656468 0.000000 0.000000 0.000000
0.091823 0.802320 3.569815 0.000000 0.000000 0.000000
0.197375 0.810676 3.576188 0.000000 0.000000 0.000000
0.131955 0.801542 3.531663 0.000000 0.000000 0.000000
0.090816 0.799409 3.607400 0.000000 0.000000 0.000000
0.220480 0.813111 3.582938 0.000000 0.000000 0.000000
0.229498 0.810666 3.585242 0.000000 0.000000 0.000000
0.203056 0.805572 3.589999 0.000000 0.000000 0.000000
0.159556 0.795368 3.515697 0.000000 0.000000 0.000000
0.216245 0.811584 3.588449 0.000000 0.000000 0.000000
0.154203 0.801265 3.523740 0.000000 0.000000 0.000000
0.079387 0.780709 3.624052 0.000000 0.000000 0.000000
0.213515 0.809215 3.596610 0.000000 0.000000 0.000000
0.208984 0.804270 3.591916 0.000000 0.000000 0.000000
0.249121 0.812198 3.510918 0.000000 0.000000 0.000000
0.213890 0.799298 3.497017 0.000000 0.000000 0.000000
0.228563 0.804754 3.495736 0.000000 0.000000 0.000000
0.236178 0.803791 3.496162 0.000000 0.000000 0.000000
0.062330 0.754291 3.684105 0.000000 0.000000 0.000000
0.222380 0.805681 3.502110 0.000000 0.000000 0.000000
0.196544 0.802012 3.513192 0.000000 0.000000 0.000000
0.068846 0.745332 3.707642 0.000000 0.000000 0.000000
0.214926 0.808012 3.512371 0.000000 0.000000 0.000000
0.231263 0.809672 3.507366 0.000000 0.000000 0.000000
0.220628 0.814649 3.503907 0.000000 0.000000 0.000000
0.233793 0.810950 3.514787 0.000000 0.000000 0.000000
0.210078 0.807559 3.509530 0.000000 0.000000 0.000000
0.240944 0.807619 3.496041 0.000000 0.000000 0.000000
0.246866 0.808170 3.499386 0.000000 0.000000 0.000000
0.212884 0.803371 3.502557 0.000000 0.000000 0.000000
0.234345 0.806535 3.501377 0.000000 0.000000 0.000000
0.238018 0.804281 3.492823 0.000000 0.000000 0.000000
0.242105 0.803258 3.498395 0.000000 0.000000 0.000000
0.130045 0.798680 3.528961 0.000000 0.000000 0.000000
0.319478 0.817479 3.541258 0.000000 0.000000 0.000000
0.319573 0.824024 3.541513 0.000000 0.000000 0.000000
0.067901 0.764355 3.659025 0.000000 0.000000 0.000000
0.275240 0.806877 3.514084 0.000000 0.000000 0.000000
0.069784 0.763260 3.650058 0.000000 0.000000 0.000000
0.136881 0.812979 3.557035 0.000000 0.000000 0.000000
0.125054 0.824045 3.553858 0.000000 0.000000 0.000000
0.083715 0.785143 3.616466 0.000000 0.000000 0.000000
0.075415 0.780925 3.610601 0.000000 0.000000 0.000000
0.083156 0.770325 3.651948 0.000000 0.000000 0.000000
0.063599 0.756853 3.683723 0.000000 0.000000 0.000000
0.124693 0.814682 3.553621 0.000000 0.000000 0.000000
0.096303 0.806834 3.558554 0.000000 0.000000 0.000000
0.122022 0.814295 3.546476 0.000000 0.000000 0.000000
0.083589 0.782130 3.630273 0.000000 0.000000 0.000000
0.067381 0.763077 3.661625 0.000000 0.000000 0.000000
0.059932 0.761296 3.656667 0.000000 0.000000 0.000000
0.085986 0.779885 3.644943 0.000000 0.000000 0.000000
0.071447 0.737765 3.716742 0.000000 0.000000 0.000000
0.166654 0.791967 3.509151 0.000000 0.000000 0.000000
0.178704 0.796598 3.516041 0.000000 0.000000 0.000000
0.245144 0.814282 3.554337 0.000000 0.000000 0.000000
0.172083 0.795347 3.511995 0.000000 0.000000 0.000000
0.316115 0.837885 3.554192 0.000000 0.000000 0.000000
0.103024 0.806347 3.561321 0.000000 0.000000 0.000000
0.107921 0.807116 3.560099 0.000000 0.000000 0.000000
0.105048 0.813921 3.579428 0.000000 0.000000 0.000000
0.095276 0.798992 3.565960 0.000000 0.000000 0.000000
0.100080 0.808533 3.569551 0.000000 0.000000 0.000000
0.089448 0.799665 3.565278 0.000000 0.000000 0.000000
0.071615 0.779751 3.610352 0.000000 0.000000 0.000000
0.236070 0.770601 3.552933 0.000000 0.000000 0.000000
0.107727 0.801368 3.546055 0.000000 0.000000 0.000000
0.178040 0.752978 3.734301 0.000000 0.000000 0.000000
0.081400 0.794090 3.584808 0.000000 0.000000 0.000000
0.107760 0.812725 3.552673 0.000000 0.000000 0.000000
0.149748 0.807806 3.572178 0.000000 0.000000 0.000000
0.075406 0.777726 3.615969 0.000000 0.000000 0.000000
0.089633 0.798941 3.564771 0.000000 0.000000 0.000000
0.203464 0.758105 3.719308 0.000000 0.000000 0.000000
0.110158 0.800865 3.542787 0.000000 0.000000 0.000000
0.163999 0.762070 3.736410 0.000000 0.000000 0.000000
0.069724 0.776789 3.621096 0.000000 0.000000 0.000000
0.134772 0.818214 3.552878 0.000000 0.000000 0.000000
0.157821 0.809554 3.552107 0.000000 0.000000 0.000000
0.084516 0.794159 3.575585 0.000000 0.000000 0.000000
0.073070 0.777259 3.627667 0.000000 0.000000 0.000000
0.182537 0.762824 3.724252 0.000000 0.000000 0.000000
0.107938 0.800364 3.546958 0.000000 0.000000 0.000000
0.168238 0.762353 3.731220 0.000000 0.000000 0.000000
0.106915 0.806798 3.554148 0.000000 0.000000 0.000000
0.146770 0.816998 3.547892 0.000000 0.000000 0.000000
0.271207 0.819545 3.614291 0.000000 0.000000 0.000000
0.192263 0.797689 3.665906 0.000000 0.000000 0.000000
0.220199 0.779908 3.655893 0.000000 0.000000 0.000000
0.294966 0.813223 3.568773 0.000000 0.000000 0.000000
0.281950 0.815711 3.535841 0.000000 0.000000 0.000000
0.187635 0.818791 3.551409 0.000000 0.000000 0.000000
0.190487 0.794663 3.499467 0.000000 0.000000 0.000000
0.293538 0.824196 3.611494 0.000000 0.000000 0.000000
0.230288 0.809702 3.663910 0.000000 0.000000 0.000000
0.218659 0.789826 3.683165 0.000000 0.000000 0.000000
0.290749 0.793262 3.552171 0.000000 0.000000 0.000000
0.064313 0.744079 3.717365 0.000000 0.000000 0.000000
0.163610 0.818117 3.560954 0.000000 0.000000 0.000000
0.226199 0.761837 3.549930 0.000000 0.000000 0.000000
0.141870 0.821394 3.568995 0.000000 0.000000 0.000000
0.237501 0.766210 3.553127 0.000000 0.000000 0.000000
0.263849 0.819985 3.606375 0.000000 0.000000 0.000000
0.172787 0.824040 3.556531 0.000000 0.000000 0.000000
0.159197 0.794913 3.514239 0.000000 0.000000 0.000000
0.153432 0.800033 3.520396 0.000000 0.000000 0.000000
0.289672 0.819896 3.528421 0.000000 0.000000 0.000000
0.142158 0.797429 3.521209 0.000000 0.000000 0.000000
0.149946 0.804233 3.528315 0.000000 0.000000 0.000000
0.278428 0.817625 3.508034 0.000000 0.000000 0.000000
0.160288 0.805749 3.523859 0.000000 0.000000 0.000000
0.144483 0.798305 3.521047 0.000000 0.000000 0.000000
0.271290 0.813225 3.534928 0.000000 0.000000 0.000000
0.070185 0.782225 3.610685 0.000000 0.000000 0.000000
0.106137 0.736649 3.738140 0.000000 0.000000 0.000000
0.309120 0.805074 3.534023 0.000000 0.000000 0.000000
0.205969 0.765651 3.722309 0.000000 0.000000 0.000000
0.058622 0.763737 3.645573 0.000000 0.000000 0.000000
0.205874 0.765003 3.715684 0.000000 0.000000 0.000000
0.206102 0.785753 3.707071 0.000000 0.000000 0.000000
0.071704 0.773870 3.631927 0.000000 0.000000 0.000000
0.240901 0.812939 3.530324 0.000000 0.000000 0.000000
0.208870 0.783277 3.710266 0.000000 0.000000 0.000000
0.200374 0.782474 3.708355 0.000000 0.000000 0.000000
0.058664 0.761633 3.651834 0.000000 0.000000 0.000000
0.226538 0.816038 3.539487 0.000000 0.000000 0.000000
0.216252 0.813679 3.529325 0.000000 0.000000 0.000000
0.280474 0.806599 3.589562 0.000000 0.000000 0.000000
0.248216 0.803136 3.529760 0.000000 0.000000 0.000000
0.197724 0.753822 3.727179 0.000000 0.000000 0.000000
0.269065 0.800246 3.538373 0.000000 0.000000 0.000000
0.268308 0.814296 3.550532 0.000000 0.000000 0.000000
0.242464 0.815075 3.543168 0.000000 0.000000 0.000000
0.224193 0.816116 3.536983 0.000000 0.000000 0.000000
0.291111 0.809027 3.579040 0.000000 0.000000 0.000000
0.252616 0.814447 3.524975 0.000000 0.000000 0.000000
0.260914 0.814958 3.539284 0.000000 0.000000 0.000000
0.260029 0.817688 3.563511 0.000000 0.000000 0.000000
0.242285 0.806665 3.501750 0.000000 0.000000 0.000000
0.249852 0.803222 3.499618 0.000000 0.000000 0.000000
0.072970 0.745066 3.705622 0.000000 0.000000 0.000000
0.067515 0.748037 3.695573 0.000000 0.000000 0.000000
0.062906 0.747502 3.691228 0.000000 0.000000 0.000000
0.067446 0.746780 3.707829 0.000000 0.000000 0.000000
0.056157 0.756154 3.683142 0.000000 0.000000 0.000000
0.067195 0.750458 3.698208 0.000000 0.000000 0.000000
0.228671 0.796764 3.494786 0.000000 0.000000 0.000000
0.062705 0.756783 3.681415 0.000000 0.000000 0.000000
0.066654 0.757725 3.680096 0.000000 0.000000 0.000000
0.060440 0.752188 3.701549 0.000000 0.000000 0.000000
0.058165 0.755500 3.691994 0.000000 0.000000 0.000000
0.082225 0.791565 3.598055 0.000000 0.000000 0.000000
0.079542 0.791626 3.578504 0.000000 0.000000 0.000000
0.070333 0.741788 3.713969 0.000000 0.000000 0.000000
0.066398 0.745804 3.712626 0.000000 0.000000 0.000000
0.075777 0.793929 3.596549 0.000000 0.000000 0.000000
0.121382 0.800158 3.534554 0.000000 0.000000 0.000000
0.106861 0.738859 3.741963 0.000000 0.000000 0.000000
0.111050 0.807213 3.541434 0.000000 0.000000 0.000000
0.245418 0.797126 3.692509 0.000000 0.000000 0.000000
0.113822 0.802445 3.541304 0.000000 0.000000 0.000000
0.099451 0.733723 3.729018 0.000000 0.000000 0.000000
0.125630 0.821569 3.548566 0.000000 0.000000 0.000000
0.110119 0.813181 3.553121 0.000000 0.000000 0.000000
0.244432 0.796023 3.696454 0.000000 0.000000 0.000000
0.121955 0.807874 3.533886 0.000000 0.000000 0.000000
0.162230 0.758191 3.657495 0.000000 0.000000 0.000000
0.204520 0.794771 3.686903 0.000000 0.000000 0.000000
0.214399 0.786002 3.691410 0.000000 0.000000 0.000000
0.312255 0.824614 3.578364 0.000000 0.000000 0.000000
0.204105 0.784231 3.703125 0.000000 0.000000 0.000000
0.212235 0.782322 3.698663 0.000000 0.000000 0.000000
0.209671 0.786557 3.694962 0.000000 0.000000 0.000000
0.216646 0.782218 3.694344 0.000000 0.000000 0.000000
0.211685 0.778054 3.711924 0.000000 0.000000 0.000000
0.206792 0.769006 3.703565 0.000000 0.000000 0.000000
0.071429 0.774807 3.619622 0.000000 0.000000 0.000000
0.141094 0.796769 3.522068 0.000000 0.000000 0.000000
0.147077 0.801692 3.524373 0.000000 0.000000 0.000000
0.118631 0.801920 3.537569 0.000000 0.000000 0.000000
0.137400 0.797244 3.523730 0.000000 0.000000 0.000000
0.061429 0.760412 3.662158 0.000000 0.000000 0.000000
0.148434 0.796915 3.518523 0.000000 0.000000 0.000000
0.146133 0.792502 3.522099 0.000000 0.000000 0.000000
0.072163 0.775390 3.619251 0.000000 0.000000 0.000000
0.061769 0.759712 3.669958 0.000000 0.000000 0.000000
0.064627 0.768935 3.643411 0.000000 0.000000 0.000000
0.160095 0.794972 3.511394 0.000000 0.000000 0.000000
0.126077 0.802802 3.525772 0.000000 0.000000 0.000000
0.060814 0.759136 3.672215 0.000000 0.000000 0.000000
0.139704 0.805942 3.534564 0.000000 0.000000 0.000000
0.139327 0.800407 3.527643 0.000000 0.000000 0.000000
0.061167 0.754177 3.667903 0.000000 0.000000 0.000000
0.145971 0.797411 3.519102 0.000000 0.000000 0.000000
0.158552 0.790289 3.519847 0.000000 0.000000 0.000000
0.071751 0.765409 3.662123 0.000000 0.000000 0.000000
0.074240 0.777561 3.621117 0.000000 0.000000 0.000000
0.127529 0.799662 3.532208 0.000000 0.000000 0.000000
0.142288 0.793595 3.522402 0.000000 0.000000 0.000000
0.278025 0.817420 3.664826 0.000000 0.000000 0.000000
0.255042 0.789901 3.686490 0.000000 0.000000 0.000000
0.289583 0.815236 3.551457 0.000000 0.000000 0.000000
0.150582 0.735945 3.748108 0.000000 0.000000 0.000000
0.285288 0.817017 3.580253 0.000000 0.000000 0.000000
0.278459 0.813247 3.563421 0.000000 0.000000 0.000000
0.157768 0.733487 3.747517 0.000000 0.000000 0.000000
0.267351 0.803069 3.508296 0.000000 0.000000 0.000000
0.274732 0.812543 3.507396 0.000000 0.000000 0.000000
0.254936 0.804344 3.513279 0.000000 0.000000 0.000000
0.255759 0.811743 3.504165 0.000000 0.000000 0.000000
0.254744 0.809173 3.507186 0.000000 0.000000 0.000000
0.098591 0.726641 3.738290 0.000000 0.000000 0.000000
0.090041 0.731329 3.733616 0.000000 0.000000 0.000000
0.127214 0.761761 3.733167 0.000000 0.000000 0.000000
0.212602 0.753948 3.720046 0.000000 0.000000 0.000000
0.229284 0.760191 3.704200 0.000000 0.000000 0.000000
0.084822 0.728744 3.741601 0.000000 0.000000 0.000000
0.104512 0.737418 3.742388 0.000000 0.000000 0.000000
0.078801 0.737715 3.731255 0.000000 0.000000 0.000000
0.084571 0.734929 3.743276 0.000000 0.000000 0.000000
0.091995 0.728778 3.733370 0.000000 0.000000 0.000000
0.133025 0.766804 3.729335 0.000000 0.000000 0.000000
0.211427 0.757365 3.718785 0.000000 0.000000 0.000000
0.081133 0.735654 3.730684 0.000000 0.000000 0.000000
0.084223 0.731001 3.738553 0.000000 0.000000 0.000000
0.164704 0.795106 3.585083 0.000000 0.000000 0.000000
0.170183 0.792903 3.588686 0.000000 0.000000 0.000000
0.098585 0.796691 3.550018 0.000000 0.000000 0.000000
0.103124 0.800970 3.549572 0.000000 0.000000 0.000000
0.189988 0.774077 3.720134 0.000000 0.000000 0.000000
0.193356 0.779213 3.718757 0.000000 0.000000 0.000000
0.106059 0.735712 3.740109 0.000000 0.000000 0.000000
0.118105 0.731320 3.741930 0.000000 0.000000 0.000000
0.086658 0.733644 3.736274 0.000000 0.000000 0.000000
0.193334 0.763368 3.726351 0.000000 0.000000 0.000000
0.183466 0.784814 3.714706 0.000000 0.000000 0.000000
0.092015 0.728774 3.738894 0.000000 0.000000 0.000000
0.098530 0.731957 3.742466 0.000000 0.000000 0.000000
0.229184 0.766730 3.708198 0.000000 0.000000 0.000000
0.222581 0.766442 3.564705 0.000000 0.000000 0.000000
0.073162 0.775945 3.602947 0.000000 0.000000 0.000000
0.086264 0.792713 3.611367 0.000000 0.000000 0.000000
0.077830 0.783651 3.599780 0.000000 0.000000 0.000000
0.073419 0.765391 3.661926 0.000000 0.000000 0.000000
0.065074 0.775634 3.618019 0.000000 0.000000 0.000000
0.070812 0.771256 3.639450 0.000000 0.000000 0.000000
0.063895 0.766281 3.643461 0.000000 0.000000 0.000000
0.236628 0.762510 3.704907 0.000000 0.000000 0.000000
0.070317 0.774947 3.612403 0.000000 0.000000 0.000000
0.084424 0.787877 3.623655 0.000000 0.000000 0.000000
0.077362 0.782525 3.607921 0.000000 0.000000 0.000000
0.071581 0.764879 3.661154 0.000000 0.000000 0.000000
0.074142 0.781082 3.608426 0.000000 0.000000 0.000000
0.075122 0.776651 3.633090 0.000000 0.000000 0.000000
0.069853 0.776042 3.636494 0.000000 0.000000 0.000000
0.221534 0.755376 3.717606 0.000000 0.000000 0.000000
0.061870 0.757538 3.661271 0.000000 0.000000 0.000000
0.062760 0.764139 3.654856 0.000000 0.000000 0.000000
0.064214 0.765595 3.650952 0.000000 0.000000 0.000000
0.134017 0.745814 3.748542 0.000000 0.000000 0.000000
0.065885 0.769477 3.634210 0.000000 0.000000 0.000000
0.121359 0.738865 3.745799 0.000000 0.000000 0.000000
0.129865 0.745731 3.735915 0.000000 0.000000 0.000000
0.127683 0.738912 3.746318 0.000000 0.000000 0.000000
0.061976 0.758987 3.659368 0.000000 0.000000 0.000000
0.118775 0.750124 3.738921 0.000000 0.000000 0.000000
0.117555 0.736080 3.746583 0.000000 0.000000 0.000000
0.095874 0.726737 3.739411 0.000000 0.000000 0.000000
0.084315 0.729272 3.732744 0.000000 0.000000 0.000000
0.067269 0.772001 3.628343 0.000000 0.000000 0.000000
0.075826 0.784882 3.597203 0.000000 0.000000 0.000000
0.092235 0.745819 3.741828 0.000000 0.000000 0.000000
0.060533 0.756451 3.682642 0.000000 0.000000 0.000000
0.073984 0.736503 3.741926 0.000000 0.000000 0.000000
0.066719 0.774025 3.621693 0.000000 0.000000 0.000000
0.076747 0.775252 3.637994 0.000000 0.000000 0.000000
0.076520 0.733781 3.727865 0.000000 0.000000 0.000000
0.068909 0.774749 3.620592 0.000000 0.000000 0.000000
0.088253 0.796461 3.582748 0.000000 0.000000 0.000000
0.185551 0.776445 3.599748 0.000000 0.000000 0.000000
