ply
format ascii 1.0
comment VCGLIB generated
obj_info Generated by SPFormer!
element vertex 858
property float x
property float y
property float z
property float nx
property float ny
property float nz
end_header
0.024227 -0.408154 1.553535 0.000000 0.000000 0.000000
0.016594 -0.453814 1.542617 0.000000 0.000000 0.000000
-0.022429 -0.387704 1.541189 0.000000 0.000000 0.000000
-0.273290 -0.267003 1.617296 0.000000 0.000000 0.000000
0.089657 -0.354240 1.563146 0.000000 0.000000 0.000000
-0.285072 -0.293034 1.614219 0.000000 0.000000 0.000000
-0.106451 -0.211931 1.589673 0.000000 0.000000 0.000000
-0.218581 -0.199426 1.634635 0.000000 0.000000 0.000000
0.003484 -0.586159 1.575739 0.000000 0.000000 0.000000
-0.238460 -0.190681 1.650557 0.000000 0.000000 0.000000
-0.160289 -0.201878 1.599022 0.000000 0.000000 0.000000
-0.281911 -0.284377 1.623173 0.000000 0.000000 0.000000
-0.271943 -0.254783 1.622600 0.000000 0.000000 0.000000
-0.239389 -0.189011 1.653290 0.000000 0.000000 0.000000
-0.230512 -0.188264 1.649460 0.000000 0.000000 0.000000
-0.182970 -0.190369 1.616739 0.000000 0.000000 0.000000
-0.274343 -0.292735 1.607088 0.000000 0.000000 0.000000
-0.155578 -0.619193 1.552794 0.000000 0.000000 0.000000
0.081933 -0.379672 1.562089 0.000000 0.000000 0.000000
0.053744 -0.383604 1.558812 0.000000 0.000000 0.000000
-0.105475 -0.567422 1.555282 0.000000 0.000000 0.000000
-0.227889 -0.190316 1.648088 0.000000 0.000000 0.000000
0.025237 -0.365701 1.554805 0.000000 0.000000 0.000000
0.040275 -0.371645 1.548151 0.000000 0.000000 0.000000
-0.013463 -0.376519 1.538244 0.000000 0.000000 0.000000
-0.278387 -0.271515 1.620102 0.000000 0.000000 0.000000
-0.134822 -0.204594 1.595443 0.000000 0.000000 0.000000
0.074305 -0.361660 1.560034 0.000000 0.000000 0.000000
-0.281301 -0.264134 1.623135 0.000000 0.000000 0.000000
-0.012959 -0.600848 1.579358 0.000000 0.000000 0.000000
0.006041 -0.590085 1.576275 0.000000 0.000000 0.000000
-0.292010 -0.331508 1.592376 0.000000 0.000000 0.000000
-0.140184 -0.194371 1.600963 0.000000 0.000000 0.000000
-0.280369 -0.292310 1.618822 0.000000 0.000000 0.000000
-0.275462 -0.215358 1.637147 0.000000 0.000000 0.000000
-0.279542 -0.213179 1.633709 0.000000 0.000000 0.000000
-0.282434 -0.248958 1.625498 0.000000 0.000000 0.000000
-0.219255 -0.187653 1.643502 0.000000 0.000000 0.000000
-0.276821 -0.230679 1.632579 0.000000 0.000000 0.000000
0.105473 -0.371175 1.571212 0.000000 0.000000 0.000000
0.104413 -0.377591 1.566357 0.000000 0.000000 0.000000
-0.218056 -0.194282 1.629991 0.000000 0.000000 0.000000
-0.286863 -0.406871 1.556661 0.000000 0.000000 0.000000
-0.182583 -0.184789 1.617479 0.000000 0.000000 0.000000
-0.279768 -0.402059 1.553187 0.000000 0.000000 0.000000
-0.179895 -0.187913 1.616529 0.000000 0.000000 0.000000
0.052364 -0.311801 1.552563 0.000000 0.000000 0.000000
-0.274122 -0.402220 1.551870 0.000000 0.000000 0.000000
-0.281492 -0.226628 1.630300 0.000000 0.000000 0.000000
-0.284858 -0.429822 1.541305 0.000000 0.000000 0.000000
-0.269629 -0.495715 1.536546 0.000000 0.000000 0.000000
-0.285318 -0.340401 1.584756 0.000000 0.000000 0.000000
-0.022852 -0.251745 1.550418 0.000000 0.000000 0.000000
-0.082386 -0.618198 1.563627 0.000000 0.000000 0.000000
-0.279780 -0.237455 1.627024 0.000000 0.000000 0.000000
0.104662 -0.382744 1.573726 0.000000 0.000000 0.000000
0.008833 -0.443276 1.533658 0.000000 0.000000 0.000000
-0.053090 -0.227952 1.554900 0.000000 0.000000 0.000000
-0.182176 -0.198765 1.614096 0.000000 0.000000 0.000000
0.075922 -0.474627 1.567915 0.000000 0.000000 0.000000
-0.283614 -0.239315 1.628077 0.000000 0.000000 0.000000
-0.272581 -0.213212 1.637661 0.000000 0.000000 0.000000
-0.257257 -0.395804 1.554819 0.000000 0.000000 0.000000
-0.285720 -0.433199 1.537539 0.000000 0.000000 0.000000
-0.264923 -0.513152 1.537754 0.000000 0.000000 0.000000
-0.042223 -0.259196 1.551401 0.000000 0.000000 0.000000
-0.103472 -0.611811 1.559160 0.000000 0.000000 0.000000
-0.280318 -0.245902 1.624267 0.000000 0.000000 0.000000
0.107817 -0.369806 1.573121 0.000000 0.000000 0.000000
0.106955 -0.358213 1.570631 0.000000 0.000000 0.000000
0.101378 -0.393422 1.571677 0.000000 0.000000 0.000000
0.014614 -0.430638 1.536622 0.000000 0.000000 0.000000
-0.041473 -0.244773 1.554253 0.000000 0.000000 0.000000
-0.181545 -0.201785 1.610093 0.000000 0.000000 0.000000
-0.211369 -0.191276 1.637600 0.000000 0.000000 0.000000
-0.280878 -0.254411 1.631450 0.000000 0.000000 0.000000
0.070954 -0.455844 1.582148 0.000000 0.000000 0.000000
-0.289564 -0.304945 1.607657 0.000000 0.000000 0.000000
0.027767 -0.577262 1.574642 0.000000 0.000000 0.000000
-0.286142 -0.283659 1.619959 0.000000 0.000000 0.000000
-0.282494 -0.283502 1.621021 0.000000 0.000000 0.000000
-0.286741 -0.295583 1.608563 0.000000 0.000000 0.000000
-0.275105 -0.254346 1.631803 0.000000 0.000000 0.000000
0.007457 -0.587857 1.576841 0.000000 0.000000 0.000000
0.030762 -0.276121 1.553608 0.000000 0.000000 0.000000
0.048683 -0.530341 1.573494 0.000000 0.000000 0.000000
0.016000 -0.282248 1.547125 0.000000 0.000000 0.000000
0.006198 -0.266798 1.550206 0.000000 0.000000 0.000000
0.006147 -0.260397 1.549166 0.000000 0.000000 0.000000
-0.105687 -0.618263 1.557762 0.000000 0.000000 0.000000
-0.106796 -0.623356 1.558469 0.000000 0.000000 0.000000
0.081438 -0.429009 1.569587 0.000000 0.000000 0.000000
0.035520 -0.543870 1.571365 0.000000 0.000000 0.000000
-0.270622 -0.249148 1.623927 0.000000 0.000000 0.000000
-0.177976 -0.189314 1.613670 0.000000 0.000000 0.000000
0.106516 -0.403024 1.573840 0.000000 0.000000 0.000000
-0.000123 -0.256677 1.549507 0.000000 0.000000 0.000000
0.004431 -0.258974 1.550936 0.000000 0.000000 0.000000
0.052105 -0.526177 1.570007 0.000000 0.000000 0.000000
-0.103080 -0.624233 1.557383 0.000000 0.000000 0.000000
0.073314 -0.429982 1.566687 0.000000 0.000000 0.000000
0.100671 -0.409225 1.572089 0.000000 0.000000 0.000000
-0.276671 -0.272995 1.624530 0.000000 0.000000 0.000000
-0.173349 -0.183190 1.612927 0.000000 0.000000 0.000000
-0.278678 -0.418645 1.542485 0.000000 0.000000 0.000000
-0.281935 -0.417649 1.543890 0.000000 0.000000 0.000000
-0.159894 -0.191595 1.601029 0.000000 0.000000 0.000000
-0.273949 -0.418941 1.543538 0.000000 0.000000 0.000000
-0.266060 -0.412147 1.545421 0.000000 0.000000 0.000000
-0.011003 -0.537328 1.555515 0.000000 0.000000 0.000000
0.003202 -0.511410 1.547799 0.000000 0.000000 0.000000
-0.007568 -0.504495 1.549626 0.000000 0.000000 0.000000
-0.270885 -0.407731 1.548488 0.000000 0.000000 0.000000
-0.011149 -0.515392 1.543303 0.000000 0.000000 0.000000
0.082505 -0.301925 1.562053 0.000000 0.000000 0.000000
-0.283831 -0.415157 1.546558 0.000000 0.000000 0.000000
-0.268540 -0.420365 1.543398 0.000000 0.000000 0.000000
-0.277937 -0.439717 1.540483 0.000000 0.000000 0.000000
-0.267368 -0.506418 1.535195 0.000000 0.000000 0.000000
0.011461 -0.585206 1.574430 0.000000 0.000000 0.000000
-0.274749 -0.426199 1.542718 0.000000 0.000000 0.000000
-0.019379 -0.532116 1.557394 0.000000 0.000000 0.000000
-0.022201 -0.516144 1.552348 0.000000 0.000000 0.000000
-0.003297 -0.523515 1.551077 0.000000 0.000000 0.000000
-0.271280 -0.430598 1.536297 0.000000 0.000000 0.000000
0.074445 -0.304223 1.560612 0.000000 0.000000 0.000000
-0.279017 -0.413557 1.545719 0.000000 0.000000 0.000000
-0.275604 -0.423333 1.542637 0.000000 0.000000 0.000000
-0.269424 -0.425134 1.543176 0.000000 0.000000 0.000000
-0.249388 -0.547303 1.530621 0.000000 0.000000 0.000000
-0.269109 -0.508427 1.533128 0.000000 0.000000 0.000000
0.099544 -0.384006 1.565131 0.000000 0.000000 0.000000
-0.060407 -0.223965 1.561013 0.000000 0.000000 0.000000
-0.287269 -0.333253 1.592794 0.000000 0.000000 0.000000
0.107978 -0.381159 1.573172 0.000000 0.000000 0.000000
-0.290882 -0.372465 1.570465 0.000000 0.000000 0.000000
0.011868 -0.569236 1.573497 0.000000 0.000000 0.000000
0.098624 -0.391579 1.570894 0.000000 0.000000 0.000000
-0.062035 -0.616586 1.567955 0.000000 0.000000 0.000000
0.062904 -0.489697 1.570045 0.000000 0.000000 0.000000
0.092348 -0.382979 1.566000 0.000000 0.000000 0.000000
0.093985 -0.395468 1.569765 0.000000 0.000000 0.000000
0.003057 -0.426210 1.532590 0.000000 0.000000 0.000000
0.105533 -0.387831 1.574430 0.000000 0.000000 0.000000
-0.254907 -0.498861 1.536889 0.000000 0.000000 0.000000
-0.077607 -0.218973 1.564907 0.000000 0.000000 0.000000
0.105075 -0.406811 1.575646 0.000000 0.000000 0.000000
-0.284511 -0.240360 1.622562 0.000000 0.000000 0.000000
0.104489 -0.392584 1.571305 0.000000 0.000000 0.000000
0.074155 -0.482381 1.578315 0.000000 0.000000 0.000000
-0.002855 -0.430028 1.533883 0.000000 0.000000 0.000000
-0.196690 -0.284680 1.577955 0.000000 0.000000 0.000000
-0.072306 -0.386483 1.532394 0.000000 0.000000 0.000000
-0.120676 -0.367549 1.536902 0.000000 0.000000 0.000000
-0.082910 -0.334328 1.537115 0.000000 0.000000 0.000000
-0.106236 -0.353879 1.552265 0.000000 0.000000 0.000000
-0.098976 -0.406462 1.533633 0.000000 0.000000 0.000000
-0.271964 -0.433579 1.540672 0.000000 0.000000 0.000000
-0.263367 -0.450225 1.536733 0.000000 0.000000 0.000000
-0.175482 -0.333569 1.554741 0.000000 0.000000 0.000000
-0.083542 -0.366182 1.534405 0.000000 0.000000 0.000000
-0.136198 -0.354324 1.536846 0.000000 0.000000 0.000000
-0.107681 -0.324798 1.537868 0.000000 0.000000 0.000000
-0.147457 -0.343676 1.544318 0.000000 0.000000 0.000000
-0.133965 -0.341354 1.542143 0.000000 0.000000 0.000000
-0.289370 -0.315287 1.599695 0.000000 0.000000 0.000000
-0.186974 -0.292112 1.570280 0.000000 0.000000 0.000000
-0.107342 -0.385938 1.535275 0.000000 0.000000 0.000000
-0.077454 -0.360789 1.531927 0.000000 0.000000 0.000000
0.087515 -0.408919 1.566948 0.000000 0.000000 0.000000
-0.077889 -0.322407 1.540740 0.000000 0.000000 0.000000
-0.119031 -0.395813 1.546196 0.000000 0.000000 0.000000
-0.079795 -0.419545 1.531785 0.000000 0.000000 0.000000
-0.243820 -0.488554 1.536495 0.000000 0.000000 0.000000
-0.099727 -0.465274 1.541152 0.000000 0.000000 0.000000
-0.264288 -0.431490 1.541062 0.000000 0.000000 0.000000
-0.273296 -0.450868 1.536836 0.000000 0.000000 0.000000
-0.072006 -0.625399 1.566443 0.000000 0.000000 0.000000
-0.172051 -0.359389 1.547253 0.000000 0.000000 0.000000
-0.132355 -0.366232 1.540387 0.000000 0.000000 0.000000
-0.138650 -0.397277 1.543663 0.000000 0.000000 0.000000
-0.153793 -0.360199 1.544749 0.000000 0.000000 0.000000
-0.237300 -0.567658 1.534206 0.000000 0.000000 0.000000
-0.256190 -0.524814 1.534087 0.000000 0.000000 0.000000
-0.139973 -0.623833 1.555889 0.000000 0.000000 0.000000
0.059647 -0.506576 1.566576 0.000000 0.000000 0.000000
0.038438 -0.273488 1.545720 0.000000 0.000000 0.000000
0.074324 -0.469953 1.574348 0.000000 0.000000 0.000000
0.020298 -0.270541 1.549929 0.000000 0.000000 0.000000
0.040623 -0.270829 1.551748 0.000000 0.000000 0.000000
0.108284 -0.371788 1.572000 0.000000 0.000000 0.000000
0.092346 -0.326811 1.566504 0.000000 0.000000 0.000000
-0.149812 -0.620485 1.543143 0.000000 0.000000 0.000000
0.099361 -0.330260 1.570834 0.000000 0.000000 0.000000
-0.287938 -0.254775 1.627853 0.000000 0.000000 0.000000
-0.129248 -0.208400 1.594714 0.000000 0.000000 0.000000
-0.254513 -0.379244 1.555886 0.000000 0.000000 0.000000
-0.210734 -0.492741 1.538032 0.000000 0.000000 0.000000
-0.256795 -0.361374 1.566069 0.000000 0.000000 0.000000
-0.237061 -0.385695 1.555004 0.000000 0.000000 0.000000
-0.173073 -0.572442 1.552132 0.000000 0.000000 0.000000
-0.171771 -0.196493 1.612023 0.000000 0.000000 0.000000
-0.213385 -0.400892 1.548274 0.000000 0.000000 0.000000
-0.125424 -0.521788 1.545680 0.000000 0.000000 0.000000
-0.186312 -0.234417 1.597041 0.000000 0.000000 0.000000
0.072118 -0.459638 1.568165 0.000000 0.000000 0.000000
0.033470 -0.272417 1.555471 0.000000 0.000000 0.000000
-0.153763 -0.575889 1.542136 0.000000 0.000000 0.000000
-0.143239 -0.317995 1.549075 0.000000 0.000000 0.000000
-0.253780 -0.369858 1.561644 0.000000 0.000000 0.000000
-0.268613 -0.357134 1.567882 0.000000 0.000000 0.000000
-0.078545 -0.317493 1.541277 0.000000 0.000000 0.000000
0.009599 -0.550943 1.565590 0.000000 0.000000 0.000000
0.028872 -0.267716 1.553953 0.000000 0.000000 0.000000
0.034688 -0.291518 1.551755 0.000000 0.000000 0.000000
0.066893 -0.473916 1.567806 0.000000 0.000000 0.000000
-0.278111 -0.344258 1.584182 0.000000 0.000000 0.000000
-0.150904 -0.301791 1.556178 0.000000 0.000000 0.000000
0.029508 -0.274134 1.554137 0.000000 0.000000 0.000000
-0.189739 -0.594358 1.536215 0.000000 0.000000 0.000000
0.093472 -0.355699 1.566373 0.000000 0.000000 0.000000
-0.015049 -0.604042 1.584649 0.000000 0.000000 0.000000
-0.287827 -0.324370 1.595888 0.000000 0.000000 0.000000
0.091224 -0.434864 1.572380 0.000000 0.000000 0.000000
0.047479 -0.276752 1.550222 0.000000 0.000000 0.000000
0.086375 -0.461800 1.575564 0.000000 0.000000 0.000000
0.092501 -0.333748 1.567156 0.000000 0.000000 0.000000
0.033022 -0.277952 1.548314 0.000000 0.000000 0.000000
0.056071 -0.282002 1.549412 0.000000 0.000000 0.000000
0.027186 -0.564895 1.575162 0.000000 0.000000 0.000000
0.029586 -0.271904 1.557119 0.000000 0.000000 0.000000
-0.150489 -0.205510 1.597668 0.000000 0.000000 0.000000
0.091420 -0.449984 1.573992 0.000000 0.000000 0.000000
0.031193 -0.551070 1.571644 0.000000 0.000000 0.000000
0.106660 -0.353051 1.573660 0.000000 0.000000 0.000000
0.096186 -0.319934 1.565534 0.000000 0.000000 0.000000
-0.236316 -0.369331 1.557655 0.000000 0.000000 0.000000
-0.213110 -0.454248 1.541480 0.000000 0.000000 0.000000
-0.264446 -0.359877 1.564829 0.000000 0.000000 0.000000
-0.180305 -0.574900 1.559335 0.000000 0.000000 0.000000
-0.111002 -0.475815 1.543287 0.000000 0.000000 0.000000
-0.164867 -0.223366 1.591878 0.000000 0.000000 0.000000
-0.136455 -0.593993 1.568621 0.000000 0.000000 0.000000
0.075568 -0.455032 1.565057 0.000000 0.000000 0.000000
-0.110942 -0.375435 1.535690 0.000000 0.000000 0.000000
-0.134118 -0.581582 1.549244 0.000000 0.000000 0.000000
-0.158245 -0.310173 1.554652 0.000000 0.000000 0.000000
-0.269541 -0.379566 1.559596 0.000000 0.000000 0.000000
-0.264492 -0.365467 1.563710 0.000000 0.000000 0.000000
-0.086331 -0.325237 1.541080 0.000000 0.000000 0.000000
0.096925 -0.396639 1.569190 0.000000 0.000000 0.000000
-0.260040 -0.354575 1.566770 0.000000 0.000000 0.000000
0.034980 -0.267913 1.551618 0.000000 0.000000 0.000000
0.032376 -0.286649 1.551407 0.000000 0.000000 0.000000
-0.151002 -0.612362 1.546839 0.000000 0.000000 0.000000
0.078729 -0.443529 1.574687 0.000000 0.000000 0.000000
-0.284185 -0.335969 1.594038 0.000000 0.000000 0.000000
-0.137306 -0.317099 1.548160 0.000000 0.000000 0.000000
0.027573 -0.281175 1.553061 0.000000 0.000000 0.000000
0.102841 -0.344784 1.572850 0.000000 0.000000 0.000000
-0.015996 -0.244152 1.551277 0.000000 0.000000 0.000000
-0.005922 -0.593830 1.579909 0.000000 0.000000 0.000000
0.088633 -0.451607 1.574154 0.000000 0.000000 0.000000
0.091904 -0.453052 1.576246 0.000000 0.000000 0.000000
0.086273 -0.433132 1.568394 0.000000 0.000000 0.000000
0.034276 -0.576642 1.574015 0.000000 0.000000 0.000000
-0.288970 -0.291054 1.615283 0.000000 0.000000 0.000000
-0.139951 -0.196854 1.599222 0.000000 0.000000 0.000000
0.095452 -0.441146 1.570197 0.000000 0.000000 0.000000
0.044652 -0.545699 1.569890 0.000000 0.000000 0.000000
0.017436 -0.576445 1.573134 0.000000 0.000000 0.000000
0.103133 -0.344553 1.571491 0.000000 0.000000 0.000000
0.102926 -0.344051 1.573099 0.000000 0.000000 0.000000
-0.137752 -0.203950 1.590722 0.000000 0.000000 0.000000
-0.283545 -0.314728 1.598225 0.000000 0.000000 0.000000
0.110490 -0.370918 1.571029 0.000000 0.000000 0.000000
0.103709 -0.334820 1.576693 0.000000 0.000000 0.000000
0.103234 -0.372161 1.571678 0.000000 0.000000 0.000000
0.050190 -0.525918 1.578378 0.000000 0.000000 0.000000
-0.285260 -0.287070 1.618969 0.000000 0.000000 0.000000
0.052453 -0.530738 1.567832 0.000000 0.000000 0.000000
-0.264185 -0.196961 1.651384 0.000000 0.000000 0.000000
0.101566 -0.433325 1.578650 0.000000 0.000000 0.000000
0.002572 -0.457393 1.537314 0.000000 0.000000 0.000000
-0.024194 -0.413542 1.532697 0.000000 0.000000 0.000000
-0.051280 -0.461067 1.540362 0.000000 0.000000 0.000000
0.010706 -0.381399 1.540892 0.000000 0.000000 0.000000
-0.004428 -0.344848 1.540609 0.000000 0.000000 0.000000
0.048406 -0.516324 1.574103 0.000000 0.000000 0.000000
-0.044906 -0.245816 1.559877 0.000000 0.000000 0.000000
-0.067503 -0.225407 1.565563 0.000000 0.000000 0.000000
0.045069 -0.528237 1.570357 0.000000 0.000000 0.000000
0.040371 -0.554170 1.574844 0.000000 0.000000 0.000000
0.100629 -0.339308 1.570085 0.000000 0.000000 0.000000
0.086189 -0.462163 1.575941 0.000000 0.000000 0.000000
0.090894 -0.457455 1.574659 0.000000 0.000000 0.000000
0.050790 -0.532601 1.571464 0.000000 0.000000 0.000000
0.001817 -0.344654 1.544061 0.000000 0.000000 0.000000
-0.006987 -0.311735 1.544240 0.000000 0.000000 0.000000
-0.010816 -0.388909 1.535612 0.000000 0.000000 0.000000
0.102572 -0.421817 1.571730 0.000000 0.000000 0.000000
0.052997 -0.525958 1.572994 0.000000 0.000000 0.000000
0.051087 -0.504871 1.568016 0.000000 0.000000 0.000000
0.100939 -0.428209 1.574745 0.000000 0.000000 0.000000
0.093534 -0.453725 1.578727 0.000000 0.000000 0.000000
0.093077 -0.451272 1.581405 0.000000 0.000000 0.000000
-0.263122 -0.205280 1.645292 0.000000 0.000000 0.000000
-0.001379 -0.462012 1.539654 0.000000 0.000000 0.000000
-0.019838 -0.410229 1.532211 0.000000 0.000000 0.000000
-0.171679 -0.516408 1.560808 0.000000 0.000000 0.000000
0.101070 -0.418626 1.576413 0.000000 0.000000 0.000000
0.029278 -0.393541 1.547771 0.000000 0.000000 0.000000
-0.014627 -0.324954 1.541128 0.000000 0.000000 0.000000
-0.062680 -0.228455 1.562407 0.000000 0.000000 0.000000
-0.038610 -0.240770 1.557907 0.000000 0.000000 0.000000
0.043967 -0.530736 1.571667 0.000000 0.000000 0.000000
0.029636 -0.543865 1.569361 0.000000 0.000000 0.000000
0.090552 -0.448712 1.569888 0.000000 0.000000 0.000000
0.029948 -0.556093 1.574325 0.000000 0.000000 0.000000
0.004170 -0.357466 1.539675 0.000000 0.000000 0.000000
-0.005475 -0.596474 1.578852 0.000000 0.000000 0.000000
0.014837 -0.389213 1.542884 0.000000 0.000000 0.000000
-0.018612 -0.355026 1.539704 0.000000 0.000000 0.000000
-0.010164 -0.382716 1.536217 0.000000 0.000000 0.000000
0.100035 -0.423149 1.571394 0.000000 0.000000 0.000000
0.035606 -0.512375 1.572696 0.000000 0.000000 0.000000
0.093953 -0.445544 1.578982 0.000000 0.000000 0.000000
-0.114682 -0.626800 1.556816 0.000000 0.000000 0.000000
0.091287 -0.441899 1.579993 0.000000 0.000000 0.000000
-0.073731 -0.212457 1.559969 0.000000 0.000000 0.000000
0.038385 -0.272911 1.550805 0.000000 0.000000 0.000000
-0.106013 -0.214116 1.582505 0.000000 0.000000 0.000000
0.111498 -0.381558 1.568674 0.000000 0.000000 0.000000
-0.075710 -0.219039 1.566768 0.000000 0.000000 0.000000
-0.087525 -0.216173 1.574196 0.000000 0.000000 0.000000
-0.286910 -0.382224 1.570354 0.000000 0.000000 0.000000
0.094724 -0.319596 1.568823 0.000000 0.000000 0.000000
0.025209 -0.266931 1.552819 0.000000 0.000000 0.000000
0.043536 -0.274891 1.553567 0.000000 0.000000 0.000000
0.042372 -0.269321 1.551841 0.000000 0.000000 0.000000
0.041325 -0.290246 1.551749 0.000000 0.000000 0.000000
0.000582 -0.582047 1.580924 0.000000 0.000000 0.000000
0.036241 -0.288915 1.549454 0.000000 0.000000 0.000000
-0.223167 -0.379105 1.555636 0.000000 0.000000 0.000000
-0.094121 -0.208713 1.575006 0.000000 0.000000 0.000000
0.006145 -0.278355 1.550169 0.000000 0.000000 0.000000
0.025999 -0.279753 1.553904 0.000000 0.000000 0.000000
0.029230 -0.312486 1.552873 0.000000 0.000000 0.000000
0.058491 -0.444591 1.561358 0.000000 0.000000 0.000000
0.043451 -0.316881 1.569737 0.000000 0.000000 0.000000
0.028273 -0.572480 1.571707 0.000000 0.000000 0.000000
0.048592 -0.314077 1.552822 0.000000 0.000000 0.000000
0.031649 -0.277143 1.553077 0.000000 0.000000 0.000000
-0.014755 -0.590433 1.584265 0.000000 0.000000 0.000000
-0.126529 -0.374870 1.545288 0.000000 0.000000 0.000000
-0.085837 -0.215809 1.565223 0.000000 0.000000 0.000000
-0.106672 -0.210182 1.585597 0.000000 0.000000 0.000000
0.037189 -0.563330 1.572813 0.000000 0.000000 0.000000
0.015970 -0.580220 1.573364 0.000000 0.000000 0.000000
-0.103367 -0.215329 1.578425 0.000000 0.000000 0.000000
0.014428 -0.575138 1.574841 0.000000 0.000000 0.000000
0.074568 -0.332062 1.560598 0.000000 0.000000 0.000000
-0.007693 -0.603613 1.582198 0.000000 0.000000 0.000000
0.069784 -0.296063 1.560225 0.000000 0.000000 0.000000
0.054978 -0.292239 1.555646 0.000000 0.000000 0.000000
0.026904 -0.269470 1.552741 0.000000 0.000000 0.000000
0.100347 -0.334254 1.569155 0.000000 0.000000 0.000000
-0.182433 -0.580510 1.536436 0.000000 0.000000 0.000000
0.049938 -0.280897 1.557986 0.000000 0.000000 0.000000
-0.136453 -0.622369 1.548527 0.000000 0.000000 0.000000
-0.294547 -0.345073 1.582748 0.000000 0.000000 0.000000
0.059620 -0.296572 1.560082 0.000000 0.000000 0.000000
-0.135103 -0.564878 1.548738 0.000000 0.000000 0.000000
0.037375 -0.279902 1.551412 0.000000 0.000000 0.000000
-0.182491 -0.380006 1.546334 0.000000 0.000000 0.000000
0.011863 -0.299900 1.553091 0.000000 0.000000 0.000000
0.043992 -0.275625 1.551264 0.000000 0.000000 0.000000
0.028540 -0.323293 1.562168 0.000000 0.000000 0.000000
0.045966 -0.454080 1.565141 0.000000 0.000000 0.000000
0.020715 -0.322668 1.568653 0.000000 0.000000 0.000000
-0.063682 -0.219810 1.560820 0.000000 0.000000 0.000000
0.021042 -0.264658 1.552781 0.000000 0.000000 0.000000
0.024764 -0.270389 1.554799 0.000000 0.000000 0.000000
-0.005538 -0.596335 1.579961 0.000000 0.000000 0.000000
-0.117307 -0.204283 1.598177 0.000000 0.000000 0.000000
-0.093266 -0.216875 1.573781 0.000000 0.000000 0.000000
0.035699 -0.556046 1.572848 0.000000 0.000000 0.000000
-0.059877 -0.239671 1.563233 0.000000 0.000000 0.000000
0.057831 -0.286476 1.555746 0.000000 0.000000 0.000000
0.019640 -0.264853 1.553906 0.000000 0.000000 0.000000
0.086748 -0.322116 1.561261 0.000000 0.000000 0.000000
0.038439 -0.285978 1.557275 0.000000 0.000000 0.000000
-0.173442 -0.595807 1.538463 0.000000 0.000000 0.000000
0.044833 -0.283657 1.556942 0.000000 0.000000 0.000000
-0.146744 -0.622199 1.549124 0.000000 0.000000 0.000000
-0.291732 -0.332077 1.591236 0.000000 0.000000 0.000000
0.103028 -0.406342 1.571640 0.000000 0.000000 0.000000
0.063166 -0.284418 1.554530 0.000000 0.000000 0.000000
-0.280767 -0.339501 1.577866 0.000000 0.000000 0.000000
-0.282294 -0.358791 1.574906 0.000000 0.000000 0.000000
-0.101736 -0.205945 1.584641 0.000000 0.000000 0.000000
-0.107803 -0.210656 1.586847 0.000000 0.000000 0.000000
-0.285304 -0.344662 1.582814 0.000000 0.000000 0.000000
-0.286440 -0.379241 1.564070 0.000000 0.000000 0.000000
-0.270869 -0.469406 1.528293 0.000000 0.000000 0.000000
0.038751 -0.266525 1.552007 0.000000 0.000000 0.000000
-0.291922 -0.341967 1.587155 0.000000 0.000000 0.000000
-0.274315 -0.211791 1.637786 0.000000 0.000000 0.000000
-0.278971 -0.340405 1.583130 0.000000 0.000000 0.000000
-0.248253 -0.468947 1.532500 0.000000 0.000000 0.000000
-0.287103 -0.346364 1.581999 0.000000 0.000000 0.000000
-0.287723 -0.350427 1.585548 0.000000 0.000000 0.000000
-0.291397 -0.370156 1.573114 0.000000 0.000000 0.000000
-0.275677 -0.357307 1.573369 0.000000 0.000000 0.000000
-0.281125 -0.327356 1.589057 0.000000 0.000000 0.000000
-0.292400 -0.355034 1.575562 0.000000 0.000000 0.000000
-0.289330 -0.391958 1.564506 0.000000 0.000000 0.000000
-0.284435 -0.266570 1.626210 0.000000 0.000000 0.000000
0.077760 -0.292017 1.553259 0.000000 0.000000 0.000000
0.069856 -0.332100 1.562335 0.000000 0.000000 0.000000
-0.283787 -0.336192 1.585850 0.000000 0.000000 0.000000
-0.203337 -0.592176 1.535555 0.000000 0.000000 0.000000
0.083322 -0.295963 1.562002 0.000000 0.000000 0.000000
0.024351 -0.265848 1.558459 0.000000 0.000000 0.000000
-0.282961 -0.343369 1.582329 0.000000 0.000000 0.000000
-0.289992 -0.357451 1.580981 0.000000 0.000000 0.000000
-0.230974 -0.483831 1.532797 0.000000 0.000000 0.000000
-0.289536 -0.378324 1.571818 0.000000 0.000000 0.000000
-0.279523 -0.343781 1.582093 0.000000 0.000000 0.000000
-0.285592 -0.327196 1.597094 0.000000 0.000000 0.000000
-0.279840 -0.448827 1.541780 0.000000 0.000000 0.000000
-0.272248 -0.469077 1.536968 0.000000 0.000000 0.000000
-0.287450 -0.395303 1.564716 0.000000 0.000000 0.000000
0.063448 -0.502776 1.579818 0.000000 0.000000 0.000000
0.081637 -0.297194 1.553412 0.000000 0.000000 0.000000
0.069142 -0.325874 1.556174 0.000000 0.000000 0.000000
-0.286166 -0.355209 1.578379 0.000000 0.000000 0.000000
-0.202235 -0.591297 1.536917 0.000000 0.000000 0.000000
0.025746 -0.261789 1.553915 0.000000 0.000000 0.000000
0.024457 -0.269613 1.555835 0.000000 0.000000 0.000000
-0.190571 -0.518437 1.535661 0.000000 0.000000 0.000000
-0.245061 -0.196225 1.649169 0.000000 0.000000 0.000000
-0.217926 -0.188754 1.644373 0.000000 0.000000 0.000000
-0.222759 -0.191880 1.642609 0.000000 0.000000 0.000000
-0.262094 -0.507399 1.532920 0.000000 0.000000 0.000000
0.087853 -0.437124 1.575214 0.000000 0.000000 0.000000
-0.212324 -0.183210 1.643993 0.000000 0.000000 0.000000
-0.281434 -0.252503 1.623679 0.000000 0.000000 0.000000
-0.217935 -0.187270 1.644765 0.000000 0.000000 0.000000
-0.243477 -0.191338 1.648468 0.000000 0.000000 0.000000
-0.231010 -0.190753 1.645602 0.000000 0.000000 0.000000
0.099979 -0.428812 1.577111 0.000000 0.000000 0.000000
-0.264629 -0.383815 1.555634 0.000000 0.000000 0.000000
-0.194996 -0.380432 1.550214 0.000000 0.000000 0.000000
-0.268453 -0.484425 1.537954 0.000000 0.000000 0.000000
0.110452 -0.362717 1.576494 0.000000 0.000000 0.000000
-0.218632 -0.189213 1.642130 0.000000 0.000000 0.000000
-0.235971 -0.190108 1.652190 0.000000 0.000000 0.000000
-0.221141 -0.191048 1.642547 0.000000 0.000000 0.000000
-0.228926 -0.194463 1.643976 0.000000 0.000000 0.000000
-0.241856 -0.197676 1.651847 0.000000 0.000000 0.000000
-0.224140 -0.195227 1.640486 0.000000 0.000000 0.000000
-0.055171 -0.623968 1.569364 0.000000 0.000000 0.000000
-0.169444 -0.519575 1.542194 0.000000 0.000000 0.000000
0.103496 -0.396058 1.575475 0.000000 0.000000 0.000000
-0.175247 -0.538265 1.537434 0.000000 0.000000 0.000000
-0.243131 -0.377973 1.551786 0.000000 0.000000 0.000000
-0.209258 -0.353891 1.562031 0.000000 0.000000 0.000000
-0.237168 -0.191878 1.647536 0.000000 0.000000 0.000000
-0.278540 -0.474476 1.531232 0.000000 0.000000 0.000000
-0.232393 -0.190282 1.647850 0.000000 0.000000 0.000000
-0.249727 -0.194540 1.647190 0.000000 0.000000 0.000000
-0.225791 -0.190947 1.645001 0.000000 0.000000 0.000000
-0.234360 -0.193904 1.645073 0.000000 0.000000 0.000000
-0.226503 -0.193570 1.643328 0.000000 0.000000 0.000000
0.107661 -0.347579 1.574854 0.000000 0.000000 0.000000
-0.045505 -0.621812 1.572501 0.000000 0.000000 0.000000
-0.164455 -0.536648 1.546521 0.000000 0.000000 0.000000
0.097476 -0.432593 1.573476 0.000000 0.000000 0.000000
0.108106 -0.391039 1.577394 0.000000 0.000000 0.000000
-0.160646 -0.544234 1.541700 0.000000 0.000000 0.000000
-0.009756 -0.248133 1.551766 0.000000 0.000000 0.000000
-0.184024 -0.187735 1.621361 0.000000 0.000000 0.000000
-0.269436 -0.503886 1.535597 0.000000 0.000000 0.000000
-0.286769 -0.398936 1.558809 0.000000 0.000000 0.000000
0.085149 -0.361584 1.566758 0.000000 0.000000 0.000000
0.046698 -0.548411 1.569042 0.000000 0.000000 0.000000
0.106087 -0.400176 1.569705 0.000000 0.000000 0.000000
0.086203 -0.354673 1.566463 0.000000 0.000000 0.000000
-0.287167 -0.391534 1.567481 0.000000 0.000000 0.000000
-0.178148 -0.197382 1.608144 0.000000 0.000000 0.000000
0.013481 -0.259533 1.554210 0.000000 0.000000 0.000000
0.103367 -0.409838 1.571304 0.000000 0.000000 0.000000
0.087036 -0.310612 1.554427 0.000000 0.000000 0.000000
0.095648 -0.327134 1.569223 0.000000 0.000000 0.000000
0.091727 -0.305893 1.567567 0.000000 0.000000 0.000000
0.085768 -0.328809 1.565238 0.000000 0.000000 0.000000
-0.017811 -0.586402 1.585590 0.000000 0.000000 0.000000
0.100345 -0.344840 1.573527 0.000000 0.000000 0.000000
-0.283895 -0.384925 1.564995 0.000000 0.000000 0.000000
-0.176194 -0.187150 1.615565 0.000000 0.000000 0.000000
0.003610 -0.254440 1.551069 0.000000 0.000000 0.000000
0.102758 -0.402628 1.572068 0.000000 0.000000 0.000000
0.077733 -0.297639 1.558388 0.000000 0.000000 0.000000
0.092174 -0.315303 1.565678 0.000000 0.000000 0.000000
0.088625 -0.310098 1.563840 0.000000 0.000000 0.000000
-0.272354 -0.198660 1.649287 0.000000 0.000000 0.000000
-0.267629 -0.193406 1.653812 0.000000 0.000000 0.000000
-0.270053 -0.198912 1.647813 0.000000 0.000000 0.000000
-0.214960 -0.184659 1.646177 0.000000 0.000000 0.000000
-0.033462 -0.614262 1.576481 0.000000 0.000000 0.000000
-0.269608 -0.202460 1.646130 0.000000 0.000000 0.000000
-0.233130 -0.565747 1.532900 0.000000 0.000000 0.000000
-0.227813 -0.557571 1.538259 0.000000 0.000000 0.000000
-0.061376 -0.623199 1.569372 0.000000 0.000000 0.000000
0.035008 -0.503200 1.569658 0.000000 0.000000 0.000000
-0.085330 -0.579494 1.561019 0.000000 0.000000 0.000000
-0.081937 -0.559560 1.555458 0.000000 0.000000 0.000000
-0.100534 -0.555069 1.551423 0.000000 0.000000 0.000000
-0.287572 -0.385048 1.560979 0.000000 0.000000 0.000000
0.068080 -0.492441 1.570323 0.000000 0.000000 0.000000
-0.090483 -0.544151 1.551921 0.000000 0.000000 0.000000
-0.228912 -0.562462 1.535041 0.000000 0.000000 0.000000
-0.234221 -0.568106 1.532712 0.000000 0.000000 0.000000
0.053910 -0.509299 1.570936 0.000000 0.000000 0.000000
0.064832 -0.431144 1.560331 0.000000 0.000000 0.000000
-0.245485 -0.556455 1.532398 0.000000 0.000000 0.000000
-0.236487 -0.565596 1.530575 0.000000 0.000000 0.000000
-0.262987 -0.514152 1.533945 0.000000 0.000000 0.000000
0.043407 -0.549430 1.571129 0.000000 0.000000 0.000000
-0.041861 -0.612855 1.576311 0.000000 0.000000 0.000000
0.045049 -0.544499 1.569986 0.000000 0.000000 0.000000
0.054880 -0.519181 1.574064 0.000000 0.000000 0.000000
-0.048542 -0.622004 1.569128 0.000000 0.000000 0.000000
0.063496 -0.511935 1.571755 0.000000 0.000000 0.000000
0.054883 -0.522665 1.572725 0.000000 0.000000 0.000000
-0.228835 -0.565684 1.534870 0.000000 0.000000 0.000000
-0.265261 -0.492515 1.538386 0.000000 0.000000 0.000000
-0.237707 -0.557935 1.530735 0.000000 0.000000 0.000000
-0.049193 -0.616919 1.573373 0.000000 0.000000 0.000000
-0.128762 -0.555338 1.558683 0.000000 0.000000 0.000000
0.039473 -0.495215 1.560121 0.000000 0.000000 0.000000
-0.069574 -0.563154 1.567827 0.000000 0.000000 0.000000
-0.107206 -0.575933 1.560573 0.000000 0.000000 0.000000
-0.064170 -0.584575 1.567368 0.000000 0.000000 0.000000
-0.289613 -0.392134 1.562130 0.000000 0.000000 0.000000
0.057462 -0.506672 1.568138 0.000000 0.000000 0.000000
-0.127007 -0.546124 1.547543 0.000000 0.000000 0.000000
-0.247777 -0.541476 1.533416 0.000000 0.000000 0.000000
-0.240660 -0.567027 1.532173 0.000000 0.000000 0.000000
0.049337 -0.515037 1.572081 0.000000 0.000000 0.000000
0.064002 -0.481627 1.565203 0.000000 0.000000 0.000000
0.003819 -0.435292 1.531268 0.000000 0.000000 0.000000
-0.242507 -0.558083 1.533628 0.000000 0.000000 0.000000
-0.240294 -0.559370 1.531755 0.000000 0.000000 0.000000
-0.254592 -0.535092 1.530915 0.000000 0.000000 0.000000
0.047092 -0.549295 1.570312 0.000000 0.000000 0.000000
-0.033726 -0.607358 1.579193 0.000000 0.000000 0.000000
0.049930 -0.537143 1.574629 0.000000 0.000000 0.000000
0.058342 -0.510666 1.573195 0.000000 0.000000 0.000000
0.061545 -0.518536 1.571907 0.000000 0.000000 0.000000
-0.251060 -0.191767 1.655605 0.000000 0.000000 0.000000
-0.246355 -0.192362 1.653379 0.000000 0.000000 0.000000
-0.280336 -0.462702 1.534144 0.000000 0.000000 0.000000
-0.283077 -0.427470 1.542396 0.000000 0.000000 0.000000
-0.239010 -0.188719 1.654942 0.000000 0.000000 0.000000
-0.279732 -0.419031 1.542614 0.000000 0.000000 0.000000
0.079354 -0.292592 1.559041 0.000000 0.000000 0.000000
-0.283910 -0.410218 1.551266 0.000000 0.000000 0.000000
-0.282588 -0.416207 1.544835 0.000000 0.000000 0.000000
-0.232568 -0.183632 1.652771 0.000000 0.000000 0.000000
0.109491 -0.403955 1.569180 0.000000 0.000000 0.000000
-0.221287 -0.197006 1.648676 0.000000 0.000000 0.000000
0.066447 -0.291055 1.558227 0.000000 0.000000 0.000000
-0.264123 -0.221629 1.630640 0.000000 0.000000 0.000000
-0.108613 -0.578736 1.550328 0.000000 0.000000 0.000000
0.056285 -0.274549 1.550539 0.000000 0.000000 0.000000
-0.105427 -0.630479 1.558326 0.000000 0.000000 0.000000
-0.274075 -0.411750 1.545142 0.000000 0.000000 0.000000
-0.281907 -0.423309 1.545939 0.000000 0.000000 0.000000
-0.267330 -0.512036 1.537289 0.000000 0.000000 0.000000
0.075942 -0.305276 1.557339 0.000000 0.000000 0.000000
-0.119980 -0.628793 1.555137 0.000000 0.000000 0.000000
-0.280588 -0.433411 1.543024 0.000000 0.000000 0.000000
-0.269788 -0.205370 1.642385 0.000000 0.000000 0.000000
-0.045158 -0.608159 1.573990 0.000000 0.000000 0.000000
-0.276005 -0.430256 1.541610 0.000000 0.000000 0.000000
-0.050833 -0.612227 1.574500 0.000000 0.000000 0.000000
-0.172925 -0.196069 1.603633 0.000000 0.000000 0.000000
-0.087473 -0.626957 1.561889 0.000000 0.000000 0.000000
-0.281207 -0.412787 1.547285 0.000000 0.000000 0.000000
-0.282874 -0.437345 1.541716 0.000000 0.000000 0.000000
-0.274148 -0.493364 1.534679 0.000000 0.000000 0.000000
-0.279661 -0.229929 1.631394 0.000000 0.000000 0.000000
-0.270649 -0.215877 1.636161 0.000000 0.000000 0.000000
-0.255301 -0.204415 1.644197 0.000000 0.000000 0.000000
-0.234612 -0.187867 1.653481 0.000000 0.000000 0.000000
0.073667 -0.468151 1.569331 0.000000 0.000000 0.000000
0.008443 -0.399726 1.534412 0.000000 0.000000 0.000000
-0.285388 -0.250639 1.624953 0.000000 0.000000 0.000000
-0.291227 -0.297277 1.612640 0.000000 0.000000 0.000000
-0.287044 -0.303354 1.607522 0.000000 0.000000 0.000000
-0.290654 -0.352632 1.581420 0.000000 0.000000 0.000000
-0.003360 -0.249386 1.552059 0.000000 0.000000 0.000000
0.108052 -0.387756 1.570739 0.000000 0.000000 0.000000
-0.254604 -0.192464 1.654860 0.000000 0.000000 0.000000
-0.239937 -0.189811 1.654028 0.000000 0.000000 0.000000
0.085698 -0.391309 1.562579 0.000000 0.000000 0.000000
-0.256318 -0.221885 1.630923 0.000000 0.000000 0.000000
0.014032 -0.266368 1.554657 0.000000 0.000000 0.000000
0.064717 -0.389362 1.556509 0.000000 0.000000 0.000000
0.069038 -0.421231 1.561487 0.000000 0.000000 0.000000
0.073291 -0.379444 1.559471 0.000000 0.000000 0.000000
0.010274 -0.374943 1.542090 0.000000 0.000000 0.000000
-0.005390 -0.367958 1.538663 0.000000 0.000000 0.000000
0.053201 -0.464246 1.561920 0.000000 0.000000 0.000000
0.051693 -0.520776 1.573116 0.000000 0.000000 0.000000
0.023054 -0.265755 1.556387 0.000000 0.000000 0.000000
-0.019394 -0.386770 1.536050 0.000000 0.000000 0.000000
-0.000916 -0.251476 1.550823 0.000000 0.000000 0.000000
-0.282729 -0.284514 1.615586 0.000000 0.000000 0.000000
0.073973 -0.477588 1.566435 0.000000 0.000000 0.000000
-0.007241 -0.398881 1.533945 0.000000 0.000000 0.000000
0.105788 -0.409314 1.568417 0.000000 0.000000 0.000000
-0.277607 -0.249449 1.630223 0.000000 0.000000 0.000000
-0.240872 -0.196798 1.644034 0.000000 0.000000 0.000000
0.074483 -0.487927 1.570822 0.000000 0.000000 0.000000
-0.233038 -0.188851 1.653391 0.000000 0.000000 0.000000
0.075924 -0.422288 1.566937 0.000000 0.000000 0.000000
-0.278392 -0.252631 1.631074 0.000000 0.000000 0.000000
-0.007710 -0.392476 1.535866 0.000000 0.000000 0.000000
0.030720 -0.343096 1.549295 0.000000 0.000000 0.000000
0.021384 -0.256879 1.553111 0.000000 0.000000 0.000000
0.018064 -0.274180 1.552812 0.000000 0.000000 0.000000
-0.282221 -0.235093 1.630282 0.000000 0.000000 0.000000
-0.220258 -0.186115 1.647094 0.000000 0.000000 0.000000
-0.186582 -0.321067 1.562124 0.000000 0.000000 0.000000
-0.286539 -0.291482 1.613909 0.000000 0.000000 0.000000
0.010565 -0.369659 1.541338 0.000000 0.000000 0.000000
0.002281 -0.412528 1.533649 0.000000 0.000000 0.000000
0.058375 -0.412354 1.553190 0.000000 0.000000 0.000000
0.002674 -0.426940 1.535891 0.000000 0.000000 0.000000
-0.237776 -0.190321 1.650864 0.000000 0.000000 0.000000
0.054088 -0.488596 1.568635 0.000000 0.000000 0.000000
0.059121 -0.272299 1.547770 0.000000 0.000000 0.000000
0.076183 -0.402899 1.560936 0.000000 0.000000 0.000000
0.009256 -0.255127 1.549367 0.000000 0.000000 0.000000
0.071206 -0.484686 1.566703 0.000000 0.000000 0.000000
0.060949 -0.414256 1.556804 0.000000 0.000000 0.000000
0.008745 -0.355584 1.541368 0.000000 0.000000 0.000000
0.001172 -0.384733 1.540108 0.000000 0.000000 0.000000
0.048365 -0.483680 1.563229 0.000000 0.000000 0.000000
0.052521 -0.519297 1.573347 0.000000 0.000000 0.000000
0.008313 -0.390065 1.540055 0.000000 0.000000 0.000000
-0.282687 -0.294812 1.608771 0.000000 0.000000 0.000000
-0.013528 -0.396059 1.532997 0.000000 0.000000 0.000000
0.099939 -0.404342 1.566560 0.000000 0.000000 0.000000
-0.272238 -0.253952 1.623892 0.000000 0.000000 0.000000
-0.230825 -0.195963 1.642471 0.000000 0.000000 0.000000
-0.279138 -0.260673 1.630260 0.000000 0.000000 0.000000
-0.017840 -0.396515 1.533729 0.000000 0.000000 0.000000
0.029178 -0.374180 1.544103 0.000000 0.000000 0.000000
-0.276096 -0.240139 1.630922 0.000000 0.000000 0.000000
0.077137 -0.489480 1.571701 0.000000 0.000000 0.000000
-0.008656 -0.249265 1.551937 0.000000 0.000000 0.000000
-0.285414 -0.228192 1.630120 0.000000 0.000000 0.000000
-0.228763 -0.199882 1.642355 0.000000 0.000000 0.000000
-0.209398 -0.321472 1.565193 0.000000 0.000000 0.000000
-0.281478 -0.283779 1.617737 0.000000 0.000000 0.000000
0.017174 -0.398212 1.542006 0.000000 0.000000 0.000000
0.013292 -0.380010 1.537922 0.000000 0.000000 0.000000
-0.001729 -0.407656 1.535620 0.000000 0.000000 0.000000
0.056546 -0.369294 1.553419 0.000000 0.000000 0.000000
-0.239088 -0.189884 1.654200 0.000000 0.000000 0.000000
0.063111 -0.283530 1.552477 0.000000 0.000000 0.000000
-0.273755 -0.217237 1.632789 0.000000 0.000000 0.000000
-0.278027 -0.219266 1.633031 0.000000 0.000000 0.000000
-0.250705 -0.194036 1.653687 0.000000 0.000000 0.000000
-0.264610 -0.193468 1.653239 0.000000 0.000000 0.000000
-0.282968 -0.411541 1.547783 0.000000 0.000000 0.000000
-0.291410 -0.375251 1.571571 0.000000 0.000000 0.000000
-0.290335 -0.381928 1.567906 0.000000 0.000000 0.000000
-0.219909 -0.221623 1.619579 0.000000 0.000000 0.000000
-0.260629 -0.208817 1.640116 0.000000 0.000000 0.000000
-0.275768 -0.212067 1.639155 0.000000 0.000000 0.000000
-0.109057 -0.575791 1.595439 0.000000 0.000000 0.000000
-0.267642 -0.203616 1.645037 0.000000 0.000000 0.000000
-0.144607 -0.530395 1.543512 0.000000 0.000000 0.000000
-0.120490 -0.397755 1.538998 0.000000 0.000000 0.000000
-0.252958 -0.191180 1.652714 0.000000 0.000000 0.000000
-0.236051 -0.222882 1.623700 0.000000 0.000000 0.000000
-0.269000 -0.216959 1.635276 0.000000 0.000000 0.000000
-0.252060 -0.190650 1.649141 0.000000 0.000000 0.000000
-0.112040 -0.410937 1.543152 0.000000 0.000000 0.000000
-0.256595 -0.187988 1.650775 0.000000 0.000000 0.000000
-0.278661 -0.214700 1.636669 0.000000 0.000000 0.000000
-0.008327 -0.407454 1.529743 0.000000 0.000000 0.000000
-0.006983 -0.416194 1.529518 0.000000 0.000000 0.000000
-0.135030 -0.199640 1.598482 0.000000 0.000000 0.000000
-0.145584 -0.214016 1.593029 0.000000 0.000000 0.000000
0.017656 -0.399002 1.544868 0.000000 0.000000 0.000000
-0.075680 -0.618924 1.563265 0.000000 0.000000 0.000000
-0.127934 -0.206287 1.594753 0.000000 0.000000 0.000000
-0.152778 -0.203350 1.596698 0.000000 0.000000 0.000000
-0.055495 -0.616403 1.574366 0.000000 0.000000 0.000000
-0.138172 -0.200587 1.595537 0.000000 0.000000 0.000000
-0.150486 -0.191885 1.598274 0.000000 0.000000 0.000000
-0.063332 -0.626249 1.568621 0.000000 0.000000 0.000000
-0.135940 -0.207892 1.594054 0.000000 0.000000 0.000000
0.077379 -0.489094 1.562916 0.000000 0.000000 0.000000
-0.055270 -0.611778 1.571938 0.000000 0.000000 0.000000
0.007373 -0.423604 1.543132 0.000000 0.000000 0.000000
-0.063570 -0.627440 1.563533 0.000000 0.000000 0.000000
-0.101546 -0.224237 1.578709 0.000000 0.000000 0.000000
0.008746 -0.431303 1.541959 0.000000 0.000000 0.000000
-0.085649 -0.619683 1.560508 0.000000 0.000000 0.000000
-0.145377 -0.198829 1.598647 0.000000 0.000000 0.000000
-0.161557 -0.193866 1.601669 0.000000 0.000000 0.000000
-0.064542 -0.629123 1.561832 0.000000 0.000000 0.000000
-0.136657 -0.201102 1.597149 0.000000 0.000000 0.000000
-0.147019 -0.196163 1.596801 0.000000 0.000000 0.000000
-0.081215 -0.627911 1.566618 0.000000 0.000000 0.000000
-0.100517 -0.627550 1.561512 0.000000 0.000000 0.000000
-0.017774 -0.420665 1.535226 0.000000 0.000000 0.000000
0.021897 -0.377555 1.541122 0.000000 0.000000 0.000000
0.004156 -0.595671 1.577269 0.000000 0.000000 0.000000
-0.281766 -0.406475 1.551533 0.000000 0.000000 0.000000
-0.273283 -0.455410 1.537611 0.000000 0.000000 0.000000
-0.263892 -0.193629 1.653257 0.000000 0.000000 0.000000
0.031582 -0.265115 1.554053 0.000000 0.000000 0.000000
0.005210 -0.269387 1.547788 0.000000 0.000000 0.000000
-0.292811 -0.352533 1.580182 0.000000 0.000000 0.000000
0.023972 -0.260750 1.554348 0.000000 0.000000 0.000000
-0.263214 -0.193528 1.653266 0.000000 0.000000 0.000000
-0.227436 -0.187011 1.653536 0.000000 0.000000 0.000000
-0.270676 -0.461705 1.538660 0.000000 0.000000 0.000000
-0.278367 -0.437977 1.544885 0.000000 0.000000 0.000000
-0.276164 -0.435339 1.540093 0.000000 0.000000 0.000000
-0.271736 -0.444397 1.539139 0.000000 0.000000 0.000000
-0.279751 -0.452817 1.533313 0.000000 0.000000 0.000000
0.012780 -0.259362 1.552184 0.000000 0.000000 0.000000
-0.281906 -0.444030 1.539026 0.000000 0.000000 0.000000
0.034537 -0.264335 1.553139 0.000000 0.000000 0.000000
-0.186477 -0.516823 1.544885 0.000000 0.000000 0.000000
-0.266769 -0.194749 1.652437 0.000000 0.000000 0.000000
-0.279933 -0.445069 1.541483 0.000000 0.000000 0.000000
0.024046 -0.263721 1.548867 0.000000 0.000000 0.000000
-0.276964 -0.453616 1.538131 0.000000 0.000000 0.000000
-0.276778 -0.449560 1.540877 0.000000 0.000000 0.000000
-0.280011 -0.430192 1.541587 0.000000 0.000000 0.000000
-0.281870 -0.442774 1.539892 0.000000 0.000000 0.000000
-0.282447 -0.450437 1.536256 0.000000 0.000000 0.000000
0.022369 -0.260307 1.553854 0.000000 0.000000 0.000000
-0.281428 -0.446322 1.538022 0.000000 0.000000 0.000000
-0.170280 -0.523649 1.540036 0.000000 0.000000 0.000000
-0.261525 -0.193919 1.655525 0.000000 0.000000 0.000000
-0.282417 -0.455856 1.535887 0.000000 0.000000 0.000000
0.011515 -0.254197 1.552042 0.000000 0.000000 0.000000
-0.255132 -0.528016 1.537130 0.000000 0.000000 0.000000
-0.288035 -0.324055 1.594598 0.000000 0.000000 0.000000
-0.291826 -0.370948 1.571298 0.000000 0.000000 0.000000
-0.282349 -0.450089 1.538746 0.000000 0.000000 0.000000
-0.202991 -0.428972 1.542468 0.000000 0.000000 0.000000
-0.232878 -0.538065 1.542462 0.000000 0.000000 0.000000
-0.242688 -0.544288 1.537496 0.000000 0.000000 0.000000
-0.103755 -0.524379 1.579394 0.000000 0.000000 0.000000
-0.211600 -0.552678 1.550753 0.000000 0.000000 0.000000
-0.259666 -0.480951 1.538612 0.000000 0.000000 0.000000
-0.135219 -0.529420 1.569208 0.000000 0.000000 0.000000
-0.269083 -0.504108 1.538428 0.000000 0.000000 0.000000
-0.260003 -0.530955 1.532380 0.000000 0.000000 0.000000
0.105976 -0.368628 1.578354 0.000000 0.000000 0.000000
-0.267897 -0.503804 1.538272 0.000000 0.000000 0.000000
-0.195684 -0.423784 1.540994 0.000000 0.000000 0.000000
-0.227751 -0.520897 1.545496 0.000000 0.000000 0.000000
-0.204114 -0.542629 1.551876 0.000000 0.000000 0.000000
-0.245853 -0.522757 1.537887 0.000000 0.000000 0.000000
-0.122312 -0.555070 1.575076 0.000000 0.000000 0.000000
-0.184055 -0.427708 1.538402 0.000000 0.000000 0.000000
-0.149026 -0.556542 1.565625 0.000000 0.000000 0.000000
-0.268559 -0.492359 1.539192 0.000000 0.000000 0.000000
-0.126862 -0.496194 1.565789 0.000000 0.000000 0.000000
-0.272230 -0.494703 1.537466 0.000000 0.000000 0.000000
-0.261862 -0.522070 1.532725 0.000000 0.000000 0.000000
0.107424 -0.390437 1.579158 0.000000 0.000000 0.000000
-0.259622 -0.518190 1.538497 0.000000 0.000000 0.000000
0.007165 -0.260974 1.550844 0.000000 0.000000 0.000000
-0.288036 -0.291065 1.615158 0.000000 0.000000 0.000000
-0.285314 -0.291977 1.613733 0.000000 0.000000 0.000000
0.112915 -0.385587 1.570286 0.000000 0.000000 0.000000
-0.285677 -0.332910 1.590107 0.000000 0.000000 0.000000
0.031813 -0.267349 1.558498 0.000000 0.000000 0.000000
-0.288551 -0.287634 1.617384 0.000000 0.000000 0.000000
-0.108890 -0.575050 1.590846 0.000000 0.000000 0.000000
-0.131991 -0.238046 1.577508 0.000000 0.000000 0.000000
-0.082178 -0.296095 1.546996 0.000000 0.000000 0.000000
-0.110885 -0.254522 1.563558 0.000000 0.000000 0.000000
-0.134283 -0.274659 1.562786 0.000000 0.000000 0.000000
-0.160917 -0.277586 1.569742 0.000000 0.000000 0.000000
-0.048546 -0.317380 1.546643 0.000000 0.000000 0.000000
-0.160275 -0.281548 1.563498 0.000000 0.000000 0.000000
-0.176693 -0.283348 1.569208 0.000000 0.000000 0.000000
-0.128332 -0.280212 1.560674 0.000000 0.000000 0.000000
-0.117017 -0.310421 1.548329 0.000000 0.000000 0.000000
-0.156505 -0.246989 1.575885 0.000000 0.000000 0.000000
-0.115031 -0.530383 1.570079 0.000000 0.000000 0.000000
-0.075318 -0.581232 1.582439 0.000000 0.000000 0.000000
-0.034450 -0.350852 1.537377 0.000000 0.000000 0.000000
-0.096813 -0.258424 1.551850 0.000000 0.000000 0.000000
-0.084155 -0.593792 1.580368 0.000000 0.000000 0.000000
-0.179718 -0.185408 1.620578 0.000000 0.000000 0.000000
-0.170490 -0.292895 1.563922 0.000000 0.000000 0.000000
-0.215902 -0.284541 1.580377 0.000000 0.000000 0.000000
-0.172953 -0.251827 1.580757 0.000000 0.000000 0.000000
0.103192 -0.360907 1.570733 0.000000 0.000000 0.000000
-0.240484 -0.321305 1.578628 0.000000 0.000000 0.000000
-0.190890 -0.304481 1.573522 0.000000 0.000000 0.000000
0.105619 -0.374370 1.571244 0.000000 0.000000 0.000000
-0.037015 -0.441114 1.536399 0.000000 0.000000 0.000000
-0.118010 -0.300137 1.550408 0.000000 0.000000 0.000000
-0.040395 -0.466410 1.539461 0.000000 0.000000 0.000000
-0.048510 -0.369963 1.539941 0.000000 0.000000 0.000000
-0.257347 -0.526296 1.532305 0.000000 0.000000 0.000000
-0.073717 -0.338490 1.539048 0.000000 0.000000 0.000000
-0.055242 -0.296740 1.542756 0.000000 0.000000 0.000000
0.057761 -0.331988 1.554082 0.000000 0.000000 0.000000
-0.081139 -0.342442 1.535494 0.000000 0.000000 0.000000
-0.019144 -0.313048 1.540596 0.000000 0.000000 0.000000
-0.145242 -0.311264 1.551263 0.000000 0.000000 0.000000
-0.143052 -0.315276 1.549704 0.000000 0.000000 0.000000
-0.171026 -0.291605 1.562557 0.000000 0.000000 0.000000
0.104312 -0.342777 1.575041 0.000000 0.000000 0.000000
-0.243480 -0.245333 1.608784 0.000000 0.000000 0.000000
0.110020 -0.365776 1.570691 0.000000 0.000000 0.000000
-0.092573 -0.223678 1.572747 0.000000 0.000000 0.000000
-0.130733 -0.268721 1.562421 0.000000 0.000000 0.000000
0.105658 -0.390896 1.577511 0.000000 0.000000 0.000000
0.099443 -0.410279 1.572873 0.000000 0.000000 0.000000
-0.252281 -0.533877 1.530875 0.000000 0.000000 0.000000
-0.143174 -0.287648 1.556833 0.000000 0.000000 0.000000
-0.144267 -0.263913 1.565277 0.000000 0.000000 0.000000
-0.284454 -0.280436 1.622609 0.000000 0.000000 0.000000
0.104066 -0.384325 1.573968 0.000000 0.000000 0.000000
0.103982 -0.383252 1.572194 0.000000 0.000000 0.000000
-0.197251 -0.596806 1.540301 0.000000 0.000000 0.000000
0.102429 -0.350010 1.571149 0.000000 0.000000 0.000000
0.090586 -0.314937 1.562740 0.000000 0.000000 0.000000
-0.245443 -0.310870 1.579253 0.000000 0.000000 0.000000
0.009602 -0.278356 1.548530 0.000000 0.000000 0.000000
-0.044523 -0.453913 1.538434 0.000000 0.000000 0.000000
0.105249 -0.396950 1.571760 0.000000 0.000000 0.000000
0.092144 -0.376686 1.568931 0.000000 0.000000 0.000000
0.072793 -0.497637 1.562078 0.000000 0.000000 0.000000
0.082302 -0.409160 1.567681 0.000000 0.000000 0.000000
0.007311 -0.254642 1.552491 0.000000 0.000000 0.000000
-0.096745 -0.584566 1.577838 0.000000 0.000000 0.000000
-0.132960 -0.254281 1.568462 0.000000 0.000000 0.000000
-0.064379 -0.288980 1.545386 0.000000 0.000000 0.000000
