ply
format ascii 1.0
comment VCGLIB generated
obj_info Generated by SPFormer!
element vertex 884
property float x
property float y
property float z
property float nx
property float ny
property float nz
end_header
0.860327 1.057248 2.016356 0.000000 0.000000 0.000000
0.804569 1.049932 1.977615 0.000000 0.000000 0.000000
0.766258 1.010709 2.049445 0.000000 0.000000 0.000000
0.824450 1.035007 2.038291 0.000000 0.000000 0.000000
0.770794 1.025283 2.023364 0.000000 0.000000 0.000000
0.896693 1.047138 2.033209 0.000000 0.000000 0.000000
0.880938 1.066046 2.011715 0.000000 0.000000 0.000000
0.780821 1.010093 2.115211 0.000000 0.000000 0.000000
0.816242 1.074016 1.900730 0.000000 0.000000 0.000000
0.825735 1.077847 1.880756 0.000000 0.000000 0.000000
0.778724 1.029553 2.018156 0.000000 0.000000 0.000000
0.796259 1.037662 2.008008 0.000000 0.000000 0.000000
0.807396 1.032964 2.034153 0.000000 0.000000 0.000000
0.798154 1.021027 2.142083 0.000000 0.000000 0.000000
0.762384 0.997272 2.110502 0.000000 0.000000 0.000000
0.752366 0.990924 2.092746 0.000000 0.000000 0.000000
0.874528 1.039202 2.069093 0.000000 0.000000 0.000000
0.780022 1.010893 2.125145 0.000000 0.000000 0.000000
0.895326 1.038579 2.072035 0.000000 0.000000 0.000000
0.666699 1.013625 2.001293 0.000000 0.000000 0.000000
0.755820 0.988834 2.104730 0.000000 0.000000 0.000000
0.857240 1.093630 1.934596 0.000000 0.000000 0.000000
0.824556 1.025772 2.150958 0.000000 0.000000 0.000000
0.862402 1.094067 1.926732 0.000000 0.000000 0.000000
0.822859 1.026302 2.141232 0.000000 0.000000 0.000000
0.718297 1.067115 1.910266 0.000000 0.000000 0.000000
0.707143 0.985449 2.031645 0.000000 0.000000 0.000000
0.662532 1.018652 1.996671 0.000000 0.000000 0.000000
0.855139 1.092642 1.938975 0.000000 0.000000 0.000000
0.664314 1.031610 1.983596 0.000000 0.000000 0.000000
0.820336 1.075373 1.877416 0.000000 0.000000 0.000000
0.781322 1.012274 2.120861 0.000000 0.000000 0.000000
0.821686 1.028718 2.119461 0.000000 0.000000 0.000000
0.896780 1.038928 2.095440 0.000000 0.000000 0.000000
0.852273 1.088952 1.926107 0.000000 0.000000 0.000000
0.841179 1.077552 1.895049 0.000000 0.000000 0.000000
0.837711 1.079262 1.917006 0.000000 0.000000 0.000000
0.759307 1.081107 1.862058 0.000000 0.000000 0.000000
0.865914 1.038641 2.118223 0.000000 0.000000 0.000000
0.855873 1.089387 1.970481 0.000000 0.000000 0.000000
0.874908 1.080067 1.997056 0.000000 0.000000 0.000000
0.837891 1.030450 2.124308 0.000000 0.000000 0.000000
0.830100 1.077941 1.897580 0.000000 0.000000 0.000000
0.837283 1.029136 2.151193 0.000000 0.000000 0.000000
0.869910 1.073718 2.000471 0.000000 0.000000 0.000000
0.862751 1.098120 1.965398 0.000000 0.000000 0.000000
0.879342 1.040753 2.123226 0.000000 0.000000 0.000000
0.837114 1.027716 2.150116 0.000000 0.000000 0.000000
0.857465 1.033503 2.145957 0.000000 0.000000 0.000000
0.792179 1.077690 1.870433 0.000000 0.000000 0.000000
0.730634 1.081720 1.869555 0.000000 0.000000 0.000000
0.687998 1.089072 1.907428 0.000000 0.000000 0.000000
0.751927 0.986385 2.100474 0.000000 0.000000 0.000000
0.759098 0.992862 2.106354 0.000000 0.000000 0.000000
0.912401 1.039771 2.040508 0.000000 0.000000 0.000000
0.777178 1.006436 2.098061 0.000000 0.000000 0.000000
0.788051 1.077810 1.865866 0.000000 0.000000 0.000000
0.675920 1.026221 1.977186 0.000000 0.000000 0.000000
0.674738 1.020975 1.987683 0.000000 0.000000 0.000000
0.684812 1.025894 1.991500 0.000000 0.000000 0.000000
0.682342 1.010554 2.001568 0.000000 0.000000 0.000000
0.682194 1.004722 2.000995 0.000000 0.000000 0.000000
0.705794 0.998011 2.026339 0.000000 0.000000 0.000000
0.684935 0.989025 2.022932 0.000000 0.000000 0.000000
0.814151 1.077679 1.880192 0.000000 0.000000 0.000000
0.862744 1.099996 1.956656 0.000000 0.000000 0.000000
0.875423 1.061109 2.015180 0.000000 0.000000 0.000000
0.877778 1.042120 2.135783 0.000000 0.000000 0.000000
0.784202 1.080054 1.863191 0.000000 0.000000 0.000000
0.739621 1.001774 2.046394 0.000000 0.000000 0.000000
0.807087 1.079183 1.867206 0.000000 0.000000 0.000000
0.853297 1.030966 2.141881 0.000000 0.000000 0.000000
0.776107 1.009061 2.117918 0.000000 0.000000 0.000000
0.851734 1.093179 1.944548 0.000000 0.000000 0.000000
0.767480 1.078913 1.863207 0.000000 0.000000 0.000000
0.786348 1.081366 1.861171 0.000000 0.000000 0.000000
0.782530 1.078538 1.875224 0.000000 0.000000 0.000000
0.849603 1.036253 2.092621 0.000000 0.000000 0.000000
0.804824 1.027812 2.068532 0.000000 0.000000 0.000000
0.827172 1.028264 2.114272 0.000000 0.000000 0.000000
0.750042 0.983592 2.086820 0.000000 0.000000 0.000000
0.784680 1.079248 1.867957 0.000000 0.000000 0.000000
0.689421 0.996721 2.016345 0.000000 0.000000 0.000000
0.676375 1.004069 2.009721 0.000000 0.000000 0.000000
0.814018 1.029991 2.074273 0.000000 0.000000 0.000000
0.789735 1.077473 1.861716 0.000000 0.000000 0.000000
0.707184 1.074073 1.898832 0.000000 0.000000 0.000000
0.700914 1.077055 1.899427 0.000000 0.000000 0.000000
0.916051 1.033437 2.067424 0.000000 0.000000 0.000000
0.781706 1.011934 2.125305 0.000000 0.000000 0.000000
0.856082 1.092526 1.932253 0.000000 0.000000 0.000000
0.681660 1.001061 2.016251 0.000000 0.000000 0.000000
0.916273 1.035358 2.060029 0.000000 0.000000 0.000000
0.850540 1.088778 1.943205 0.000000 0.000000 0.000000
0.831930 1.075132 1.909334 0.000000 0.000000 0.000000
0.738138 0.978031 2.075181 0.000000 0.000000 0.000000
0.666810 1.008548 2.006130 0.000000 0.000000 0.000000
0.734616 0.975892 2.071075 0.000000 0.000000 0.000000
0.743136 0.984219 2.072111 0.000000 0.000000 0.000000
0.901883 1.039736 2.108198 0.000000 0.000000 0.000000
0.671928 1.004532 2.008726 0.000000 0.000000 0.000000
0.721061 0.974770 2.058992 0.000000 0.000000 0.000000
0.741844 0.988559 2.059344 0.000000 0.000000 0.000000
0.740307 0.978478 2.081777 0.000000 0.000000 0.000000
0.731858 0.982812 2.059581 0.000000 0.000000 0.000000
0.739145 0.979619 2.071993 0.000000 0.000000 0.000000
0.733432 0.975276 2.074794 0.000000 0.000000 0.000000
0.882186 1.038319 2.102939 0.000000 0.000000 0.000000
0.740485 0.980907 2.075466 0.000000 0.000000 0.000000
0.731598 0.978595 2.059758 0.000000 0.000000 0.000000
0.737494 0.982508 2.067817 0.000000 0.000000 0.000000
0.736181 0.976354 2.076701 0.000000 0.000000 0.000000
0.859452 1.093573 1.973262 0.000000 0.000000 0.000000
0.734476 0.988542 2.054339 0.000000 0.000000 0.000000
0.811274 1.024091 2.134320 0.000000 0.000000 0.000000
0.824994 1.026389 2.142065 0.000000 0.000000 0.000000
0.817517 1.024630 2.147461 0.000000 0.000000 0.000000
0.805545 1.021978 2.144593 0.000000 0.000000 0.000000
0.797219 1.023036 2.147740 0.000000 0.000000 0.000000
0.709362 0.996886 2.026606 0.000000 0.000000 0.000000
0.676215 1.004180 2.009907 0.000000 0.000000 0.000000
0.734147 0.990822 2.046834 0.000000 0.000000 0.000000
0.826589 1.026173 2.148351 0.000000 0.000000 0.000000
0.682627 0.983635 2.022002 0.000000 0.000000 0.000000
0.693877 0.994186 2.024945 0.000000 0.000000 0.000000
0.818841 1.024688 2.143974 0.000000 0.000000 0.000000
0.808454 1.022531 2.145707 0.000000 0.000000 0.000000
0.712435 0.985899 2.041975 0.000000 0.000000 0.000000
0.697730 0.995803 2.031068 0.000000 0.000000 0.000000
0.676477 1.010554 2.003450 0.000000 0.000000 0.000000
0.838978 1.077008 1.916610 0.000000 0.000000 0.000000
0.688158 1.091375 1.907666 0.000000 0.000000 0.000000
0.781214 1.079875 1.863611 0.000000 0.000000 0.000000
0.736625 0.977794 2.073703 0.000000 0.000000 0.000000
0.730937 0.976224 2.066875 0.000000 0.000000 0.000000
0.821060 1.068962 1.953294 0.000000 0.000000 0.000000
0.844585 1.082770 1.917785 0.000000 0.000000 0.000000
0.838520 1.078735 1.899340 0.000000 0.000000 0.000000
0.836277 1.077304 1.897703 0.000000 0.000000 0.000000
0.853226 1.090585 1.926259 0.000000 0.000000 0.000000
0.855402 1.089177 1.970482 0.000000 0.000000 0.000000
0.868780 1.085626 1.987420 0.000000 0.000000 0.000000
0.659815 1.035481 1.977620 0.000000 0.000000 0.000000
0.762988 1.048354 1.932127 0.000000 0.000000 0.000000
0.744671 1.081473 1.872005 0.000000 0.000000 0.000000
0.849891 1.086372 1.914786 0.000000 0.000000 0.000000
0.727150 0.983461 2.056261 0.000000 0.000000 0.000000
0.760333 0.997889 2.107547 0.000000 0.000000 0.000000
0.707749 1.002271 2.015752 0.000000 0.000000 0.000000
0.906155 1.039399 2.108071 0.000000 0.000000 0.000000
0.823024 1.072546 1.931379 0.000000 0.000000 0.000000
0.840643 1.081023 1.913972 0.000000 0.000000 0.000000
0.821849 1.075419 1.928892 0.000000 0.000000 0.000000
0.810032 1.067322 1.929924 0.000000 0.000000 0.000000
0.820641 1.076402 1.905534 0.000000 0.000000 0.000000
0.848678 1.084260 1.967552 0.000000 0.000000 0.000000
0.827527 1.076917 1.892040 0.000000 0.000000 0.000000
0.658429 1.035294 1.981384 0.000000 0.000000 0.000000
0.725508 1.080530 1.883724 0.000000 0.000000 0.000000
0.747029 1.084565 1.877448 0.000000 0.000000 0.000000
0.733079 1.081325 1.875910 0.000000 0.000000 0.000000
0.738678 1.082748 1.884162 0.000000 0.000000 0.000000
0.838344 1.085374 1.930895 0.000000 0.000000 0.000000
0.843968 1.083094 1.910410 0.000000 0.000000 0.000000
0.720367 0.977465 2.052823 0.000000 0.000000 0.000000
0.726112 0.975511 2.065535 0.000000 0.000000 0.000000
0.855027 1.087264 1.909516 0.000000 0.000000 0.000000
0.900503 1.041112 2.118305 0.000000 0.000000 0.000000
0.811656 1.074141 1.871286 0.000000 0.000000 0.000000
0.861488 1.097205 1.936820 0.000000 0.000000 0.000000
0.849008 1.091128 1.930421 0.000000 0.000000 0.000000
0.848387 1.085943 1.933856 0.000000 0.000000 0.000000
0.911984 1.036600 2.087550 0.000000 0.000000 0.000000
0.815743 1.074518 1.870658 0.000000 0.000000 0.000000
0.845744 1.084070 1.917321 0.000000 0.000000 0.000000
0.837647 1.079056 1.903592 0.000000 0.000000 0.000000
0.912830 1.035594 2.061156 0.000000 0.000000 0.000000
0.908527 1.039501 2.104335 0.000000 0.000000 0.000000
0.820265 1.077320 1.885959 0.000000 0.000000 0.000000
0.811968 1.077468 1.884025 0.000000 0.000000 0.000000
0.782626 1.073190 1.894758 0.000000 0.000000 0.000000
0.825767 1.077130 1.885296 0.000000 0.000000 0.000000
0.827171 1.077404 1.893749 0.000000 0.000000 0.000000
0.813716 1.077834 1.885126 0.000000 0.000000 0.000000
0.900985 1.038044 2.051068 0.000000 0.000000 0.000000
0.804149 1.079525 1.872160 0.000000 0.000000 0.000000
0.827636 1.028658 2.131223 0.000000 0.000000 0.000000
0.858078 1.095377 1.930091 0.000000 0.000000 0.000000
0.816265 1.075087 1.894993 0.000000 0.000000 0.000000
0.697244 1.041667 1.940590 0.000000 0.000000 0.000000
0.829116 1.076643 1.890518 0.000000 0.000000 0.000000
0.808921 1.076867 1.884424 0.000000 0.000000 0.000000
0.831672 1.077386 1.900232 0.000000 0.000000 0.000000
0.838702 1.078549 1.897839 0.000000 0.000000 0.000000
0.789618 1.079352 1.861451 0.000000 0.000000 0.000000
0.782607 1.079921 1.858952 0.000000 0.000000 0.000000
0.851611 1.092483 1.926765 0.000000 0.000000 0.000000
0.860101 1.097630 1.952394 0.000000 0.000000 0.000000
0.861607 1.096754 1.939005 0.000000 0.000000 0.000000
0.848491 1.085307 1.918741 0.000000 0.000000 0.000000
0.819918 1.069231 1.939491 0.000000 0.000000 0.000000
0.768019 1.058910 1.936613 0.000000 0.000000 0.000000
0.807261 1.075161 1.909160 0.000000 0.000000 0.000000
0.777406 1.060398 1.949434 0.000000 0.000000 0.000000
0.862287 1.098982 1.950983 0.000000 0.000000 0.000000
0.806773 1.077582 1.882412 0.000000 0.000000 0.000000
0.774712 1.061639 1.935601 0.000000 0.000000 0.000000
0.789001 1.073118 1.901721 0.000000 0.000000 0.000000
0.749658 1.048028 1.949048 0.000000 0.000000 0.000000
0.864124 1.100141 1.964093 0.000000 0.000000 0.000000
0.881571 1.081427 1.997836 0.000000 0.000000 0.000000
0.812381 1.077981 1.869109 0.000000 0.000000 0.000000
0.842001 1.078228 1.897097 0.000000 0.000000 0.000000
0.839281 1.078134 1.902787 0.000000 0.000000 0.000000
0.787901 1.017497 2.134604 0.000000 0.000000 0.000000
0.859761 1.089709 1.920670 0.000000 0.000000 0.000000
0.842801 1.080958 1.905628 0.000000 0.000000 0.000000
0.735697 1.081964 1.880023 0.000000 0.000000 0.000000
0.739036 0.978811 2.080773 0.000000 0.000000 0.000000
0.754228 1.081303 1.867451 0.000000 0.000000 0.000000
0.842285 1.080590 1.907413 0.000000 0.000000 0.000000
0.736709 0.976242 2.076678 0.000000 0.000000 0.000000
0.850390 1.085966 1.914692 0.000000 0.000000 0.000000
0.825347 1.075727 1.903965 0.000000 0.000000 0.000000
0.742100 0.979148 2.090685 0.000000 0.000000 0.000000
0.737071 0.981317 2.073379 0.000000 0.000000 0.000000
0.854253 1.086489 1.911926 0.000000 0.000000 0.000000
0.842083 1.033804 2.146271 0.000000 0.000000 0.000000
0.719742 1.062020 1.925557 0.000000 0.000000 0.000000
0.833308 1.028583 2.137989 0.000000 0.000000 0.000000
0.686762 1.064904 1.919997 0.000000 0.000000 0.000000
0.707979 1.069986 1.915984 0.000000 0.000000 0.000000
0.872578 1.085661 1.991903 0.000000 0.000000 0.000000
0.753197 0.986353 2.099089 0.000000 0.000000 0.000000
0.735750 1.029995 1.976053 0.000000 0.000000 0.000000
0.757080 1.030676 1.987311 0.000000 0.000000 0.000000
0.759494 1.045900 1.958617 0.000000 0.000000 0.000000
0.875409 1.085928 1.993461 0.000000 0.000000 0.000000
0.742411 1.058809 1.934126 0.000000 0.000000 0.000000
0.750362 0.985171 2.095374 0.000000 0.000000 0.000000
0.879999 1.076843 2.001118 0.000000 0.000000 0.000000
0.748007 0.983244 2.091216 0.000000 0.000000 0.000000
0.722643 1.031794 1.966298 0.000000 0.000000 0.000000
0.706773 1.044607 1.951774 0.000000 0.000000 0.000000
0.733249 1.016183 1.999215 0.000000 0.000000 0.000000
0.742952 1.024179 1.995818 0.000000 0.000000 0.000000
0.709014 1.023954 1.976077 0.000000 0.000000 0.000000
0.744207 1.038580 1.961167 0.000000 0.000000 0.000000
0.744961 0.982901 2.085245 0.000000 0.000000 0.000000
0.752192 0.983106 2.099413 0.000000 0.000000 0.000000
0.744507 0.981417 2.089703 0.000000 0.000000 0.000000
0.750070 0.985728 2.079562 0.000000 0.000000 0.000000
0.743007 0.979344 2.083422 0.000000 0.000000 0.000000
0.686810 1.044652 1.946100 0.000000 0.000000 0.000000
0.683790 1.051873 1.948786 0.000000 0.000000 0.000000
0.672086 1.039470 1.960796 0.000000 0.000000 0.000000
0.874410 1.040395 2.138527 0.000000 0.000000 0.000000
0.883717 1.041986 2.131721 0.000000 0.000000 0.000000
0.894540 1.040955 2.118770 0.000000 0.000000 0.000000
0.782116 1.078814 1.869011 0.000000 0.000000 0.000000
0.669006 1.003592 2.009441 0.000000 0.000000 0.000000
0.746298 0.981005 2.087632 0.000000 0.000000 0.000000
0.724250 1.080490 1.876231 0.000000 0.000000 0.000000
0.755734 0.987983 2.106448 0.000000 0.000000 0.000000
0.804572 1.075596 1.881724 0.000000 0.000000 0.000000
0.755008 0.987056 2.103065 0.000000 0.000000 0.000000
0.759318 0.992357 2.101325 0.000000 0.000000 0.000000
0.751120 0.985725 2.091146 0.000000 0.000000 0.000000
0.718358 1.079677 1.878871 0.000000 0.000000 0.000000
0.747718 0.981977 2.083425 0.000000 0.000000 0.000000
0.803919 1.074370 1.872121 0.000000 0.000000 0.000000
0.748337 0.983591 2.096074 0.000000 0.000000 0.000000
0.758708 0.992693 2.101600 0.000000 0.000000 0.000000
0.716097 1.076415 1.902668 0.000000 0.000000 0.000000
0.749243 0.982975 2.093159 0.000000 0.000000 0.000000
0.695249 1.083013 1.905439 0.000000 0.000000 0.000000
0.774728 1.078424 1.866213 0.000000 0.000000 0.000000
0.912068 1.037681 2.051319 0.000000 0.000000 0.000000
0.743870 0.979073 2.087081 0.000000 0.000000 0.000000
0.839115 1.077825 1.894664 0.000000 0.000000 0.000000
0.847432 1.035219 2.136239 0.000000 0.000000 0.000000
0.825539 1.075147 1.906847 0.000000 0.000000 0.000000
0.747986 0.983552 2.094641 0.000000 0.000000 0.000000
0.898748 1.038278 2.106584 0.000000 0.000000 0.000000
0.798900 1.079007 1.867435 0.000000 0.000000 0.000000
0.829664 1.078826 1.896947 0.000000 0.000000 0.000000
0.856981 1.094158 1.958259 0.000000 0.000000 0.000000
0.839406 1.078438 1.898008 0.000000 0.000000 0.000000
0.859762 1.096955 1.957784 0.000000 0.000000 0.000000
0.907122 1.039414 2.102407 0.000000 0.000000 0.000000
0.823974 1.076544 1.891032 0.000000 0.000000 0.000000
0.830631 1.076816 1.898369 0.000000 0.000000 0.000000
0.904257 1.038764 2.101248 0.000000 0.000000 0.000000
0.863523 1.096215 1.963304 0.000000 0.000000 0.000000
0.881476 1.038860 2.086317 0.000000 0.000000 0.000000
0.899179 1.039291 2.108286 0.000000 0.000000 0.000000
0.781457 1.012410 2.116954 0.000000 0.000000 0.000000
0.906350 1.039389 2.106001 0.000000 0.000000 0.000000
0.861062 1.094770 1.972740 0.000000 0.000000 0.000000
0.890585 1.038605 2.089143 0.000000 0.000000 0.000000
0.859087 1.095718 1.944572 0.000000 0.000000 0.000000
0.872116 1.038106 2.094442 0.000000 0.000000 0.000000
0.774628 1.005730 2.123258 0.000000 0.000000 0.000000
0.900451 1.039157 2.112049 0.000000 0.000000 0.000000
0.832305 1.078923 1.890730 0.000000 0.000000 0.000000
0.863113 1.098244 1.948043 0.000000 0.000000 0.000000
0.692619 1.087888 1.907107 0.000000 0.000000 0.000000
0.883929 1.042504 2.127454 0.000000 0.000000 0.000000
0.861034 1.098127 1.960111 0.000000 0.000000 0.000000
0.741346 1.014931 2.011032 0.000000 0.000000 0.000000
0.686798 1.047042 1.939673 0.000000 0.000000 0.000000
0.857541 1.093866 1.931756 0.000000 0.000000 0.000000
0.715057 0.995917 2.020099 0.000000 0.000000 0.000000
0.735533 1.066310 1.908754 0.000000 0.000000 0.000000
0.863110 1.038696 2.079997 0.000000 0.000000 0.000000
0.869960 1.041400 2.053230 0.000000 0.000000 0.000000
0.843784 1.030635 2.138515 0.000000 0.000000 0.000000
0.756865 1.033754 1.974061 0.000000 0.000000 0.000000
0.899888 1.058857 2.019758 0.000000 0.000000 0.000000
0.890116 1.071841 2.009096 0.000000 0.000000 0.000000
0.752606 1.084489 1.862624 0.000000 0.000000 0.000000
0.687310 1.058071 1.920009 0.000000 0.000000 0.000000
0.704148 1.080262 1.888796 0.000000 0.000000 0.000000
0.736246 1.032743 1.968953 0.000000 0.000000 0.000000
0.781423 1.080008 1.857803 0.000000 0.000000 0.000000
0.902765 1.043330 2.037468 0.000000 0.000000 0.000000
0.891288 1.043229 2.126319 0.000000 0.000000 0.000000
0.785567 1.054039 1.964452 0.000000 0.000000 0.000000
0.686505 1.054791 1.927147 0.000000 0.000000 0.000000
0.842261 1.081955 1.949399 0.000000 0.000000 0.000000
0.727678 0.998892 2.023279 0.000000 0.000000 0.000000
0.692734 1.030076 1.967839 0.000000 0.000000 0.000000
0.723528 0.993500 2.033896 0.000000 0.000000 0.000000
0.741045 1.066380 1.916500 0.000000 0.000000 0.000000
0.852223 1.088770 1.924860 0.000000 0.000000 0.000000
0.724513 1.021937 1.982361 0.000000 0.000000 0.000000
0.709179 1.078478 1.881858 0.000000 0.000000 0.000000
0.720167 1.079948 1.885782 0.000000 0.000000 0.000000
0.907637 1.042163 2.040055 0.000000 0.000000 0.000000
0.885665 1.042674 2.130731 0.000000 0.000000 0.000000
0.851427 1.088111 1.921394 0.000000 0.000000 0.000000
0.880702 1.072722 2.005393 0.000000 0.000000 0.000000
0.881422 1.041567 2.131032 0.000000 0.000000 0.000000
0.786882 1.078299 1.859021 0.000000 0.000000 0.000000
0.856986 1.094749 1.941523 0.000000 0.000000 0.000000
0.845276 1.087070 1.919588 0.000000 0.000000 0.000000
0.864023 1.099122 1.947940 0.000000 0.000000 0.000000
0.854020 1.094932 1.930865 0.000000 0.000000 0.000000
0.867949 1.084829 1.986208 0.000000 0.000000 0.000000
0.881381 1.041297 2.122616 0.000000 0.000000 0.000000
0.885392 1.042716 2.131809 0.000000 0.000000 0.000000
0.882589 1.040237 2.119047 0.000000 0.000000 0.000000
0.874630 1.040314 2.123074 0.000000 0.000000 0.000000
0.872699 1.040878 2.133042 0.000000 0.000000 0.000000
0.868097 1.075858 1.995579 0.000000 0.000000 0.000000
0.864139 1.036740 2.150069 0.000000 0.000000 0.000000
0.850029 1.031519 2.149350 0.000000 0.000000 0.000000
0.725421 1.004972 2.028000 0.000000 0.000000 0.000000
0.842313 1.082106 1.911818 0.000000 0.000000 0.000000
0.867008 1.090627 1.981043 0.000000 0.000000 0.000000
0.727684 0.998581 2.040859 0.000000 0.000000 0.000000
0.679213 1.014059 2.007709 0.000000 0.000000 0.000000
0.870869 1.092721 1.985490 0.000000 0.000000 0.000000
0.882114 1.078067 2.002489 0.000000 0.000000 0.000000
0.775303 1.079900 1.862003 0.000000 0.000000 0.000000
0.835771 1.078134 1.889427 0.000000 0.000000 0.000000
0.856112 1.035304 2.130533 0.000000 0.000000 0.000000
0.878321 1.039660 2.132935 0.000000 0.000000 0.000000
0.886166 1.042026 2.134062 0.000000 0.000000 0.000000
0.875766 1.039039 2.111745 0.000000 0.000000 0.000000
0.894218 1.039628 2.108521 0.000000 0.000000 0.000000
0.890306 1.065258 2.014640 0.000000 0.000000 0.000000
0.868632 1.040553 2.140270 0.000000 0.000000 0.000000
0.851687 1.031747 2.147522 0.000000 0.000000 0.000000
0.733490 1.001776 2.035951 0.000000 0.000000 0.000000
0.843912 1.081041 1.915472 0.000000 0.000000 0.000000
0.863446 1.093968 1.974230 0.000000 0.000000 0.000000
0.682188 1.027416 2.002789 0.000000 0.000000 0.000000
0.867080 1.093237 1.979754 0.000000 0.000000 0.000000
0.770051 1.080132 1.859108 0.000000 0.000000 0.000000
0.845330 1.080596 1.897064 0.000000 0.000000 0.000000
0.870563 1.036687 2.146760 0.000000 0.000000 0.000000
0.889105 1.061326 2.014904 0.000000 0.000000 0.000000
0.857870 1.064309 2.006736 0.000000 0.000000 0.000000
0.897500 1.056774 2.022717 0.000000 0.000000 0.000000
0.877610 1.066505 2.009329 0.000000 0.000000 0.000000
0.774896 1.079976 1.872771 0.000000 0.000000 0.000000
0.802361 1.041500 1.999127 0.000000 0.000000 0.000000
0.890720 1.060601 2.017216 0.000000 0.000000 0.000000
0.795759 1.079157 1.862924 0.000000 0.000000 0.000000
0.814432 1.024079 2.148215 0.000000 0.000000 0.000000
0.653069 1.037996 1.975705 0.000000 0.000000 0.000000
0.852007 1.071914 1.986139 0.000000 0.000000 0.000000
0.864300 1.059729 2.011715 0.000000 0.000000 0.000000
0.853775 1.082610 1.981154 0.000000 0.000000 0.000000
0.871517 1.066399 2.005909 0.000000 0.000000 0.000000
0.870371 1.068449 2.003408 0.000000 0.000000 0.000000
0.897078 1.055400 2.022793 0.000000 0.000000 0.000000
0.868114 1.069324 2.002637 0.000000 0.000000 0.000000
0.881340 1.072644 2.004780 0.000000 0.000000 0.000000
0.826555 1.061427 1.985460 0.000000 0.000000 0.000000
0.820178 1.051383 2.001656 0.000000 0.000000 0.000000
0.877169 1.060172 2.016877 0.000000 0.000000 0.000000
0.797059 1.081950 1.861769 0.000000 0.000000 0.000000
0.804278 1.022082 2.140225 0.000000 0.000000 0.000000
0.722416 1.074978 1.889273 0.000000 0.000000 0.000000
0.730591 1.078847 1.886025 0.000000 0.000000 0.000000
0.800166 1.076828 1.864971 0.000000 0.000000 0.000000
0.817383 1.077992 1.885569 0.000000 0.000000 0.000000
0.801218 1.077630 1.869716 0.000000 0.000000 0.000000
0.823301 1.077208 1.878646 0.000000 0.000000 0.000000
0.794163 1.075433 1.888847 0.000000 0.000000 0.000000
0.814370 1.079159 1.869681 0.000000 0.000000 0.000000
0.815841 1.077742 1.873146 0.000000 0.000000 0.000000
0.744985 0.984679 2.075165 0.000000 0.000000 0.000000
0.807404 1.081495 1.872245 0.000000 0.000000 0.000000
0.776674 1.079110 1.856450 0.000000 0.000000 0.000000
0.817416 1.077639 1.879905 0.000000 0.000000 0.000000
0.719728 1.071607 1.913161 0.000000 0.000000 0.000000
0.771286 1.082661 1.865214 0.000000 0.000000 0.000000
0.795493 1.068249 1.943031 0.000000 0.000000 0.000000
0.728898 1.079879 1.895595 0.000000 0.000000 0.000000
0.792245 1.079333 1.873546 0.000000 0.000000 0.000000
0.779459 1.072401 1.892844 0.000000 0.000000 0.000000
0.784627 1.077873 1.879593 0.000000 0.000000 0.000000
0.815889 1.077806 1.881406 0.000000 0.000000 0.000000
0.800674 1.078040 1.867341 0.000000 0.000000 0.000000
0.796951 1.081274 1.865493 0.000000 0.000000 0.000000
0.772785 1.061824 1.925773 0.000000 0.000000 0.000000
0.804079 1.076281 1.887969 0.000000 0.000000 0.000000
0.899237 1.039556 2.043081 0.000000 0.000000 0.000000
0.797284 1.078108 1.875829 0.000000 0.000000 0.000000
0.735364 1.078993 1.902422 0.000000 0.000000 0.000000
0.810025 1.074704 1.892422 0.000000 0.000000 0.000000
0.781451 1.079154 1.859852 0.000000 0.000000 0.000000
0.697984 1.015206 2.016798 0.000000 0.000000 0.000000
0.805000 1.077841 1.877730 0.000000 0.000000 0.000000
0.802905 1.078243 1.866523 0.000000 0.000000 0.000000
0.691381 1.016449 2.008280 0.000000 0.000000 0.000000
0.866596 1.079727 1.994882 0.000000 0.000000 0.000000
0.730873 1.068908 1.921413 0.000000 0.000000 0.000000
0.762327 1.078637 1.854120 0.000000 0.000000 0.000000
0.768984 1.070321 1.907479 0.000000 0.000000 0.000000
0.722554 1.079346 1.893956 0.000000 0.000000 0.000000
0.786622 1.078134 1.879150 0.000000 0.000000 0.000000
0.795186 1.077530 1.876722 0.000000 0.000000 0.000000
0.781783 1.079853 1.872118 0.000000 0.000000 0.000000
0.804077 1.077690 1.884239 0.000000 0.000000 0.000000
0.788383 1.077931 1.862497 0.000000 0.000000 0.000000
0.753743 1.063029 1.917686 0.000000 0.000000 0.000000
0.788741 1.080130 1.872272 0.000000 0.000000 0.000000
0.810958 1.077380 1.875151 0.000000 0.000000 0.000000
0.890659 1.066405 2.012054 0.000000 0.000000 0.000000
0.878518 1.042264 2.035924 0.000000 0.000000 0.000000
0.781333 1.077137 1.868105 0.000000 0.000000 0.000000
0.718838 1.072627 1.910760 0.000000 0.000000 0.000000
0.811298 1.076611 1.882130 0.000000 0.000000 0.000000
0.774124 1.079957 1.859452 0.000000 0.000000 0.000000
0.736861 0.978006 2.077910 0.000000 0.000000 0.000000
0.698829 1.014267 2.013772 0.000000 0.000000 0.000000
0.809420 1.078152 1.872946 0.000000 0.000000 0.000000
0.796877 1.075486 1.863908 0.000000 0.000000 0.000000
0.781899 1.076479 1.905581 0.000000 0.000000 0.000000
0.787122 1.081106 1.879969 0.000000 0.000000 0.000000
0.770715 1.066925 1.926741 0.000000 0.000000 0.000000
0.867544 1.070274 1.995908 0.000000 0.000000 0.000000
0.851927 1.084703 1.909358 0.000000 0.000000 0.000000
0.862981 1.098557 1.955357 0.000000 0.000000 0.000000
0.897786 1.061740 2.020892 0.000000 0.000000 0.000000
0.694096 0.982366 2.029286 0.000000 0.000000 0.000000
0.759210 1.010928 2.049186 0.000000 0.000000 0.000000
0.723540 0.973876 2.062576 0.000000 0.000000 0.000000
0.849620 1.087713 1.941546 0.000000 0.000000 0.000000
0.863082 1.100767 1.963555 0.000000 0.000000 0.000000
0.854533 1.092463 1.944169 0.000000 0.000000 0.000000
0.894751 1.041967 2.128573 0.000000 0.000000 0.000000
0.840471 1.027156 2.157711 0.000000 0.000000 0.000000
0.777216 1.080580 1.858602 0.000000 0.000000 0.000000
0.886596 1.045364 2.037090 0.000000 0.000000 0.000000
0.717898 0.973562 2.056381 0.000000 0.000000 0.000000
0.857867 1.096550 1.942246 0.000000 0.000000 0.000000
0.852611 1.090203 1.932180 0.000000 0.000000 0.000000
0.860958 1.098849 1.948974 0.000000 0.000000 0.000000
0.860603 1.098059 1.949187 0.000000 0.000000 0.000000
0.755030 0.986713 2.105612 0.000000 0.000000 0.000000
0.769584 1.001470 2.115340 0.000000 0.000000 0.000000
0.757969 0.990820 2.110781 0.000000 0.000000 0.000000
0.761921 0.994585 2.110070 0.000000 0.000000 0.000000
0.692750 1.080603 1.908792 0.000000 0.000000 0.000000
0.731250 1.080554 1.877459 0.000000 0.000000 0.000000
0.785486 1.012562 2.120454 0.000000 0.000000 0.000000
0.769002 1.002116 2.109535 0.000000 0.000000 0.000000
0.755962 0.989930 2.103125 0.000000 0.000000 0.000000
0.659681 1.038627 1.975879 0.000000 0.000000 0.000000
0.665422 1.035857 1.971468 0.000000 0.000000 0.000000
0.900944 1.057562 2.021758 0.000000 0.000000 0.000000
0.679212 1.033459 1.989367 0.000000 0.000000 0.000000
0.830433 1.043051 2.011005 0.000000 0.000000 0.000000
0.754331 0.988795 2.096420 0.000000 0.000000 0.000000
0.756615 0.991035 2.100359 0.000000 0.000000 0.000000
0.672533 1.013147 2.000352 0.000000 0.000000 0.000000
0.815554 1.077992 1.875122 0.000000 0.000000 0.000000
0.717181 1.080174 1.882437 0.000000 0.000000 0.000000
0.850733 1.032020 2.149767 0.000000 0.000000 0.000000
0.867874 1.101126 1.972600 0.000000 0.000000 0.000000
0.682235 0.985353 2.026624 0.000000 0.000000 0.000000
0.882971 1.042898 2.131291 0.000000 0.000000 0.000000
0.887366 1.043027 2.128895 0.000000 0.000000 0.000000
0.856318 1.033358 2.148261 0.000000 0.000000 0.000000
0.680176 0.991295 2.021378 0.000000 0.000000 0.000000
0.844547 1.030583 2.151223 0.000000 0.000000 0.000000
0.863703 1.034360 2.147017 0.000000 0.000000 0.000000
0.859551 1.096404 1.932332 0.000000 0.000000 0.000000
0.881004 1.077610 2.000838 0.000000 0.000000 0.000000
0.882645 1.076581 2.001588 0.000000 0.000000 0.000000
0.868283 1.038472 2.127446 0.000000 0.000000 0.000000
0.882063 1.046057 2.039113 0.000000 0.000000 0.000000
0.853329 1.032882 2.142729 0.000000 0.000000 0.000000
0.883721 1.038739 2.127973 0.000000 0.000000 0.000000
0.680946 0.993541 2.019371 0.000000 0.000000 0.000000
0.830569 1.026464 2.147635 0.000000 0.000000 0.000000
0.860801 1.035292 2.147436 0.000000 0.000000 0.000000
0.860736 1.097507 1.936934 0.000000 0.000000 0.000000
0.712570 0.969822 2.054472 0.000000 0.000000 0.000000
0.874439 1.083053 1.994687 0.000000 0.000000 0.000000
0.875776 1.039909 2.142101 0.000000 0.000000 0.000000
0.887893 1.065531 2.011057 0.000000 0.000000 0.000000
0.867437 1.037739 2.149866 0.000000 0.000000 0.000000
0.888114 1.041702 2.129115 0.000000 0.000000 0.000000
0.798500 1.077678 1.877906 0.000000 0.000000 0.000000
0.878283 1.041020 2.128050 0.000000 0.000000 0.000000
0.890674 1.041749 2.122470 0.000000 0.000000 0.000000
0.863265 1.099689 1.956207 0.000000 0.000000 0.000000
0.860387 1.097347 1.954677 0.000000 0.000000 0.000000
0.892958 1.040975 2.118123 0.000000 0.000000 0.000000
0.857910 1.095883 1.954833 0.000000 0.000000 0.000000
0.862999 1.099131 1.958096 0.000000 0.000000 0.000000
0.902394 1.043639 2.119700 0.000000 0.000000 0.000000
0.684784 1.019002 2.007509 0.000000 0.000000 0.000000
0.689741 1.090187 1.906737 0.000000 0.000000 0.000000
0.691820 1.091565 1.906263 0.000000 0.000000 0.000000
0.864952 1.095010 1.973286 0.000000 0.000000 0.000000
0.876346 1.086390 1.994485 0.000000 0.000000 0.000000
0.765279 1.079483 1.861179 0.000000 0.000000 0.000000
0.759013 1.084683 1.862854 0.000000 0.000000 0.000000
0.880846 1.077336 2.001698 0.000000 0.000000 0.000000
0.751912 1.082398 1.861447 0.000000 0.000000 0.000000
0.859334 1.079533 1.988787 0.000000 0.000000 0.000000
0.691485 1.086722 1.907727 0.000000 0.000000 0.000000
0.751936 1.081749 1.863886 0.000000 0.000000 0.000000
0.867387 1.089816 1.983174 0.000000 0.000000 0.000000
0.782697 1.079564 1.864403 0.000000 0.000000 0.000000
0.842328 1.080589 1.908586 0.000000 0.000000 0.000000
0.860521 1.097943 1.948450 0.000000 0.000000 0.000000
0.750293 1.083355 1.863781 0.000000 0.000000 0.000000
0.782044 1.077428 1.856974 0.000000 0.000000 0.000000
0.763738 0.995797 2.113002 0.000000 0.000000 0.000000
0.758631 0.992165 2.114568 0.000000 0.000000 0.000000
0.687138 1.078140 1.909662 0.000000 0.000000 0.000000
0.688473 1.088591 1.907230 0.000000 0.000000 0.000000
0.846375 1.084158 1.955747 0.000000 0.000000 0.000000
0.850264 1.088338 1.938809 0.000000 0.000000 0.000000
0.852084 1.089343 1.956413 0.000000 0.000000 0.000000
0.852598 1.091792 1.952095 0.000000 0.000000 0.000000
0.740835 1.081165 1.860677 0.000000 0.000000 0.000000
0.842484 1.067574 1.988974 0.000000 0.000000 0.000000
0.849193 1.070168 1.993024 0.000000 0.000000 0.000000
0.877934 1.058177 2.017331 0.000000 0.000000 0.000000
0.759462 0.991983 2.108359 0.000000 0.000000 0.000000
0.843738 1.083129 1.945098 0.000000 0.000000 0.000000
0.853931 1.091812 1.950990 0.000000 0.000000 0.000000
0.860320 1.096743 1.939711 0.000000 0.000000 0.000000
0.716924 0.974024 2.061638 0.000000 0.000000 0.000000
0.913533 1.037899 2.087897 0.000000 0.000000 0.000000
0.745418 1.084088 1.869889 0.000000 0.000000 0.000000
0.844703 1.069869 1.985766 0.000000 0.000000 0.000000
0.839063 1.060265 1.999163 0.000000 0.000000 0.000000
0.759114 0.991173 2.106610 0.000000 0.000000 0.000000
0.753286 0.987128 2.109252 0.000000 0.000000 0.000000
0.764109 1.080701 1.864801 0.000000 0.000000 0.000000
0.755829 1.081395 1.859780 0.000000 0.000000 0.000000
0.858703 1.054394 2.010341 0.000000 0.000000 0.000000
0.890505 1.058091 2.016934 0.000000 0.000000 0.000000
0.659711 1.016195 2.003807 0.000000 0.000000 0.000000
0.865048 1.042387 2.032668 0.000000 0.000000 0.000000
0.849947 1.069620 1.989903 0.000000 0.000000 0.000000
0.669538 1.005465 2.008310 0.000000 0.000000 0.000000
0.826812 1.040812 2.018067 0.000000 0.000000 0.000000
0.796784 1.020650 2.138901 0.000000 0.000000 0.000000
0.868915 1.046588 2.026663 0.000000 0.000000 0.000000
0.750884 1.082775 1.863522 0.000000 0.000000 0.000000
0.786867 1.015900 2.131626 0.000000 0.000000 0.000000
0.674917 1.024402 1.998917 0.000000 0.000000 0.000000
0.781669 1.012150 2.128101 0.000000 0.000000 0.000000
0.892638 1.068609 2.011750 0.000000 0.000000 0.000000
0.897194 1.053143 2.028559 0.000000 0.000000 0.000000
0.870657 1.058424 2.011242 0.000000 0.000000 0.000000
0.873468 1.054087 2.015404 0.000000 0.000000 0.000000
0.670547 1.021251 1.994841 0.000000 0.000000 0.000000
0.870423 1.051112 2.020178 0.000000 0.000000 0.000000
0.878555 1.061424 2.007889 0.000000 0.000000 0.000000
0.674000 1.007599 2.007617 0.000000 0.000000 0.000000
0.803199 1.022247 2.136019 0.000000 0.000000 0.000000
0.870731 1.050962 2.024983 0.000000 0.000000 0.000000
0.770317 1.081301 1.863783 0.000000 0.000000 0.000000
0.783515 1.014264 2.131411 0.000000 0.000000 0.000000
0.674344 1.019302 2.006020 0.000000 0.000000 0.000000
0.790189 1.018668 2.136993 0.000000 0.000000 0.000000
0.895114 1.062999 2.015600 0.000000 0.000000 0.000000
0.892542 1.046944 2.033015 0.000000 0.000000 0.000000
0.786258 1.015447 2.127272 0.000000 0.000000 0.000000
0.732300 1.082056 1.873875 0.000000 0.000000 0.000000
0.730376 1.081917 1.876017 0.000000 0.000000 0.000000
0.881213 1.080470 1.998859 0.000000 0.000000 0.000000
0.886210 1.042943 2.127021 0.000000 0.000000 0.000000
0.693845 1.093323 1.909219 0.000000 0.000000 0.000000
0.887116 1.042922 2.129390 0.000000 0.000000 0.000000
0.886476 1.076687 2.002622 0.000000 0.000000 0.000000
0.872263 1.042331 2.102679 0.000000 0.000000 0.000000
0.712364 1.078039 1.890068 0.000000 0.000000 0.000000
0.701481 0.981748 2.036259 0.000000 0.000000 0.000000
0.858162 1.035482 2.151412 0.000000 0.000000 0.000000
0.715745 1.079386 1.886780 0.000000 0.000000 0.000000
0.882452 1.078522 2.002468 0.000000 0.000000 0.000000
0.879131 1.041254 2.097088 0.000000 0.000000 0.000000
0.686349 0.990387 2.019469 0.000000 0.000000 0.000000
0.728511 1.081597 1.874682 0.000000 0.000000 0.000000
0.695361 0.986346 2.030188 0.000000 0.000000 0.000000
0.864321 1.040921 2.139365 0.000000 0.000000 0.000000
0.721954 1.079190 1.890456 0.000000 0.000000 0.000000
0.669035 1.008172 2.008373 0.000000 0.000000 0.000000
0.786590 1.079900 1.874043 0.000000 0.000000 0.000000
0.785437 1.079300 1.861967 0.000000 0.000000 0.000000
0.913135 1.035599 2.070902 0.000000 0.000000 0.000000
0.904111 1.040040 2.109910 0.000000 0.000000 0.000000
0.909548 1.035765 2.071466 0.000000 0.000000 0.000000
0.785350 1.079560 1.863051 0.000000 0.000000 0.000000
0.905827 1.045423 2.033807 0.000000 0.000000 0.000000
0.769372 1.080852 1.857723 0.000000 0.000000 0.000000
0.778241 1.009730 2.127966 0.000000 0.000000 0.000000
0.771477 1.006000 2.117827 0.000000 0.000000 0.000000
0.775814 1.008932 2.119760 0.000000 0.000000 0.000000
0.766974 0.999925 2.119819 0.000000 0.000000 0.000000
0.673991 1.028050 2.001162 0.000000 0.000000 0.000000
0.907457 1.035005 2.071431 0.000000 0.000000 0.000000
0.901006 1.043189 2.122310 0.000000 0.000000 0.000000
0.913153 1.036936 2.063151 0.000000 0.000000 0.000000
0.912832 1.034467 2.068431 0.000000 0.000000 0.000000
0.847309 1.082247 1.911489 0.000000 0.000000 0.000000
0.801733 1.078849 1.870207 0.000000 0.000000 0.000000
0.908361 1.042458 2.037219 0.000000 0.000000 0.000000
0.790160 1.078178 1.861129 0.000000 0.000000 0.000000
0.771096 1.003505 2.123562 0.000000 0.000000 0.000000
0.773178 1.007034 2.124212 0.000000 0.000000 0.000000
0.767130 1.001108 2.112688 0.000000 0.000000 0.000000
0.765779 0.998725 2.115610 0.000000 0.000000 0.000000
0.667981 1.035114 1.989305 0.000000 0.000000 0.000000
0.808404 1.078707 1.861817 0.000000 0.000000 0.000000
0.793857 1.078882 1.866881 0.000000 0.000000 0.000000
0.864371 1.100355 1.953395 0.000000 0.000000 0.000000
0.718707 1.078163 1.881542 0.000000 0.000000 0.000000
0.711632 1.078741 1.890091 0.000000 0.000000 0.000000
0.749050 1.082280 1.876485 0.000000 0.000000 0.000000
0.788679 1.080052 1.866946 0.000000 0.000000 0.000000
0.712908 1.052766 1.933561 0.000000 0.000000 0.000000
0.858266 1.094247 1.931224 0.000000 0.000000 0.000000
0.736060 1.081438 1.864018 0.000000 0.000000 0.000000
0.756588 1.040591 1.959965 0.000000 0.000000 0.000000
0.744977 1.085537 1.866463 0.000000 0.000000 0.000000
0.742100 1.079843 1.887802 0.000000 0.000000 0.000000
0.743197 1.057730 1.939316 0.000000 0.000000 0.000000
0.724381 1.082206 1.867915 0.000000 0.000000 0.000000
0.876723 1.042413 2.132491 0.000000 0.000000 0.000000
0.766795 1.081182 1.858649 0.000000 0.000000 0.000000
0.860364 1.098708 1.950119 0.000000 0.000000 0.000000
0.847291 1.086037 1.952325 0.000000 0.000000 0.000000
0.712597 1.079467 1.889200 0.000000 0.000000 0.000000
0.876760 1.040546 2.134203 0.000000 0.000000 0.000000
0.754852 1.083209 1.859620 0.000000 0.000000 0.000000
0.881975 1.041574 2.033176 0.000000 0.000000 0.000000
0.756058 1.081537 1.871167 0.000000 0.000000 0.000000
0.781938 1.080325 1.869085 0.000000 0.000000 0.000000
0.784411 1.081667 1.863309 0.000000 0.000000 0.000000
0.857891 1.095627 1.951747 0.000000 0.000000 0.000000
0.746314 1.080875 1.858127 0.000000 0.000000 0.000000
0.765017 1.060572 1.938951 0.000000 0.000000 0.000000
0.739267 1.083147 1.862981 0.000000 0.000000 0.000000
0.813869 1.075691 1.880431 0.000000 0.000000 0.000000
0.715954 1.062044 1.924829 0.000000 0.000000 0.000000
0.884924 1.043069 2.129301 0.000000 0.000000 0.000000
0.804087 1.078563 1.865929 0.000000 0.000000 0.000000
0.862350 1.100575 1.948178 0.000000 0.000000 0.000000
0.853639 1.091413 1.947968 0.000000 0.000000 0.000000
0.711292 1.079058 1.891214 0.000000 0.000000 0.000000
0.759334 1.082372 1.858565 0.000000 0.000000 0.000000
0.862207 1.044049 2.025102 0.000000 0.000000 0.000000
0.734603 0.977417 2.073766 0.000000 0.000000 0.000000
0.910881 1.035789 2.080766 0.000000 0.000000 0.000000
0.740453 0.980445 2.074819 0.000000 0.000000 0.000000
0.685385 0.988429 2.025419 0.000000 0.000000 0.000000
0.912653 1.036566 2.084730 0.000000 0.000000 0.000000
0.786104 1.079322 1.854728 0.000000 0.000000 0.000000
0.739072 0.978560 2.077848 0.000000 0.000000 0.000000
0.799550 1.078967 1.869016 0.000000 0.000000 0.000000
0.682080 0.986527 2.025078 0.000000 0.000000 0.000000
0.913418 1.035787 2.076199 0.000000 0.000000 0.000000
0.913058 1.035619 2.072025 0.000000 0.000000 0.000000
0.899483 1.038548 2.070577 0.000000 0.000000 0.000000
0.909201 1.036263 2.067513 0.000000 0.000000 0.000000
0.904463 1.037993 2.067594 0.000000 0.000000 0.000000
0.902630 1.037165 2.075159 0.000000 0.000000 0.000000
0.911159 1.036083 2.079574 0.000000 0.000000 0.000000
0.750835 1.007624 2.049411 0.000000 0.000000 0.000000
0.812035 1.076647 1.879012 0.000000 0.000000 0.000000
0.686480 0.990199 2.024559 0.000000 0.000000 0.000000
0.728775 0.975001 2.074057 0.000000 0.000000 0.000000
0.822565 1.079588 1.878333 0.000000 0.000000 0.000000
0.826339 1.028173 2.156372 0.000000 0.000000 0.000000
0.908809 1.038230 2.092864 0.000000 0.000000 0.000000
0.691110 0.999608 2.021636 0.000000 0.000000 0.000000
0.847992 1.031854 2.151824 0.000000 0.000000 0.000000
0.789654 1.076350 1.858006 0.000000 0.000000 0.000000
0.692402 0.984465 2.027421 0.000000 0.000000 0.000000
0.904742 1.038386 2.074870 0.000000 0.000000 0.000000
0.905142 1.036599 2.067375 0.000000 0.000000 0.000000
0.910750 1.036222 2.064952 0.000000 0.000000 0.000000
0.912629 1.036717 2.085591 0.000000 0.000000 0.000000
0.905041 1.037544 2.084493 0.000000 0.000000 0.000000
0.749810 1.000209 2.064110 0.000000 0.000000 0.000000
0.695287 0.987197 2.029301 0.000000 0.000000 0.000000
0.808061 1.080765 1.870010 0.000000 0.000000 0.000000
0.908801 1.037363 2.085980 0.000000 0.000000 0.000000
0.701522 0.990984 2.027104 0.000000 0.000000 0.000000
0.797358 1.076742 1.858567 0.000000 0.000000 0.000000
0.686631 0.984847 2.028033 0.000000 0.000000 0.000000
0.827205 1.076397 1.880030 0.000000 0.000000 0.000000
0.857262 1.093452 1.960820 0.000000 0.000000 0.000000
0.909129 1.039959 2.101813 0.000000 0.000000 0.000000
0.884261 1.044258 2.134416 0.000000 0.000000 0.000000
0.820333 1.079208 1.875190 0.000000 0.000000 0.000000
0.891318 1.044681 2.128733 0.000000 0.000000 0.000000
0.689912 0.983944 2.028223 0.000000 0.000000 0.000000
0.887567 1.039348 2.098614 0.000000 0.000000 0.000000
0.884457 1.040217 2.123000 0.000000 0.000000 0.000000
0.862540 1.096029 1.970578 0.000000 0.000000 0.000000
0.903467 1.040631 2.113244 0.000000 0.000000 0.000000
0.902248 1.038218 2.102464 0.000000 0.000000 0.000000
0.906928 1.039831 2.108082 0.000000 0.000000 0.000000
0.901579 1.042711 2.117173 0.000000 0.000000 0.000000
0.884638 1.039918 2.112501 0.000000 0.000000 0.000000
0.871900 1.042082 2.067881 0.000000 0.000000 0.000000
0.911757 1.037517 2.090860 0.000000 0.000000 0.000000
0.867178 1.080555 1.992222 0.000000 0.000000 0.000000
0.828184 1.076606 1.883359 0.000000 0.000000 0.000000
0.914845 1.036349 2.072153 0.000000 0.000000 0.000000
0.895435 1.039350 2.100750 0.000000 0.000000 0.000000
0.901463 1.038677 2.100439 0.000000 0.000000 0.000000
0.699778 0.987980 2.024490 0.000000 0.000000 0.000000
0.859272 1.094910 1.965167 0.000000 0.000000 0.000000
0.903144 1.040818 2.113716 0.000000 0.000000 0.000000
0.906989 1.036243 2.082444 0.000000 0.000000 0.000000
0.897448 1.043880 2.121889 0.000000 0.000000 0.000000
0.878022 1.041242 2.123662 0.000000 0.000000 0.000000
0.831569 1.039956 2.054105 0.000000 0.000000 0.000000
0.904489 1.039831 2.109303 0.000000 0.000000 0.000000
0.896630 1.042314 2.121756 0.000000 0.000000 0.000000
0.882750 1.079462 1.997805 0.000000 0.000000 0.000000
0.917671 1.036048 2.082371 0.000000 0.000000 0.000000
0.785450 1.074398 1.878246 0.000000 0.000000 0.000000
0.770668 1.080150 1.866510 0.000000 0.000000 0.000000
0.809025 1.077652 1.868667 0.000000 0.000000 0.000000
0.675906 1.001640 2.009545 0.000000 0.000000 0.000000
0.861296 1.096812 1.966519 0.000000 0.000000 0.000000
0.763934 1.080581 1.862364 0.000000 0.000000 0.000000
0.861468 1.096774 1.964916 0.000000 0.000000 0.000000
0.779403 1.081792 1.869208 0.000000 0.000000 0.000000
0.766194 1.081721 1.859444 0.000000 0.000000 0.000000
0.861616 1.095314 1.967925 0.000000 0.000000 0.000000
0.909798 1.036366 2.056993 0.000000 0.000000 0.000000
0.792908 1.080793 1.864578 0.000000 0.000000 0.000000
0.791042 1.078901 1.868475 0.000000 0.000000 0.000000
0.800419 1.079116 1.867400 0.000000 0.000000 0.000000
0.864051 1.099381 1.965004 0.000000 0.000000 0.000000
0.910448 1.038598 2.046483 0.000000 0.000000 0.000000
0.787329 1.082832 1.866827 0.000000 0.000000 0.000000
0.835968 1.078504 1.906175 0.000000 0.000000 0.000000
0.730467 1.080303 1.875696 0.000000 0.000000 0.000000
0.688897 0.982457 2.026572 0.000000 0.000000 0.000000
0.895611 1.044564 2.125496 0.000000 0.000000 0.000000
0.889783 1.038066 2.115049 0.000000 0.000000 0.000000
0.722442 1.080393 1.881725 0.000000 0.000000 0.000000
0.879330 1.041159 2.115807 0.000000 0.000000 0.000000
0.885072 1.040709 2.123609 0.000000 0.000000 0.000000
0.840985 1.080921 1.921676 0.000000 0.000000 0.000000
0.886727 1.044811 2.126960 0.000000 0.000000 0.000000
0.673488 1.000776 2.011655 0.000000 0.000000 0.000000
0.671405 0.994736 2.018443 0.000000 0.000000 0.000000
0.681376 0.991754 2.020029 0.000000 0.000000 0.000000
0.843724 1.081799 1.908409 0.000000 0.000000 0.000000
0.897728 1.037103 2.103545 0.000000 0.000000 0.000000
0.897721 1.040563 2.114703 0.000000 0.000000 0.000000
0.746924 1.077351 1.904956 0.000000 0.000000 0.000000
0.760515 1.078619 1.902277 0.000000 0.000000 0.000000
0.754450 1.060886 1.932755 0.000000 0.000000 0.000000
0.754940 1.080766 1.887638 0.000000 0.000000 0.000000
0.892966 1.040142 2.113963 0.000000 0.000000 0.000000
0.787503 1.019258 2.139529 0.000000 0.000000 0.000000
0.828683 1.079793 1.886025 0.000000 0.000000 0.000000
0.680142 1.002083 2.014390 0.000000 0.000000 0.000000
0.751362 1.069908 1.917937 0.000000 0.000000 0.000000
0.677029 0.997025 2.014852 0.000000 0.000000 0.000000
0.826477 1.074952 1.912643 0.000000 0.000000 0.000000
0.888840 1.040794 2.120672 0.000000 0.000000 0.000000
0.872191 1.038824 2.124530 0.000000 0.000000 0.000000
0.745261 1.079894 1.894747 0.000000 0.000000 0.000000
0.759185 1.075321 1.912147 0.000000 0.000000 0.000000
0.749191 1.051595 1.948241 0.000000 0.000000 0.000000
0.772292 1.079291 1.887032 0.000000 0.000000 0.000000
0.891763 1.041686 2.125486 0.000000 0.000000 0.000000
0.780215 1.013695 2.133199 0.000000 0.000000 0.000000
0.842829 1.081051 1.899699 0.000000 0.000000 0.000000
0.678212 0.994805 2.019446 0.000000 0.000000 0.000000
0.691518 0.983823 2.029664 0.000000 0.000000 0.000000
0.704913 0.979962 2.037273 0.000000 0.000000 0.000000
0.683398 0.990758 2.021975 0.000000 0.000000 0.000000
0.699886 0.983043 2.031230 0.000000 0.000000 0.000000
0.660543 1.025320 1.992238 0.000000 0.000000 0.000000
0.662600 1.023435 1.992403 0.000000 0.000000 0.000000
0.711762 0.985359 2.039351 0.000000 0.000000 0.000000
0.658593 1.025376 1.989647 0.000000 0.000000 0.000000
0.879435 1.086011 1.993820 0.000000 0.000000 0.000000
0.848472 1.035413 2.145791 0.000000 0.000000 0.000000
0.863093 1.036249 2.129877 0.000000 0.000000 0.000000
0.874469 1.066780 2.009452 0.000000 0.000000 0.000000
0.661042 1.035651 1.976663 0.000000 0.000000 0.000000
0.790571 1.078388 1.889066 0.000000 0.000000 0.000000
0.879452 1.079309 1.998413 0.000000 0.000000 0.000000
0.878842 1.074808 2.003185 0.000000 0.000000 0.000000
0.678863 0.996827 2.017806 0.000000 0.000000 0.000000
0.892039 1.073064 2.010087 0.000000 0.000000 0.000000
0.652540 1.037983 1.983628 0.000000 0.000000 0.000000
0.902025 1.064688 2.017198 0.000000 0.000000 0.000000
0.890727 1.072137 2.011264 0.000000 0.000000 0.000000
0.759922 1.072436 1.904979 0.000000 0.000000 0.000000
0.659333 1.027780 1.990537 0.000000 0.000000 0.000000
0.689881 0.990310 2.026094 0.000000 0.000000 0.000000
0.659332 1.028260 1.986189 0.000000 0.000000 0.000000
0.876812 1.084844 1.992850 0.000000 0.000000 0.000000
0.862973 1.036898 2.148128 0.000000 0.000000 0.000000
0.881374 1.073807 2.004039 0.000000 0.000000 0.000000
0.664548 1.026516 1.988165 0.000000 0.000000 0.000000
0.761448 1.077504 1.892014 0.000000 0.000000 0.000000
0.886045 1.070758 2.007730 0.000000 0.000000 0.000000
0.878680 1.061247 2.012507 0.000000 0.000000 0.000000
0.675203 0.997995 2.015899 0.000000 0.000000 0.000000
0.853338 1.034707 2.151535 0.000000 0.000000 0.000000
0.657542 1.033768 1.983099 0.000000 0.000000 0.000000
0.894883 1.065218 2.015357 0.000000 0.000000 0.000000
0.890685 1.067641 2.013613 0.000000 0.000000 0.000000
0.767242 1.071946 1.907917 0.000000 0.000000 0.000000
0.889113 1.044213 2.130375 0.000000 0.000000 0.000000
0.885849 1.042338 2.129390 0.000000 0.000000 0.000000
0.878307 1.042343 2.129643 0.000000 0.000000 0.000000
0.897078 1.041853 2.122510 0.000000 0.000000 0.000000
0.714699 0.973490 2.052897 0.000000 0.000000 0.000000
0.764274 0.996603 2.116088 0.000000 0.000000 0.000000
0.757533 0.989648 2.104409 0.000000 0.000000 0.000000
0.883230 1.043862 2.133480 0.000000 0.000000 0.000000
0.866398 1.100685 1.964298 0.000000 0.000000 0.000000
0.874841 1.041632 2.121182 0.000000 0.000000 0.000000
0.675270 0.991540 2.020579 0.000000 0.000000 0.000000
0.824029 1.045049 2.004544 0.000000 0.000000 0.000000
0.839104 1.035457 2.042486 0.000000 0.000000 0.000000
0.833933 1.043312 2.014246 0.000000 0.000000 0.000000
0.834663 1.059717 1.996701 0.000000 0.000000 0.000000
0.775328 1.040780 1.974767 0.000000 0.000000 0.000000
0.871167 1.094156 1.982818 0.000000 0.000000 0.000000
0.842623 1.050537 2.008251 0.000000 0.000000 0.000000
0.843781 1.038436 2.036360 0.000000 0.000000 0.000000
0.815660 1.039283 2.015656 0.000000 0.000000 0.000000
0.802407 1.044257 1.989212 0.000000 0.000000 0.000000
0.839847 1.052034 2.004939 0.000000 0.000000 0.000000
0.872209 1.092823 1.987021 0.000000 0.000000 0.000000
0.759275 0.991866 2.109152 0.000000 0.000000 0.000000
