ply
format ascii 1.0
comment VCGLIB generated
obj_info Generated by SPFormer!
element vertex 884
property float x
property float y
property float z
property float nx
property float ny
property float nz
end_header
0.612387 0.764499 1.358873 0.000000 0.000000 0.000000
0.638396 0.771240 1.358715 0.000000 0.000000 0.000000
0.624284 0.775237 1.352091 0.000000 0.000000 0.000000
0.656433 0.778528 1.359028 0.000000 0.000000 0.000000
0.571321 0.822417 1.328864 0.000000 0.000000 0.000000
0.616991 0.824886 1.328453 0.000000 0.000000 0.000000
0.647758 0.792095 1.342957 0.000000 0.000000 0.000000
0.645757 0.783398 1.357355 0.000000 0.000000 0.000000
0.666839 0.782663 1.365769 0.000000 0.000000 0.000000
0.571178 0.798580 1.334195 0.000000 0.000000 0.000000
0.622608 0.791647 1.346683 0.000000 0.000000 0.000000
0.675092 0.768390 1.373681 0.000000 0.000000 0.000000
0.616684 0.804299 1.340591 0.000000 0.000000 0.000000
0.590749 0.822059 1.321889 0.000000 0.000000 0.000000
0.554091 0.833495 1.317737 0.000000 0.000000 0.000000
0.643482 0.814246 1.340882 0.000000 0.000000 0.000000
0.643931 0.816226 1.335182 0.000000 0.000000 0.000000
0.621292 0.834412 1.319694 0.000000 0.000000 0.000000
0.649437 0.824466 1.332108 0.000000 0.000000 0.000000
0.639331 0.776049 1.360610 0.000000 0.000000 0.000000
0.553469 0.833684 1.318222 0.000000 0.000000 0.000000
0.574369 0.825024 1.323533 0.000000 0.000000 0.000000
0.665796 0.814374 1.336424 0.000000 0.000000 0.000000
0.601643 0.839964 1.315338 0.000000 0.000000 0.000000
0.716218 0.790370 1.364652 0.000000 0.000000 0.000000
0.588847 0.813054 1.334689 0.000000 0.000000 0.000000
0.607216 0.823447 1.326365 0.000000 0.000000 0.000000
0.686214 0.807085 1.347056 0.000000 0.000000 0.000000
0.610134 0.766881 1.354736 0.000000 0.000000 0.000000
0.608355 0.792213 1.343587 0.000000 0.000000 0.000000
0.582282 0.801800 1.337497 0.000000 0.000000 0.000000
0.620654 0.780333 1.349991 0.000000 0.000000 0.000000
0.568417 0.839902 1.314059 0.000000 0.000000 0.000000
0.609449 0.820575 1.331520 0.000000 0.000000 0.000000
0.665779 0.812427 1.343819 0.000000 0.000000 0.000000
0.588066 0.792813 1.341330 0.000000 0.000000 0.000000
0.594269 0.767071 1.351600 0.000000 0.000000 0.000000
0.567524 0.838895 1.318732 0.000000 0.000000 0.000000
0.671574 0.808987 1.344425 0.000000 0.000000 0.000000
0.658352 0.810489 1.342364 0.000000 0.000000 0.000000
0.613351 0.768963 1.357777 0.000000 0.000000 0.000000
0.652562 0.769603 1.362940 0.000000 0.000000 0.000000
0.684954 0.783814 1.364991 0.000000 0.000000 0.000000
0.604621 0.830655 1.322832 0.000000 0.000000 0.000000
0.555348 0.840524 1.314420 0.000000 0.000000 0.000000
0.601951 0.787388 1.347562 0.000000 0.000000 0.000000
0.548326 0.833494 1.319731 0.000000 0.000000 0.000000
0.658268 0.818500 1.335691 0.000000 0.000000 0.000000
0.574979 0.827660 1.322150 0.000000 0.000000 0.000000
0.548084 0.826886 1.322973 0.000000 0.000000 0.000000
0.596455 0.833826 1.319672 0.000000 0.000000 0.000000
0.650502 0.812798 1.336763 0.000000 0.000000 0.000000
0.647018 0.775229 1.357906 0.000000 0.000000 0.000000
0.568768 0.842877 1.311436 0.000000 0.000000 0.000000
0.594829 0.847769 1.309458 0.000000 0.000000 0.000000
0.587692 0.842489 1.311590 0.000000 0.000000 0.000000
0.643681 0.822312 1.330973 0.000000 0.000000 0.000000
0.601407 0.775845 1.347610 0.000000 0.000000 0.000000
0.579072 0.833677 1.321841 0.000000 0.000000 0.000000
0.683718 0.809483 1.346962 0.000000 0.000000 0.000000
0.654380 0.815384 1.340055 0.000000 0.000000 0.000000
0.587679 0.836307 1.312791 0.000000 0.000000 0.000000
0.681673 0.799928 1.355764 0.000000 0.000000 0.000000
0.665557 0.783537 1.359516 0.000000 0.000000 0.000000
0.613872 0.797779 1.346259 0.000000 0.000000 0.000000
0.617760 0.799273 1.345691 0.000000 0.000000 0.000000
0.597510 0.795891 1.342504 0.000000 0.000000 0.000000
0.643688 0.800348 1.350287 0.000000 0.000000 0.000000
0.592685 0.813555 1.334409 0.000000 0.000000 0.000000
0.630206 0.815072 1.334917 0.000000 0.000000 0.000000
0.707058 0.799474 1.358195 0.000000 0.000000 0.000000
0.583399 0.796502 1.334447 0.000000 0.000000 0.000000
0.600623 0.785608 1.341431 0.000000 0.000000 0.000000
0.688035 0.804527 1.352265 0.000000 0.000000 0.000000
0.605891 0.845416 1.309180 0.000000 0.000000 0.000000
0.626486 0.812990 1.338357 0.000000 0.000000 0.000000
0.627523 0.797183 1.348201 0.000000 0.000000 0.000000
0.704630 0.792101 1.363604 0.000000 0.000000 0.000000
0.666790 0.808346 1.345744 0.000000 0.000000 0.000000
0.577584 0.793520 1.337320 0.000000 0.000000 0.000000
0.693900 0.771851 1.373218 0.000000 0.000000 0.000000
0.709350 0.790475 1.364996 0.000000 0.000000 0.000000
0.694898 0.791256 1.361675 0.000000 0.000000 0.000000
0.566909 0.827193 1.320603 0.000000 0.000000 0.000000
0.584365 0.778102 1.346619 0.000000 0.000000 0.000000
0.646550 0.795620 1.354203 0.000000 0.000000 0.000000
0.599333 0.783666 1.344416 0.000000 0.000000 0.000000
0.618966 0.808684 1.341765 0.000000 0.000000 0.000000
0.578738 0.822628 1.322830 0.000000 0.000000 0.000000
0.704949 0.798196 1.364339 0.000000 0.000000 0.000000
0.642133 0.840342 1.314134 0.000000 0.000000 0.000000
0.672806 0.763471 1.375988 0.000000 0.000000 0.000000
0.680887 0.779252 1.364256 0.000000 0.000000 0.000000
0.626973 0.799296 1.337340 0.000000 0.000000 0.000000
0.685922 0.818129 1.335435 0.000000 0.000000 0.000000
0.621395 0.830113 1.323229 0.000000 0.000000 0.000000
0.706092 0.792705 1.362801 0.000000 0.000000 0.000000
0.710110 0.789600 1.367541 0.000000 0.000000 0.000000
0.713043 0.790787 1.367095 0.000000 0.000000 0.000000
0.643411 0.781352 1.356573 0.000000 0.000000 0.000000
0.631266 0.778691 1.351906 0.000000 0.000000 0.000000
0.714499 0.798223 1.354281 0.000000 0.000000 0.000000
0.620247 0.761360 1.360898 0.000000 0.000000 0.000000
0.591350 0.807024 1.334068 0.000000 0.000000 0.000000
0.581059 0.832729 1.316011 0.000000 0.000000 0.000000
0.572123 0.810020 1.329172 0.000000 0.000000 0.000000
0.615217 0.783766 1.351186 0.000000 0.000000 0.000000
0.586246 0.809167 1.336679 0.000000 0.000000 0.000000
0.608039 0.788941 1.345578 0.000000 0.000000 0.000000
0.600983 0.770014 1.350935 0.000000 0.000000 0.000000
0.597633 0.798224 1.337662 0.000000 0.000000 0.000000
0.578649 0.811899 1.332353 0.000000 0.000000 0.000000
0.715598 0.794647 1.357478 0.000000 0.000000 0.000000
0.665596 0.822347 1.330471 0.000000 0.000000 0.000000
0.676523 0.805004 1.353065 0.000000 0.000000 0.000000
0.546817 0.836830 1.318551 0.000000 0.000000 0.000000
0.610342 0.777471 1.351031 0.000000 0.000000 0.000000
0.637528 0.786642 1.353499 0.000000 0.000000 0.000000
0.565922 0.809013 1.331926 0.000000 0.000000 0.000000
0.700495 0.806959 1.346741 0.000000 0.000000 0.000000
0.690171 0.779168 1.370931 0.000000 0.000000 0.000000
0.582926 0.831140 1.322081 0.000000 0.000000 0.000000
0.580776 0.827963 1.320533 0.000000 0.000000 0.000000
0.613448 0.832371 1.323831 0.000000 0.000000 0.000000
0.695210 0.794460 1.362488 0.000000 0.000000 0.000000
0.614561 0.833131 1.322172 0.000000 0.000000 0.000000
0.670110 0.798027 1.354085 0.000000 0.000000 0.000000
0.581920 0.840646 1.318065 0.000000 0.000000 0.000000
0.566065 0.830595 1.317702 0.000000 0.000000 0.000000
0.703806 0.786864 1.363174 0.000000 0.000000 0.000000
0.697758 0.784165 1.367240 0.000000 0.000000 0.000000
0.599626 0.770256 1.352324 0.000000 0.000000 0.000000
0.662776 0.771205 1.364595 0.000000 0.000000 0.000000
0.614232 0.761616 1.358426 0.000000 0.000000 0.000000
0.595097 0.836852 1.320276 0.000000 0.000000 0.000000
0.697208 0.792885 1.360895 0.000000 0.000000 0.000000
0.665528 0.801553 1.354419 0.000000 0.000000 0.000000
0.691828 0.799689 1.355125 0.000000 0.000000 0.000000
0.609862 0.831991 1.324071 0.000000 0.000000 0.000000
0.571808 0.832831 1.324060 0.000000 0.000000 0.000000
0.582297 0.810760 1.332758 0.000000 0.000000 0.000000
0.692089 0.810398 1.343309 0.000000 0.000000 0.000000
0.591713 0.834829 1.321246 0.000000 0.000000 0.000000
0.596168 0.841659 1.312588 0.000000 0.000000 0.000000
0.686949 0.769785 1.375184 0.000000 0.000000 0.000000
0.630762 0.763061 1.362070 0.000000 0.000000 0.000000
0.556550 0.833932 1.317936 0.000000 0.000000 0.000000
0.587222 0.779865 1.347706 0.000000 0.000000 0.000000
0.618182 0.800453 1.343111 0.000000 0.000000 0.000000
0.549460 0.826722 1.323287 0.000000 0.000000 0.000000
0.676318 0.809792 1.349139 0.000000 0.000000 0.000000
0.677637 0.813752 1.335823 0.000000 0.000000 0.000000
0.671512 0.824293 1.332188 0.000000 0.000000 0.000000
0.649795 0.821399 1.328366 0.000000 0.000000 0.000000
0.584405 0.789477 1.339628 0.000000 0.000000 0.000000
0.670401 0.766362 1.371816 0.000000 0.000000 0.000000
0.673062 0.822884 1.326852 0.000000 0.000000 0.000000
0.564314 0.834008 1.318412 0.000000 0.000000 0.000000
0.685961 0.767458 1.374898 0.000000 0.000000 0.000000
0.686550 0.780010 1.367387 0.000000 0.000000 0.000000
0.564714 0.799631 1.332692 0.000000 0.000000 0.000000
0.609746 0.834311 1.316594 0.000000 0.000000 0.000000
0.585025 0.845835 1.313776 0.000000 0.000000 0.000000
0.672030 0.812527 1.344291 0.000000 0.000000 0.000000
0.677633 0.787908 1.360564 0.000000 0.000000 0.000000
0.685598 0.788323 1.366360 0.000000 0.000000 0.000000
0.697161 0.806453 1.350412 0.000000 0.000000 0.000000
0.564543 0.796320 1.335564 0.000000 0.000000 0.000000
0.550037 0.816510 1.325977 0.000000 0.000000 0.000000
0.650549 0.771420 1.365172 0.000000 0.000000 0.000000
0.569036 0.826236 1.325829 0.000000 0.000000 0.000000
0.585211 0.789641 1.345575 0.000000 0.000000 0.000000
0.636335 0.768835 1.357706 0.000000 0.000000 0.000000
0.638748 0.821301 1.334446 0.000000 0.000000 0.000000
0.709226 0.789976 1.365883 0.000000 0.000000 0.000000
0.613369 0.777038 1.348185 0.000000 0.000000 0.000000
0.590020 0.794022 1.338513 0.000000 0.000000 0.000000
0.682448 0.792427 1.358908 0.000000 0.000000 0.000000
0.703646 0.808078 1.347983 0.000000 0.000000 0.000000
0.564543 0.817281 1.326369 0.000000 0.000000 0.000000
0.695845 0.780153 1.369374 0.000000 0.000000 0.000000
0.702219 0.797457 1.360158 0.000000 0.000000 0.000000
0.568525 0.822732 1.326531 0.000000 0.000000 0.000000
0.564288 0.840507 1.313370 0.000000 0.000000 0.000000
0.593400 0.777613 1.345224 0.000000 0.000000 0.000000
0.702528 0.782805 1.369907 0.000000 0.000000 0.000000
0.693478 0.796675 1.358389 0.000000 0.000000 0.000000
0.635506 0.769514 1.359442 0.000000 0.000000 0.000000
0.671243 0.763362 1.375201 0.000000 0.000000 0.000000
0.563449 0.830029 1.320467 0.000000 0.000000 0.000000
0.569050 0.839877 1.313411 0.000000 0.000000 0.000000
0.661717 0.770880 1.367492 0.000000 0.000000 0.000000
0.655434 0.835995 1.321665 0.000000 0.000000 0.000000
0.555855 0.832475 1.318376 0.000000 0.000000 0.000000
0.603936 0.813224 1.338612 0.000000 0.000000 0.000000
0.597701 0.779645 1.345535 0.000000 0.000000 0.000000
0.559134 0.833546 1.321512 0.000000 0.000000 0.000000
0.595412 0.795051 1.341404 0.000000 0.000000 0.000000
0.554845 0.814547 1.332114 0.000000 0.000000 0.000000
0.592130 0.846162 1.310080 0.000000 0.000000 0.000000
0.694284 0.812480 1.342012 0.000000 0.000000 0.000000
0.701787 0.808069 1.341690 0.000000 0.000000 0.000000
0.708159 0.797251 1.366321 0.000000 0.000000 0.000000
0.587782 0.784296 1.345190 0.000000 0.000000 0.000000
0.651109 0.773670 1.365473 0.000000 0.000000 0.000000
0.553080 0.834700 1.318532 0.000000 0.000000 0.000000
0.704640 0.791990 1.366285 0.000000 0.000000 0.000000
0.637943 0.832829 1.318254 0.000000 0.000000 0.000000
0.681364 0.764309 1.375386 0.000000 0.000000 0.000000
0.569051 0.835232 1.320370 0.000000 0.000000 0.000000
0.707577 0.800929 1.350538 0.000000 0.000000 0.000000
0.645413 0.784610 1.356550 0.000000 0.000000 0.000000
0.599424 0.840180 1.313020 0.000000 0.000000 0.000000
0.639673 0.766991 1.362237 0.000000 0.000000 0.000000
0.594659 0.843793 1.314661 0.000000 0.000000 0.000000
0.558701 0.801160 1.333784 0.000000 0.000000 0.000000
0.678781 0.812124 1.342450 0.000000 0.000000 0.000000
0.663729 0.825550 1.325276 0.000000 0.000000 0.000000
0.637973 0.760262 1.366556 0.000000 0.000000 0.000000
0.708310 0.792872 1.364646 0.000000 0.000000 0.000000
0.666345 0.779437 1.365369 0.000000 0.000000 0.000000
0.604731 0.792192 1.344618 0.000000 0.000000 0.000000
0.663013 0.819145 1.330442 0.000000 0.000000 0.000000
0.605341 0.762145 1.358461 0.000000 0.000000 0.000000
0.612253 0.834958 1.313607 0.000000 0.000000 0.000000
0.689875 0.815553 1.340906 0.000000 0.000000 0.000000
0.696998 0.801587 1.354023 0.000000 0.000000 0.000000
0.662341 0.822109 1.335226 0.000000 0.000000 0.000000
0.677556 0.824378 1.327917 0.000000 0.000000 0.000000
0.664081 0.821937 1.332700 0.000000 0.000000 0.000000
0.590823 0.841031 1.311047 0.000000 0.000000 0.000000
0.551302 0.828212 1.320133 0.000000 0.000000 0.000000
0.669646 0.821413 1.329561 0.000000 0.000000 0.000000
0.579763 0.833927 1.320453 0.000000 0.000000 0.000000
0.607897 0.840280 1.316316 0.000000 0.000000 0.000000
0.651955 0.762904 1.371246 0.000000 0.000000 0.000000
0.659306 0.771414 1.363878 0.000000 0.000000 0.000000
0.614897 0.770608 1.353094 0.000000 0.000000 0.000000
0.654721 0.832466 1.323387 0.000000 0.000000 0.000000
0.622520 0.832862 1.323672 0.000000 0.000000 0.000000
0.693630 0.808981 1.345500 0.000000 0.000000 0.000000
0.591114 0.839421 1.316984 0.000000 0.000000 0.000000
0.619768 0.766060 1.357971 0.000000 0.000000 0.000000
0.672192 0.820300 1.332125 0.000000 0.000000 0.000000
0.668862 0.815646 1.341408 0.000000 0.000000 0.000000
0.679892 0.775607 1.367109 0.000000 0.000000 0.000000
0.619871 0.834825 1.317079 0.000000 0.000000 0.000000
0.709361 0.784804 1.367058 0.000000 0.000000 0.000000
0.635369 0.775388 1.356634 0.000000 0.000000 0.000000
0.590821 0.783185 1.342072 0.000000 0.000000 0.000000
0.619678 0.828364 1.315304 0.000000 0.000000 0.000000
0.570145 0.787144 1.342151 0.000000 0.000000 0.000000
0.628423 0.760312 1.365345 0.000000 0.000000 0.000000
0.590270 0.785172 1.346997 0.000000 0.000000 0.000000
0.678544 0.800174 1.355608 0.000000 0.000000 0.000000
0.586477 0.797850 1.338935 0.000000 0.000000 0.000000
0.586526 0.842389 1.313418 0.000000 0.000000 0.000000
0.608029 0.767078 1.356862 0.000000 0.000000 0.000000
0.608008 0.775640 1.351898 0.000000 0.000000 0.000000
0.549814 0.819867 1.325338 0.000000 0.000000 0.000000
0.673070 0.765497 1.373279 0.000000 0.000000 0.000000
0.579801 0.799947 1.334800 0.000000 0.000000 0.000000
0.696841 0.779714 1.370665 0.000000 0.000000 0.000000
0.679001 0.786263 1.361541 0.000000 0.000000 0.000000
0.575355 0.809870 1.329716 0.000000 0.000000 0.000000
0.586584 0.823705 1.332882 0.000000 0.000000 0.000000
0.608265 0.800164 1.342039 0.000000 0.000000 0.000000
0.593784 0.807775 1.338230 0.000000 0.000000 0.000000
0.698561 0.782492 1.377926 0.000000 0.000000 0.000000
0.686990 0.768851 1.376673 0.000000 0.000000 0.000000
0.545629 0.832199 1.319533 0.000000 0.000000 0.000000
0.704507 0.792768 1.362345 0.000000 0.000000 0.000000
0.713442 0.798467 1.354972 0.000000 0.000000 0.000000
0.693389 0.803089 1.356030 0.000000 0.000000 0.000000
0.695811 0.818712 1.338403 0.000000 0.000000 0.000000
0.610400 0.841900 1.309548 0.000000 0.000000 0.000000
0.705716 0.801189 1.360843 0.000000 0.000000 0.000000
0.709993 0.795440 1.363167 0.000000 0.000000 0.000000
0.637568 0.825204 1.325118 0.000000 0.000000 0.000000
0.697580 0.810167 1.346680 0.000000 0.000000 0.000000
0.691238 0.816119 1.339565 0.000000 0.000000 0.000000
0.713907 0.798037 1.355223 0.000000 0.000000 0.000000
0.634200 0.831277 1.319296 0.000000 0.000000 0.000000
0.646067 0.763780 1.369265 0.000000 0.000000 0.000000
0.644784 0.810099 1.345303 0.000000 0.000000 0.000000
0.706590 0.797278 1.357622 0.000000 0.000000 0.000000
0.566722 0.796264 1.336174 0.000000 0.000000 0.000000
0.689268 0.774384 1.378226 0.000000 0.000000 0.000000
0.664216 0.770737 1.368304 0.000000 0.000000 0.000000
0.561851 0.798654 1.334760 0.000000 0.000000 0.000000
0.676561 0.775802 1.372889 0.000000 0.000000 0.000000
0.598431 0.839417 1.316868 0.000000 0.000000 0.000000
0.570179 0.802512 1.332483 0.000000 0.000000 0.000000
0.686969 0.783178 1.378802 0.000000 0.000000 0.000000
0.585111 0.773487 1.349030 0.000000 0.000000 0.000000
0.565587 0.842613 1.313332 0.000000 0.000000 0.000000
0.657891 0.767498 1.369601 0.000000 0.000000 0.000000
0.708240 0.798199 1.357931 0.000000 0.000000 0.000000
0.584188 0.839351 1.316314 0.000000 0.000000 0.000000
0.584423 0.772118 1.350614 0.000000 0.000000 0.000000
0.585597 0.834236 1.315727 0.000000 0.000000 0.000000
0.584137 0.803611 1.333928 0.000000 0.000000 0.000000
0.696121 0.794579 1.360599 0.000000 0.000000 0.000000
0.564547 0.794634 1.337032 0.000000 0.000000 0.000000
0.654679 0.829367 1.321784 0.000000 0.000000 0.000000
0.646654 0.832741 1.318683 0.000000 0.000000 0.000000
0.709491 0.802683 1.358798 0.000000 0.000000 0.000000
0.583339 0.808230 1.336104 0.000000 0.000000 0.000000
0.572323 0.807444 1.332927 0.000000 0.000000 0.000000
0.711761 0.794223 1.359206 0.000000 0.000000 0.000000
0.606117 0.767192 1.354837 0.000000 0.000000 0.000000
0.694616 0.816872 1.334735 0.000000 0.000000 0.000000
0.708148 0.794023 1.363795 0.000000 0.000000 0.000000
0.678263 0.823296 1.331084 0.000000 0.000000 0.000000
0.639263 0.834429 1.316295 0.000000 0.000000 0.000000
0.606537 0.762847 1.356723 0.000000 0.000000 0.000000
0.606937 0.831993 1.314852 0.000000 0.000000 0.000000
0.605418 0.768008 1.354155 0.000000 0.000000 0.000000
0.617147 0.827414 1.325227 0.000000 0.000000 0.000000
0.606909 0.765118 1.357260 0.000000 0.000000 0.000000
0.689250 0.796468 1.358420 0.000000 0.000000 0.000000
0.604966 0.832083 1.327009 0.000000 0.000000 0.000000
0.638041 0.828459 1.326385 0.000000 0.000000 0.000000
0.655910 0.804825 1.352033 0.000000 0.000000 0.000000
0.577751 0.797691 1.335644 0.000000 0.000000 0.000000
0.643931 0.823724 1.327847 0.000000 0.000000 0.000000
0.598673 0.788146 1.343603 0.000000 0.000000 0.000000
0.565334 0.802650 1.332951 0.000000 0.000000 0.000000
0.594200 0.827943 1.324027 0.000000 0.000000 0.000000
0.600855 0.765334 1.354700 0.000000 0.000000 0.000000
0.677685 0.790922 1.362466 0.000000 0.000000 0.000000
0.677288 0.781620 1.362058 0.000000 0.000000 0.000000
0.605801 0.826006 1.328634 0.000000 0.000000 0.000000
0.596536 0.821747 1.326578 0.000000 0.000000 0.000000
0.628638 0.832426 1.318079 0.000000 0.000000 0.000000
0.651726 0.830220 1.324543 0.000000 0.000000 0.000000
0.650662 0.839638 1.316073 0.000000 0.000000 0.000000
0.621151 0.828007 1.327263 0.000000 0.000000 0.000000
0.662010 0.807211 1.350675 0.000000 0.000000 0.000000
0.675013 0.800897 1.353614 0.000000 0.000000 0.000000
0.594549 0.832385 1.319952 0.000000 0.000000 0.000000
0.660515 0.812156 1.342528 0.000000 0.000000 0.000000
0.627629 0.810238 1.337640 0.000000 0.000000 0.000000
0.568300 0.814405 1.329896 0.000000 0.000000 0.000000
0.656465 0.823638 1.325339 0.000000 0.000000 0.000000
0.645769 0.815311 1.341317 0.000000 0.000000 0.000000
0.637013 0.833805 1.322392 0.000000 0.000000 0.000000
0.635144 0.830509 1.317290 0.000000 0.000000 0.000000
0.649962 0.827836 1.328658 0.000000 0.000000 0.000000
0.588582 0.806055 1.336622 0.000000 0.000000 0.000000
0.599861 0.770727 1.352056 0.000000 0.000000 0.000000
0.574016 0.841402 1.311945 0.000000 0.000000 0.000000
0.593645 0.843312 1.310182 0.000000 0.000000 0.000000
0.632053 0.843109 1.312298 0.000000 0.000000 0.000000
0.620973 0.762196 1.360662 0.000000 0.000000 0.000000
0.711849 0.806500 1.352246 0.000000 0.000000 0.000000
0.576833 0.844883 1.310710 0.000000 0.000000 0.000000
0.629119 0.829374 1.326031 0.000000 0.000000 0.000000
0.648837 0.823230 1.321434 0.000000 0.000000 0.000000
0.655894 0.763416 1.375809 0.000000 0.000000 0.000000
0.589706 0.821481 1.325674 0.000000 0.000000 0.000000
0.643657 0.773327 1.369150 0.000000 0.000000 0.000000
0.601819 0.774633 1.348083 0.000000 0.000000 0.000000
0.678435 0.779913 1.368926 0.000000 0.000000 0.000000
0.550635 0.814808 1.325830 0.000000 0.000000 0.000000
0.560378 0.819389 1.327646 0.000000 0.000000 0.000000
0.595599 0.829779 1.325395 0.000000 0.000000 0.000000
0.634240 0.836390 1.313169 0.000000 0.000000 0.000000
0.661031 0.832056 1.320728 0.000000 0.000000 0.000000
0.595366 0.845798 1.310227 0.000000 0.000000 0.000000
0.690890 0.814447 1.338465 0.000000 0.000000 0.000000
0.699332 0.804580 1.349324 0.000000 0.000000 0.000000
0.559565 0.807398 1.332896 0.000000 0.000000 0.000000
0.573775 0.787437 1.341117 0.000000 0.000000 0.000000
0.698006 0.805744 1.348457 0.000000 0.000000 0.000000
0.582739 0.833093 1.321477 0.000000 0.000000 0.000000
0.599948 0.765641 1.356317 0.000000 0.000000 0.000000
0.603458 0.765535 1.352838 0.000000 0.000000 0.000000
0.667687 0.832320 1.322063 0.000000 0.000000 0.000000
0.654547 0.771071 1.364684 0.000000 0.000000 0.000000
0.656717 0.829472 1.321433 0.000000 0.000000 0.000000
0.662921 0.782190 1.359753 0.000000 0.000000 0.000000
0.649191 0.782470 1.354469 0.000000 0.000000 0.000000
0.674643 0.766600 1.380316 0.000000 0.000000 0.000000
0.705702 0.808037 1.348592 0.000000 0.000000 0.000000
0.674553 0.819423 1.336891 0.000000 0.000000 0.000000
0.610240 0.761301 1.357535 0.000000 0.000000 0.000000
0.678744 0.816877 1.335776 0.000000 0.000000 0.000000
0.705106 0.807910 1.348093 0.000000 0.000000 0.000000
0.607606 0.763452 1.355542 0.000000 0.000000 0.000000
0.652883 0.837082 1.319002 0.000000 0.000000 0.000000
0.706777 0.807102 1.347864 0.000000 0.000000 0.000000
0.646834 0.761375 1.363689 0.000000 0.000000 0.000000
0.677352 0.811912 1.344247 0.000000 0.000000 0.000000
0.697830 0.815907 1.338416 0.000000 0.000000 0.000000
0.623033 0.765248 1.357523 0.000000 0.000000 0.000000
0.656905 0.782322 1.355015 0.000000 0.000000 0.000000
0.705116 0.788046 1.364211 0.000000 0.000000 0.000000
0.649644 0.779429 1.354371 0.000000 0.000000 0.000000
0.684531 0.815313 1.338363 0.000000 0.000000 0.000000
0.681919 0.811140 1.341247 0.000000 0.000000 0.000000
0.708990 0.799910 1.358081 0.000000 0.000000 0.000000
0.679774 0.822788 1.332374 0.000000 0.000000 0.000000
0.663769 0.813628 1.349295 0.000000 0.000000 0.000000
0.704337 0.797497 1.359157 0.000000 0.000000 0.000000
0.652624 0.834435 1.320237 0.000000 0.000000 0.000000
0.694758 0.787702 1.365190 0.000000 0.000000 0.000000
0.705342 0.780901 1.369689 0.000000 0.000000 0.000000
0.693751 0.778879 1.373896 0.000000 0.000000 0.000000
0.580531 0.841517 1.310590 0.000000 0.000000 0.000000
0.701980 0.790346 1.365764 0.000000 0.000000 0.000000
0.694743 0.780745 1.367361 0.000000 0.000000 0.000000
0.675465 0.815253 1.340702 0.000000 0.000000 0.000000
0.661506 0.821270 1.334810 0.000000 0.000000 0.000000
0.640181 0.832324 1.321519 0.000000 0.000000 0.000000
0.662742 0.765757 1.372530 0.000000 0.000000 0.000000
0.602497 0.768299 1.350005 0.000000 0.000000 0.000000
0.651727 0.820751 1.329730 0.000000 0.000000 0.000000
0.667303 0.830765 1.324192 0.000000 0.000000 0.000000
0.709544 0.784271 1.368824 0.000000 0.000000 0.000000
0.656726 0.824715 1.322486 0.000000 0.000000 0.000000
0.604797 0.779993 1.348234 0.000000 0.000000 0.000000
0.601302 0.769483 1.357379 0.000000 0.000000 0.000000
0.569951 0.790658 1.339247 0.000000 0.000000 0.000000
0.636361 0.760667 1.366663 0.000000 0.000000 0.000000
0.645510 0.766428 1.366016 0.000000 0.000000 0.000000
0.551099 0.815102 1.327060 0.000000 0.000000 0.000000
0.657197 0.782743 1.359107 0.000000 0.000000 0.000000
0.648143 0.762161 1.374495 0.000000 0.000000 0.000000
0.666011 0.824136 1.332999 0.000000 0.000000 0.000000
0.685351 0.825374 1.330181 0.000000 0.000000 0.000000
0.555266 0.835052 1.316762 0.000000 0.000000 0.000000
0.605485 0.838530 1.310478 0.000000 0.000000 0.000000
0.585787 0.807132 1.333023 0.000000 0.000000 0.000000
0.698760 0.814525 1.341390 0.000000 0.000000 0.000000
0.670324 0.826703 1.326280 0.000000 0.000000 0.000000
0.664522 0.833340 1.322793 0.000000 0.000000 0.000000
0.644437 0.813920 1.352288 0.000000 0.000000 0.000000
0.602288 0.764128 1.355350 0.000000 0.000000 0.000000
0.658565 0.820950 1.334528 0.000000 0.000000 0.000000
0.668612 0.794177 1.363308 0.000000 0.000000 0.000000
0.579479 0.814776 1.332269 0.000000 0.000000 0.000000
0.556231 0.812186 1.327124 0.000000 0.000000 0.000000
0.555814 0.812853 1.330131 0.000000 0.000000 0.000000
0.594682 0.839231 1.314184 0.000000 0.000000 0.000000
0.555335 0.810333 1.330179 0.000000 0.000000 0.000000
0.561276 0.811507 1.329703 0.000000 0.000000 0.000000
0.552071 0.820150 1.323084 0.000000 0.000000 0.000000
0.649898 0.760484 1.373763 0.000000 0.000000 0.000000
0.644854 0.761473 1.370299 0.000000 0.000000 0.000000
0.593061 0.768805 1.352693 0.000000 0.000000 0.000000
0.648503 0.760365 1.372451 0.000000 0.000000 0.000000
0.627126 0.775859 1.355657 0.000000 0.000000 0.000000
0.631945 0.764514 1.361766 0.000000 0.000000 0.000000
0.591433 0.788047 1.343936 0.000000 0.000000 0.000000
0.575284 0.790667 1.340973 0.000000 0.000000 0.000000
0.585587 0.847745 1.309439 0.000000 0.000000 0.000000
0.545587 0.831211 1.322217 0.000000 0.000000 0.000000
0.577742 0.784190 1.342667 0.000000 0.000000 0.000000
0.665668 0.829631 1.322966 0.000000 0.000000 0.000000
0.546770 0.820693 1.325910 0.000000 0.000000 0.000000
0.637940 0.766086 1.366807 0.000000 0.000000 0.000000
0.557794 0.809343 1.328040 0.000000 0.000000 0.000000
0.570549 0.789184 1.341332 0.000000 0.000000 0.000000
0.601725 0.765478 1.353892 0.000000 0.000000 0.000000
0.560333 0.830881 1.318493 0.000000 0.000000 0.000000
0.549590 0.819775 1.324906 0.000000 0.000000 0.000000
0.546818 0.832056 1.321792 0.000000 0.000000 0.000000
0.560106 0.838095 1.315515 0.000000 0.000000 0.000000
0.552985 0.835853 1.317249 0.000000 0.000000 0.000000
0.621159 0.761584 1.364731 0.000000 0.000000 0.000000
0.571893 0.819946 1.328249 0.000000 0.000000 0.000000
0.661156 0.816958 1.340282 0.000000 0.000000 0.000000
0.656044 0.766317 1.370855 0.000000 0.000000 0.000000
0.654416 0.839320 1.316121 0.000000 0.000000 0.000000
0.677022 0.827114 1.325719 0.000000 0.000000 0.000000
0.546801 0.832202 1.321680 0.000000 0.000000 0.000000
0.618782 0.770746 1.357819 0.000000 0.000000 0.000000
0.617983 0.831182 1.321091 0.000000 0.000000 0.000000
0.597526 0.822884 1.335299 0.000000 0.000000 0.000000
0.692581 0.793207 1.367787 0.000000 0.000000 0.000000
0.573483 0.817231 1.327735 0.000000 0.000000 0.000000
0.634408 0.814461 1.345566 0.000000 0.000000 0.000000
0.558153 0.829937 1.316779 0.000000 0.000000 0.000000
0.678511 0.762570 1.373797 0.000000 0.000000 0.000000
0.562649 0.818519 1.325482 0.000000 0.000000 0.000000
0.556304 0.803203 1.332257 0.000000 0.000000 0.000000
0.679045 0.767362 1.373200 0.000000 0.000000 0.000000
0.654081 0.787259 1.358111 0.000000 0.000000 0.000000
0.667729 0.807026 1.352419 0.000000 0.000000 0.000000
0.667356 0.765786 1.375142 0.000000 0.000000 0.000000
0.659288 0.766497 1.370795 0.000000 0.000000 0.000000
0.661488 0.798729 1.358593 0.000000 0.000000 0.000000
0.682072 0.765555 1.376027 0.000000 0.000000 0.000000
0.626724 0.779198 1.353805 0.000000 0.000000 0.000000
0.659477 0.807286 1.344620 0.000000 0.000000 0.000000
0.671382 0.768790 1.373063 0.000000 0.000000 0.000000
0.591202 0.782238 1.344631 0.000000 0.000000 0.000000
0.672102 0.801178 1.360941 0.000000 0.000000 0.000000
0.665302 0.761824 1.375999 0.000000 0.000000 0.000000
0.713193 0.787577 1.365038 0.000000 0.000000 0.000000
0.561713 0.837132 1.316086 0.000000 0.000000 0.000000
0.553243 0.809482 1.329023 0.000000 0.000000 0.000000
0.709435 0.792682 1.366208 0.000000 0.000000 0.000000
0.625841 0.838397 1.312107 0.000000 0.000000 0.000000
0.671728 0.831431 1.323538 0.000000 0.000000 0.000000
0.557168 0.803580 1.332602 0.000000 0.000000 0.000000
0.555051 0.814186 1.327616 0.000000 0.000000 0.000000
0.656218 0.825629 1.323569 0.000000 0.000000 0.000000
0.586313 0.776723 1.346634 0.000000 0.000000 0.000000
0.560959 0.839419 1.313976 0.000000 0.000000 0.000000
0.610012 0.766854 1.355388 0.000000 0.000000 0.000000
0.643246 0.760283 1.370744 0.000000 0.000000 0.000000
0.552663 0.838924 1.318133 0.000000 0.000000 0.000000
0.627495 0.848279 1.306237 0.000000 0.000000 0.000000
0.571954 0.786692 1.341157 0.000000 0.000000 0.000000
0.683350 0.827226 1.326859 0.000000 0.000000 0.000000
0.626343 0.833437 1.320648 0.000000 0.000000 0.000000
0.658729 0.772059 1.363531 0.000000 0.000000 0.000000
0.629944 0.834391 1.319967 0.000000 0.000000 0.000000
0.634215 0.817274 1.344338 0.000000 0.000000 0.000000
0.637968 0.817015 1.333563 0.000000 0.000000 0.000000
0.635454 0.808804 1.344895 0.000000 0.000000 0.000000
0.618157 0.809687 1.332394 0.000000 0.000000 0.000000
0.579130 0.845509 1.309009 0.000000 0.000000 0.000000
0.550122 0.823501 1.321486 0.000000 0.000000 0.000000
0.714497 0.781778 1.368950 0.000000 0.000000 0.000000
0.718941 0.793787 1.362248 0.000000 0.000000 0.000000
0.629046 0.766458 1.359374 0.000000 0.000000 0.000000
0.703467 0.783206 1.369274 0.000000 0.000000 0.000000
0.568347 0.819137 1.326527 0.000000 0.000000 0.000000
0.621914 0.766974 1.358051 0.000000 0.000000 0.000000
0.701886 0.791678 1.376415 0.000000 0.000000 0.000000
0.655159 0.824807 1.325149 0.000000 0.000000 0.000000
0.548004 0.830225 1.321532 0.000000 0.000000 0.000000
0.550312 0.826179 1.320845 0.000000 0.000000 0.000000
0.603776 0.770158 1.354287 0.000000 0.000000 0.000000
0.551480 0.826643 1.322949 0.000000 0.000000 0.000000
0.638601 0.843969 1.310943 0.000000 0.000000 0.000000
0.656905 0.836881 1.319088 0.000000 0.000000 0.000000
0.671567 0.818827 1.328665 0.000000 0.000000 0.000000
0.673316 0.831082 1.324559 0.000000 0.000000 0.000000
0.613131 0.765031 1.354969 0.000000 0.000000 0.000000
0.557408 0.815703 1.326450 0.000000 0.000000 0.000000
0.594985 0.771365 1.351290 0.000000 0.000000 0.000000
0.554297 0.816209 1.327061 0.000000 0.000000 0.000000
0.646363 0.842130 1.313471 0.000000 0.000000 0.000000
0.677029 0.825612 1.327509 0.000000 0.000000 0.000000
0.676255 0.830703 1.327683 0.000000 0.000000 0.000000
0.669932 0.829352 1.324963 0.000000 0.000000 0.000000
0.546911 0.820454 1.326820 0.000000 0.000000 0.000000
0.665661 0.824115 1.323786 0.000000 0.000000 0.000000
0.671312 0.828145 1.324703 0.000000 0.000000 0.000000
0.554507 0.800953 1.336047 0.000000 0.000000 0.000000
0.550191 0.830490 1.315673 0.000000 0.000000 0.000000
0.558894 0.808230 1.327419 0.000000 0.000000 0.000000
0.677137 0.783544 1.379291 0.000000 0.000000 0.000000
0.547129 0.837026 1.320585 0.000000 0.000000 0.000000
0.545295 0.832604 1.321020 0.000000 0.000000 0.000000
0.611203 0.763384 1.357144 0.000000 0.000000 0.000000
0.700494 0.818192 1.338680 0.000000 0.000000 0.000000
0.692575 0.806747 1.348480 0.000000 0.000000 0.000000
0.572228 0.786244 1.341155 0.000000 0.000000 0.000000
0.712474 0.787543 1.367111 0.000000 0.000000 0.000000
0.628813 0.761416 1.363835 0.000000 0.000000 0.000000
0.624810 0.842178 1.313403 0.000000 0.000000 0.000000
0.714772 0.794948 1.360483 0.000000 0.000000 0.000000
0.686350 0.768411 1.375415 0.000000 0.000000 0.000000
0.560286 0.839370 1.314596 0.000000 0.000000 0.000000
0.564767 0.802181 1.332201 0.000000 0.000000 0.000000
0.563291 0.837637 1.315180 0.000000 0.000000 0.000000
0.589419 0.843488 1.311111 0.000000 0.000000 0.000000
0.558098 0.839203 1.314695 0.000000 0.000000 0.000000
0.688692 0.824833 1.331281 0.000000 0.000000 0.000000
0.582132 0.841095 1.311402 0.000000 0.000000 0.000000
0.571453 0.836859 1.316176 0.000000 0.000000 0.000000
0.574510 0.842226 1.318829 0.000000 0.000000 0.000000
0.579036 0.843534 1.310739 0.000000 0.000000 0.000000
0.604705 0.757389 1.357932 0.000000 0.000000 0.000000
0.689695 0.824299 1.331607 0.000000 0.000000 0.000000
0.554478 0.841531 1.312963 0.000000 0.000000 0.000000
0.694425 0.781322 1.368549 0.000000 0.000000 0.000000
0.666922 0.764119 1.374384 0.000000 0.000000 0.000000
0.672423 0.824950 1.330079 0.000000 0.000000 0.000000
0.585186 0.777451 1.347306 0.000000 0.000000 0.000000
0.555836 0.832784 1.317828 0.000000 0.000000 0.000000
0.679223 0.820243 1.332926 0.000000 0.000000 0.000000
0.642365 0.843336 1.310583 0.000000 0.000000 0.000000
0.569165 0.788010 1.341563 0.000000 0.000000 0.000000
0.677871 0.804147 1.358852 0.000000 0.000000 0.000000
0.642138 0.838793 1.313426 0.000000 0.000000 0.000000
0.646088 0.843548 1.312373 0.000000 0.000000 0.000000
0.669338 0.830210 1.322312 0.000000 0.000000 0.000000
0.561812 0.796267 1.334907 0.000000 0.000000 0.000000
0.707202 0.818684 1.341808 0.000000 0.000000 0.000000
0.644809 0.764552 1.366665 0.000000 0.000000 0.000000
0.620577 0.761545 1.361029 0.000000 0.000000 0.000000
0.637838 0.772355 1.365811 0.000000 0.000000 0.000000
0.662196 0.764750 1.372749 0.000000 0.000000 0.000000
0.549170 0.834459 1.320029 0.000000 0.000000 0.000000
0.688034 0.818943 1.332406 0.000000 0.000000 0.000000
0.547363 0.840269 1.313477 0.000000 0.000000 0.000000
0.692631 0.814056 1.341440 0.000000 0.000000 0.000000
0.711481 0.808249 1.345415 0.000000 0.000000 0.000000
0.691817 0.818585 1.334162 0.000000 0.000000 0.000000
0.553349 0.835309 1.318677 0.000000 0.000000 0.000000
0.705417 0.811807 1.343996 0.000000 0.000000 0.000000
0.547753 0.822371 1.325265 0.000000 0.000000 0.000000
0.546273 0.832782 1.322497 0.000000 0.000000 0.000000
0.702401 0.814451 1.341121 0.000000 0.000000 0.000000
0.691910 0.817302 1.335009 0.000000 0.000000 0.000000
0.696018 0.818991 1.336788 0.000000 0.000000 0.000000
0.671243 0.822096 1.333677 0.000000 0.000000 0.000000
0.554916 0.840927 1.312312 0.000000 0.000000 0.000000
0.558044 0.807768 1.329817 0.000000 0.000000 0.000000
0.666794 0.822485 1.334176 0.000000 0.000000 0.000000
0.692724 0.803452 1.351530 0.000000 0.000000 0.000000
0.585133 0.847994 1.307655 0.000000 0.000000 0.000000
0.702405 0.807152 1.347654 0.000000 0.000000 0.000000
0.635863 0.840688 1.313450 0.000000 0.000000 0.000000
0.644369 0.840340 1.312829 0.000000 0.000000 0.000000
0.650489 0.829775 1.320247 0.000000 0.000000 0.000000
0.563688 0.823865 1.325832 0.000000 0.000000 0.000000
0.678640 0.827793 1.327153 0.000000 0.000000 0.000000
0.685899 0.811555 1.345467 0.000000 0.000000 0.000000
0.586804 0.846950 1.307443 0.000000 0.000000 0.000000
0.668879 0.829933 1.325090 0.000000 0.000000 0.000000
0.700466 0.815576 1.339666 0.000000 0.000000 0.000000
0.659603 0.824475 1.323234 0.000000 0.000000 0.000000
0.707135 0.810004 1.346502 0.000000 0.000000 0.000000
0.685969 0.823725 1.334345 0.000000 0.000000 0.000000
0.548497 0.827959 1.321922 0.000000 0.000000 0.000000
0.551124 0.812531 1.328433 0.000000 0.000000 0.000000
0.689407 0.815220 1.339109 0.000000 0.000000 0.000000
0.552042 0.833978 1.318081 0.000000 0.000000 0.000000
0.674391 0.763418 1.374337 0.000000 0.000000 0.000000
0.687413 0.821185 1.332458 0.000000 0.000000 0.000000
0.572562 0.788586 1.340706 0.000000 0.000000 0.000000
0.645059 0.762699 1.369141 0.000000 0.000000 0.000000
0.653162 0.775790 1.361599 0.000000 0.000000 0.000000
0.648043 0.760832 1.371511 0.000000 0.000000 0.000000
0.645293 0.764673 1.368636 0.000000 0.000000 0.000000
0.620129 0.821051 1.336490 0.000000 0.000000 0.000000
0.640031 0.760196 1.369433 0.000000 0.000000 0.000000
0.646670 0.782406 1.362338 0.000000 0.000000 0.000000
0.617416 0.763434 1.360034 0.000000 0.000000 0.000000
0.620842 0.824578 1.332316 0.000000 0.000000 0.000000
0.655355 0.760411 1.373867 0.000000 0.000000 0.000000
0.587798 0.841376 1.313020 0.000000 0.000000 0.000000
0.676645 0.771564 1.370231 0.000000 0.000000 0.000000
0.669573 0.834271 1.324638 0.000000 0.000000 0.000000
0.673214 0.764762 1.373226 0.000000 0.000000 0.000000
0.582175 0.777107 1.344260 0.000000 0.000000 0.000000
0.571360 0.779697 1.343324 0.000000 0.000000 0.000000
0.601237 0.795089 1.344870 0.000000 0.000000 0.000000
0.594922 0.781237 1.349404 0.000000 0.000000 0.000000
0.667479 0.826611 1.323582 0.000000 0.000000 0.000000
0.608190 0.790396 1.348411 0.000000 0.000000 0.000000
0.677634 0.826179 1.326921 0.000000 0.000000 0.000000
0.589285 0.844759 1.308546 0.000000 0.000000 0.000000
0.571971 0.838083 1.315685 0.000000 0.000000 0.000000
0.674880 0.767674 1.373099 0.000000 0.000000 0.000000
0.634237 0.815595 1.326749 0.000000 0.000000 0.000000
0.614404 0.844985 1.309057 0.000000 0.000000 0.000000
0.598855 0.828548 1.318273 0.000000 0.000000 0.000000
0.567857 0.835850 1.318305 0.000000 0.000000 0.000000
0.648744 0.807615 1.340667 0.000000 0.000000 0.000000
0.563745 0.841062 1.312796 0.000000 0.000000 0.000000
0.574345 0.838090 1.313686 0.000000 0.000000 0.000000
0.574594 0.834169 1.317630 0.000000 0.000000 0.000000
0.542537 0.826390 1.319092 0.000000 0.000000 0.000000
0.686260 0.769181 1.375487 0.000000 0.000000 0.000000
0.614249 0.760950 1.359673 0.000000 0.000000 0.000000
0.708261 0.801681 1.355310 0.000000 0.000000 0.000000
0.674043 0.774715 1.365160 0.000000 0.000000 0.000000
0.581037 0.846824 1.309514 0.000000 0.000000 0.000000
0.711102 0.803760 1.355841 0.000000 0.000000 0.000000
0.663562 0.770038 1.368809 0.000000 0.000000 0.000000
0.576204 0.843773 1.310275 0.000000 0.000000 0.000000
0.712382 0.792473 1.369869 0.000000 0.000000 0.000000
0.708349 0.802299 1.346278 0.000000 0.000000 0.000000
0.694705 0.788091 1.377572 0.000000 0.000000 0.000000
0.711139 0.790202 1.370929 0.000000 0.000000 0.000000
0.708810 0.805473 1.353925 0.000000 0.000000 0.000000
0.683744 0.821160 1.333111 0.000000 0.000000 0.000000
0.570715 0.846933 1.305538 0.000000 0.000000 0.000000
0.557446 0.838681 1.315173 0.000000 0.000000 0.000000
0.716810 0.789363 1.362961 0.000000 0.000000 0.000000
0.639892 0.760821 1.368224 0.000000 0.000000 0.000000
0.704028 0.807052 1.351222 0.000000 0.000000 0.000000
0.704554 0.806511 1.348195 0.000000 0.000000 0.000000
0.696383 0.777884 1.371523 0.000000 0.000000 0.000000
0.565046 0.840380 1.313403 0.000000 0.000000 0.000000
0.708200 0.806484 1.348925 0.000000 0.000000 0.000000
0.569655 0.843994 1.310133 0.000000 0.000000 0.000000
0.542885 0.839119 1.317141 0.000000 0.000000 0.000000
0.688690 0.775081 1.372076 0.000000 0.000000 0.000000
0.599856 0.761758 1.354233 0.000000 0.000000 0.000000
0.549915 0.811587 1.329636 0.000000 0.000000 0.000000
0.598400 0.845320 1.312539 0.000000 0.000000 0.000000
0.622086 0.764112 1.359509 0.000000 0.000000 0.000000
0.588282 0.847556 1.307468 0.000000 0.000000 0.000000
0.563821 0.845255 1.309969 0.000000 0.000000 0.000000
0.612123 0.843148 1.311144 0.000000 0.000000 0.000000
0.592485 0.765409 1.355396 0.000000 0.000000 0.000000
0.589059 0.771400 1.348260 0.000000 0.000000 0.000000
0.586665 0.769960 1.350441 0.000000 0.000000 0.000000
0.565159 0.792144 1.337755 0.000000 0.000000 0.000000
0.698826 0.779779 1.372771 0.000000 0.000000 0.000000
0.608523 0.849332 1.306526 0.000000 0.000000 0.000000
0.712610 0.788050 1.365770 0.000000 0.000000 0.000000
0.649884 0.766806 1.370150 0.000000 0.000000 0.000000
0.678527 0.767506 1.377849 0.000000 0.000000 0.000000
0.705550 0.783236 1.366549 0.000000 0.000000 0.000000
0.646303 0.841092 1.314175 0.000000 0.000000 0.000000
0.667672 0.767310 1.370604 0.000000 0.000000 0.000000
0.667390 0.762747 1.377356 0.000000 0.000000 0.000000
0.582904 0.773388 1.348922 0.000000 0.000000 0.000000
0.597094 0.764108 1.351664 0.000000 0.000000 0.000000
0.603208 0.845362 1.309709 0.000000 0.000000 0.000000
0.691612 0.775604 1.375611 0.000000 0.000000 0.000000
0.719642 0.793165 1.360088 0.000000 0.000000 0.000000
0.678051 0.764809 1.376046 0.000000 0.000000 0.000000
0.568443 0.842365 1.312054 0.000000 0.000000 0.000000
0.559680 0.800807 1.333243 0.000000 0.000000 0.000000
0.618252 0.850169 1.305146 0.000000 0.000000 0.000000
0.570548 0.788342 1.340573 0.000000 0.000000 0.000000
0.578542 0.844398 1.311153 0.000000 0.000000 0.000000
0.596993 0.845505 1.309630 0.000000 0.000000 0.000000
0.644530 0.838819 1.313415 0.000000 0.000000 0.000000
0.604125 0.776116 1.354304 0.000000 0.000000 0.000000
0.663873 0.834612 1.320731 0.000000 0.000000 0.000000
0.593127 0.764977 1.350991 0.000000 0.000000 0.000000
0.710299 0.786752 1.366484 0.000000 0.000000 0.000000
0.609102 0.772173 1.349522 0.000000 0.000000 0.000000
0.651239 0.828384 1.318196 0.000000 0.000000 0.000000
0.697541 0.813769 1.341621 0.000000 0.000000 0.000000
0.657341 0.825222 1.324168 0.000000 0.000000 0.000000
0.597182 0.771260 1.348377 0.000000 0.000000 0.000000
0.663439 0.819958 1.336635 0.000000 0.000000 0.000000
0.632431 0.843444 1.311209 0.000000 0.000000 0.000000
0.659701 0.806763 1.355686 0.000000 0.000000 0.000000
0.702633 0.814189 1.342683 0.000000 0.000000 0.000000
0.575991 0.836691 1.318503 0.000000 0.000000 0.000000
0.626514 0.842522 1.309762 0.000000 0.000000 0.000000
0.555983 0.837643 1.316149 0.000000 0.000000 0.000000
0.588286 0.771811 1.349178 0.000000 0.000000 0.000000
0.601862 0.845369 1.309039 0.000000 0.000000 0.000000
0.625889 0.841336 1.310014 0.000000 0.000000 0.000000
0.649303 0.842947 1.315065 0.000000 0.000000 0.000000
0.607120 0.843387 1.310055 0.000000 0.000000 0.000000
0.569246 0.846330 1.308535 0.000000 0.000000 0.000000
0.630758 0.841507 1.310330 0.000000 0.000000 0.000000
0.548230 0.829404 1.322257 0.000000 0.000000 0.000000
0.545759 0.836492 1.321116 0.000000 0.000000 0.000000
0.687200 0.819889 1.333226 0.000000 0.000000 0.000000
0.693752 0.821562 1.332728 0.000000 0.000000 0.000000
0.562099 0.802646 1.331130 0.000000 0.000000 0.000000
0.674638 0.766817 1.377071 0.000000 0.000000 0.000000
0.580849 0.774264 1.349576 0.000000 0.000000 0.000000
0.684867 0.821057 1.334535 0.000000 0.000000 0.000000
0.645581 0.837984 1.312590 0.000000 0.000000 0.000000
0.630125 0.766688 1.362509 0.000000 0.000000 0.000000
0.695890 0.821379 1.334903 0.000000 0.000000 0.000000
0.697855 0.819176 1.336381 0.000000 0.000000 0.000000
0.575353 0.838810 1.315688 0.000000 0.000000 0.000000
0.603246 0.760013 1.361857 0.000000 0.000000 0.000000
0.561542 0.839824 1.313834 0.000000 0.000000 0.000000
0.668884 0.833080 1.325389 0.000000 0.000000 0.000000
0.634348 0.761781 1.367495 0.000000 0.000000 0.000000
0.694815 0.822308 1.335141 0.000000 0.000000 0.000000
0.678141 0.823673 1.329284 0.000000 0.000000 0.000000
0.673594 0.824145 1.326777 0.000000 0.000000 0.000000
0.570948 0.840742 1.314078 0.000000 0.000000 0.000000
0.588390 0.766847 1.352375 0.000000 0.000000 0.000000
0.563558 0.841403 1.313556 0.000000 0.000000 0.000000
0.557474 0.826834 1.322152 0.000000 0.000000 0.000000
0.605741 0.847164 1.305722 0.000000 0.000000 0.000000
0.635708 0.768067 1.364317 0.000000 0.000000 0.000000
0.575785 0.777191 1.348178 0.000000 0.000000 0.000000
0.560546 0.812016 1.327977 0.000000 0.000000 0.000000
0.572854 0.839716 1.311949 0.000000 0.000000 0.000000
0.554707 0.833202 1.318347 0.000000 0.000000 0.000000
0.565953 0.799835 1.334556 0.000000 0.000000 0.000000
0.609800 0.809403 1.338340 0.000000 0.000000 0.000000
0.605814 0.848826 1.305483 0.000000 0.000000 0.000000
0.587039 0.774809 1.348168 0.000000 0.000000 0.000000
0.606203 0.849113 1.306029 0.000000 0.000000 0.000000
0.579216 0.778521 1.346449 0.000000 0.000000 0.000000
0.706927 0.784040 1.367606 0.000000 0.000000 0.000000
0.554658 0.810074 1.328974 0.000000 0.000000 0.000000
0.698556 0.779579 1.369810 0.000000 0.000000 0.000000
0.698382 0.779052 1.372047 0.000000 0.000000 0.000000
0.695138 0.781918 1.373737 0.000000 0.000000 0.000000
0.547832 0.815873 1.327434 0.000000 0.000000 0.000000
0.544340 0.825256 1.324281 0.000000 0.000000 0.000000
0.546685 0.833777 1.320596 0.000000 0.000000 0.000000
0.545395 0.828006 1.324856 0.000000 0.000000 0.000000
0.665364 0.831270 1.322831 0.000000 0.000000 0.000000
0.689724 0.772604 1.375100 0.000000 0.000000 0.000000
0.577146 0.797567 1.336345 0.000000 0.000000 0.000000
0.549465 0.814577 1.327245 0.000000 0.000000 0.000000
0.556354 0.813986 1.326197 0.000000 0.000000 0.000000
0.593018 0.847661 1.307476 0.000000 0.000000 0.000000
0.660888 0.835550 1.318231 0.000000 0.000000 0.000000
0.683598 0.773690 1.371528 0.000000 0.000000 0.000000
0.556950 0.823900 1.322946 0.000000 0.000000 0.000000
0.553030 0.811449 1.326504 0.000000 0.000000 0.000000
0.593484 0.846380 1.306397 0.000000 0.000000 0.000000
0.657244 0.811469 1.350832 0.000000 0.000000 0.000000
0.550746 0.812086 1.328559 0.000000 0.000000 0.000000
0.546842 0.826787 1.322849 0.000000 0.000000 0.000000
0.597278 0.764067 1.355673 0.000000 0.000000 0.000000
0.554950 0.814487 1.326977 0.000000 0.000000 0.000000
0.561008 0.832429 1.318212 0.000000 0.000000 0.000000
0.560811 0.817215 1.327198 0.000000 0.000000 0.000000
0.576173 0.844235 1.309527 0.000000 0.000000 0.000000
0.566653 0.793219 1.338786 0.000000 0.000000 0.000000
0.586449 0.795248 1.337399 0.000000 0.000000 0.000000
0.682509 0.828276 1.329367 0.000000 0.000000 0.000000
0.575149 0.791935 1.334092 0.000000 0.000000 0.000000
0.688188 0.823873 1.331485 0.000000 0.000000 0.000000
0.609764 0.762604 1.361264 0.000000 0.000000 0.000000
0.640322 0.761086 1.371282 0.000000 0.000000 0.000000
0.689554 0.823612 1.330254 0.000000 0.000000 0.000000
0.685899 0.822797 1.330271 0.000000 0.000000 0.000000
0.549785 0.825180 1.320086 0.000000 0.000000 0.000000
0.682978 0.824618 1.329184 0.000000 0.000000 0.000000
0.611527 0.815959 1.338377 0.000000 0.000000 0.000000
0.646876 0.838483 1.314390 0.000000 0.000000 0.000000
0.614128 0.819644 1.339363 0.000000 0.000000 0.000000
0.633416 0.807849 1.345276 0.000000 0.000000 0.000000
0.657230 0.834180 1.318708 0.000000 0.000000 0.000000
0.608944 0.821761 1.338047 0.000000 0.000000 0.000000
0.556780 0.817768 1.323332 0.000000 0.000000 0.000000
0.550557 0.818399 1.325580 0.000000 0.000000 0.000000
0.551297 0.813616 1.329297 0.000000 0.000000 0.000000
0.548056 0.828589 1.322573 0.000000 0.000000 0.000000
0.550908 0.816934 1.325266 0.000000 0.000000 0.000000
0.547478 0.812393 1.331874 0.000000 0.000000 0.000000
0.610580 0.760850 1.356655 0.000000 0.000000 0.000000
0.579690 0.845536 1.309344 0.000000 0.000000 0.000000
0.703568 0.814820 1.340524 0.000000 0.000000 0.000000
0.564836 0.842591 1.311510 0.000000 0.000000 0.000000
0.717110 0.797108 1.355959 0.000000 0.000000 0.000000
0.590093 0.772468 1.346901 0.000000 0.000000 0.000000
0.570346 0.844481 1.310496 0.000000 0.000000 0.000000
0.715581 0.795154 1.360337 0.000000 0.000000 0.000000
0.543623 0.836136 1.320193 0.000000 0.000000 0.000000
0.717798 0.786231 1.367938 0.000000 0.000000 0.000000
0.599965 0.761884 1.355988 0.000000 0.000000 0.000000
0.620025 0.849210 1.303742 0.000000 0.000000 0.000000
0.552403 0.841649 1.309546 0.000000 0.000000 0.000000
0.706937 0.812413 1.343439 0.000000 0.000000 0.000000
0.615348 0.848304 1.303791 0.000000 0.000000 0.000000
0.706999 0.811491 1.344986 0.000000 0.000000 0.000000
0.616757 0.839406 1.312219 0.000000 0.000000 0.000000
0.577981 0.845346 1.309888 0.000000 0.000000 0.000000
0.628737 0.839759 1.310525 0.000000 0.000000 0.000000
0.551646 0.812819 1.328974 0.000000 0.000000 0.000000
0.596334 0.846709 1.307436 0.000000 0.000000 0.000000
0.627425 0.838161 1.312942 0.000000 0.000000 0.000000
0.621183 0.837074 1.313737 0.000000 0.000000 0.000000
0.630724 0.838373 1.316447 0.000000 0.000000 0.000000
0.613496 0.843434 1.311722 0.000000 0.000000 0.000000
0.671680 0.827619 1.326883 0.000000 0.000000 0.000000
0.617199 0.844841 1.309266 0.000000 0.000000 0.000000
0.616366 0.848269 1.305827 0.000000 0.000000 0.000000
0.606444 0.846240 1.309372 0.000000 0.000000 0.000000
0.610132 0.843737 1.309603 0.000000 0.000000 0.000000
0.606129 0.848704 1.306695 0.000000 0.000000 0.000000
0.600393 0.843260 1.313403 0.000000 0.000000 0.000000
0.600273 0.844644 1.306660 0.000000 0.000000 0.000000
0.607006 0.838495 1.317878 0.000000 0.000000 0.000000
0.628063 0.832098 1.316664 0.000000 0.000000 0.000000
0.618414 0.840189 1.315145 0.000000 0.000000 0.000000
0.613491 0.838387 1.313105 0.000000 0.000000 0.000000
0.623571 0.841593 1.311835 0.000000 0.000000 0.000000
0.646180 0.838462 1.318342 0.000000 0.000000 0.000000
0.609555 0.849357 1.306787 0.000000 0.000000 0.000000
0.605517 0.844949 1.310892 0.000000 0.000000 0.000000
0.594955 0.846275 1.309202 0.000000 0.000000 0.000000
0.605019 0.846885 1.307607 0.000000 0.000000 0.000000
0.614853 0.838362 1.318086 0.000000 0.000000 0.000000
