ply
format ascii 1.0
comment VCGLIB generated
obj_info Generated by SPFormer!
element vertex 884
property float x
property float y
property float z
property float nx
property float ny
property float nz
end_header
1.021083 0.447606 1.227848 0.000000 0.000000 0.000000
1.024413 0.428662 1.241240 0.000000 0.000000 0.000000
1.054143 0.436512 1.249739 0.000000 0.000000 0.000000
0.917008 0.272198 1.477596 0.000000 0.000000 0.000000
1.067490 0.331666 1.375962 0.000000 0.000000 0.000000
0.803008 0.326232 1.428999 0.000000 0.000000 0.000000
1.070866 0.343642 1.359161 0.000000 0.000000 0.000000
0.808522 0.316035 1.443050 0.000000 0.000000 0.000000
1.068534 0.425809 1.259905 0.000000 0.000000 0.000000
1.021560 0.448370 1.225189 0.000000 0.000000 0.000000
1.037314 0.432230 1.244424 0.000000 0.000000 0.000000
1.027772 0.302141 1.419349 0.000000 0.000000 0.000000
0.915673 0.271682 1.478461 0.000000 0.000000 0.000000
0.820903 0.310793 1.450814 0.000000 0.000000 0.000000
0.994716 0.454888 1.224765 0.000000 0.000000 0.000000
1.020098 0.438709 1.229661 0.000000 0.000000 0.000000
1.014650 0.448716 1.225260 0.000000 0.000000 0.000000
0.831134 0.300016 1.449906 0.000000 0.000000 0.000000
0.984187 0.275057 1.444304 0.000000 0.000000 0.000000
0.963544 0.279027 1.442912 0.000000 0.000000 0.000000
0.779550 0.368102 1.366572 0.000000 0.000000 0.000000
1.017970 0.435645 1.233937 0.000000 0.000000 0.000000
1.050411 0.431475 1.246136 0.000000 0.000000 0.000000
0.784708 0.377485 1.352371 0.000000 0.000000 0.000000
0.783373 0.359499 1.378789 0.000000 0.000000 0.000000
1.023172 0.444631 1.228163 0.000000 0.000000 0.000000
0.807833 0.456154 1.276954 0.000000 0.000000 0.000000
1.031467 0.443619 1.233711 0.000000 0.000000 0.000000
0.924694 0.429796 1.253812 0.000000 0.000000 0.000000
0.935196 0.276878 1.444199 0.000000 0.000000 0.000000
0.834496 0.387199 1.324319 0.000000 0.000000 0.000000
0.951955 0.350006 1.339363 0.000000 0.000000 0.000000
0.932722 0.372196 1.319229 0.000000 0.000000 0.000000
0.933825 0.263658 1.475232 0.000000 0.000000 0.000000
0.883953 0.371503 1.371339 0.000000 0.000000 0.000000
0.916632 0.339211 1.357681 0.000000 0.000000 0.000000
1.034086 0.359636 1.351495 0.000000 0.000000 0.000000
0.864602 0.441202 1.262892 0.000000 0.000000 0.000000
0.869547 0.303052 1.420106 0.000000 0.000000 0.000000
0.867283 0.310572 1.408634 0.000000 0.000000 0.000000
0.899773 0.328893 1.369381 0.000000 0.000000 0.000000
0.984549 0.383665 1.325761 0.000000 0.000000 0.000000
0.963780 0.415500 1.255602 0.000000 0.000000 0.000000
0.873697 0.321110 1.387656 0.000000 0.000000 0.000000
0.798975 0.402959 1.321132 0.000000 0.000000 0.000000
0.994144 0.403103 1.285550 0.000000 0.000000 0.000000
0.963881 0.357162 1.332422 0.000000 0.000000 0.000000
0.784439 0.381143 1.350595 0.000000 0.000000 0.000000
1.069940 0.360343 1.343139 0.000000 0.000000 0.000000
1.063287 0.319369 1.390864 0.000000 0.000000 0.000000
0.911474 0.436640 1.249241 0.000000 0.000000 0.000000
0.823865 0.402077 1.314386 0.000000 0.000000 0.000000
0.944703 0.441076 1.235837 0.000000 0.000000 0.000000
0.964552 0.385585 1.310449 0.000000 0.000000 0.000000
0.927558 0.269383 1.460587 0.000000 0.000000 0.000000
1.085386 0.348388 1.360299 0.000000 0.000000 0.000000
0.935091 0.394185 1.286045 0.000000 0.000000 0.000000
0.979988 0.387637 1.303840 0.000000 0.000000 0.000000
0.853428 0.333465 1.376336 0.000000 0.000000 0.000000
0.927878 0.317681 1.385782 0.000000 0.000000 0.000000
0.914760 0.431851 1.250911 0.000000 0.000000 0.000000
0.876059 0.331986 1.370697 0.000000 0.000000 0.000000
0.913764 0.361711 1.324402 0.000000 0.000000 0.000000
1.027488 0.375550 1.332028 0.000000 0.000000 0.000000
0.936488 0.437437 1.240354 0.000000 0.000000 0.000000
0.983612 0.396303 1.295653 0.000000 0.000000 0.000000
0.953462 0.328466 1.366874 0.000000 0.000000 0.000000
0.824606 0.379880 1.334080 0.000000 0.000000 0.000000
0.983174 0.276311 1.447603 0.000000 0.000000 0.000000
1.086990 0.375637 1.324166 0.000000 0.000000 0.000000
1.081325 0.388402 1.307583 0.000000 0.000000 0.000000
0.988551 0.352853 1.341537 0.000000 0.000000 0.000000
0.835875 0.296133 1.458982 0.000000 0.000000 0.000000
0.856299 0.374542 1.327863 0.000000 0.000000 0.000000
0.908245 0.370930 1.306742 0.000000 0.000000 0.000000
0.916804 0.364697 1.326132 0.000000 0.000000 0.000000
1.079517 0.358390 1.346032 0.000000 0.000000 0.000000
1.052214 0.333915 1.375579 0.000000 0.000000 0.000000
0.776641 0.371536 1.363659 0.000000 0.000000 0.000000
0.878539 0.468969 1.241031 0.000000 0.000000 0.000000
1.063896 0.324329 1.390767 0.000000 0.000000 0.000000
1.071026 0.327951 1.374536 0.000000 0.000000 0.000000
0.987792 0.372974 1.327994 0.000000 0.000000 0.000000
0.908972 0.392698 1.296155 0.000000 0.000000 0.000000
0.901577 0.314583 1.390878 0.000000 0.000000 0.000000
0.836058 0.376374 1.333755 0.000000 0.000000 0.000000
0.864421 0.461699 1.237228 0.000000 0.000000 0.000000
1.077100 0.337371 1.375760 0.000000 0.000000 0.000000
0.876371 0.463317 1.233606 0.000000 0.000000 0.000000
0.940489 0.265958 1.472991 0.000000 0.000000 0.000000
0.805635 0.364350 1.357664 0.000000 0.000000 0.000000
0.963986 0.455411 1.218686 0.000000 0.000000 0.000000
0.946899 0.264512 1.468940 0.000000 0.000000 0.000000
0.862350 0.454508 1.262474 0.000000 0.000000 0.000000
0.897513 0.270332 1.474790 0.000000 0.000000 0.000000
0.886056 0.457324 1.239618 0.000000 0.000000 0.000000
0.901354 0.283342 1.466208 0.000000 0.000000 0.000000
0.792743 0.395032 1.331473 0.000000 0.000000 0.000000
0.943480 0.445531 1.228423 0.000000 0.000000 0.000000
0.898653 0.451843 1.233708 0.000000 0.000000 0.000000
1.077554 0.402207 1.292834 0.000000 0.000000 0.000000
0.821237 0.466187 1.273845 0.000000 0.000000 0.000000
0.773733 0.391573 1.349495 0.000000 0.000000 0.000000
0.938761 0.263601 1.470446 0.000000 0.000000 0.000000
0.952878 0.461216 1.223655 0.000000 0.000000 0.000000
0.906607 0.270025 1.472366 0.000000 0.000000 0.000000
0.977326 0.274533 1.445958 0.000000 0.000000 0.000000
0.902674 0.270221 1.470326 0.000000 0.000000 0.000000
0.783259 0.361991 1.369164 0.000000 0.000000 0.000000
0.891877 0.439419 1.256235 0.000000 0.000000 0.000000
0.935272 0.267803 1.475012 0.000000 0.000000 0.000000
0.885160 0.452886 1.250164 0.000000 0.000000 0.000000
1.082180 0.380816 1.316718 0.000000 0.000000 0.000000
0.782356 0.384796 1.353822 0.000000 0.000000 0.000000
0.973189 0.455976 1.221628 0.000000 0.000000 0.000000
1.006449 0.451998 1.218703 0.000000 0.000000 0.000000
0.775285 0.376179 1.367586 0.000000 0.000000 0.000000
1.079925 0.361850 1.340783 0.000000 0.000000 0.000000
0.915581 0.284124 1.459692 0.000000 0.000000 0.000000
0.929602 0.348983 1.356751 0.000000 0.000000 0.000000
0.912414 0.418174 1.266200 0.000000 0.000000 0.000000
0.772936 0.379676 1.357346 0.000000 0.000000 0.000000
1.072340 0.364549 1.339088 0.000000 0.000000 0.000000
1.059940 0.429124 1.252236 0.000000 0.000000 0.000000
0.911680 0.284619 1.469269 0.000000 0.000000 0.000000
1.072858 0.390376 1.306973 0.000000 0.000000 0.000000
1.079983 0.356344 1.348128 0.000000 0.000000 0.000000
1.070511 0.406384 1.290842 0.000000 0.000000 0.000000
0.897682 0.411024 1.315300 0.000000 0.000000 0.000000
1.075906 0.384972 1.312694 0.000000 0.000000 0.000000
1.068094 0.383470 1.315827 0.000000 0.000000 0.000000
0.882051 0.353544 1.342332 0.000000 0.000000 0.000000
0.895757 0.368721 1.325345 0.000000 0.000000 0.000000
0.901703 0.352745 1.340987 0.000000 0.000000 0.000000
0.867363 0.352759 1.348973 0.000000 0.000000 0.000000
0.880449 0.401479 1.294067 0.000000 0.000000 0.000000
1.075014 0.378980 1.316952 0.000000 0.000000 0.000000
0.878223 0.388384 1.306479 0.000000 0.000000 0.000000
0.926804 0.383490 1.299820 0.000000 0.000000 0.000000
0.909904 0.356863 1.337322 0.000000 0.000000 0.000000
0.822791 0.346577 1.374246 0.000000 0.000000 0.000000
0.808403 0.397642 1.326586 0.000000 0.000000 0.000000
0.940993 0.351493 1.334810 0.000000 0.000000 0.000000
0.940272 0.359784 1.325195 0.000000 0.000000 0.000000
0.837126 0.412780 1.299432 0.000000 0.000000 0.000000
1.060315 0.383824 1.314805 0.000000 0.000000 0.000000
0.889051 0.360113 1.339269 0.000000 0.000000 0.000000
0.888090 0.337862 1.363489 0.000000 0.000000 0.000000
0.872561 0.368995 1.331626 0.000000 0.000000 0.000000
0.916112 0.345894 1.345860 0.000000 0.000000 0.000000
0.863090 0.380910 1.319440 0.000000 0.000000 0.000000
1.081450 0.386036 1.311118 0.000000 0.000000 0.000000
0.831066 0.336502 1.390331 0.000000 0.000000 0.000000
0.862966 0.395175 1.306267 0.000000 0.000000 0.000000
0.939772 0.464508 1.218195 0.000000 0.000000 0.000000
0.903189 0.396646 1.288244 0.000000 0.000000 0.000000
0.949457 0.376519 1.311169 0.000000 0.000000 0.000000
0.978160 0.363855 1.328026 0.000000 0.000000 0.000000
0.860374 0.390575 1.309995 0.000000 0.000000 0.000000
0.808674 0.408623 1.321086 0.000000 0.000000 0.000000
0.894330 0.344038 1.351031 0.000000 0.000000 0.000000
0.955515 0.374307 1.332674 0.000000 0.000000 0.000000
1.080982 0.399296 1.294678 0.000000 0.000000 0.000000
0.941217 0.458487 1.223525 0.000000 0.000000 0.000000
0.950066 0.465139 1.217811 0.000000 0.000000 0.000000
0.868718 0.279168 1.470393 0.000000 0.000000 0.000000
1.000968 0.455252 1.221826 0.000000 0.000000 0.000000
1.083448 0.370076 1.325766 0.000000 0.000000 0.000000
0.962517 0.281258 1.433387 0.000000 0.000000 0.000000
0.965308 0.287656 1.425260 0.000000 0.000000 0.000000
0.999055 0.284247 1.436994 0.000000 0.000000 0.000000
0.949770 0.265685 1.472201 0.000000 0.000000 0.000000
0.929535 0.273363 1.452366 0.000000 0.000000 0.000000
1.083707 0.349806 1.355749 0.000000 0.000000 0.000000
1.083957 0.350065 1.350649 0.000000 0.000000 0.000000
0.798214 0.327818 1.431410 0.000000 0.000000 0.000000
0.777678 0.381075 1.352922 0.000000 0.000000 0.000000
0.799196 0.328053 1.430913 0.000000 0.000000 0.000000
1.077856 0.336256 1.372710 0.000000 0.000000 0.000000
1.066282 0.328523 1.381824 0.000000 0.000000 0.000000
0.838722 0.294158 1.467695 0.000000 0.000000 0.000000
1.072736 0.338867 1.370921 0.000000 0.000000 0.000000
0.966507 0.281161 1.434186 0.000000 0.000000 0.000000
0.953898 0.271371 1.452966 0.000000 0.000000 0.000000
1.079652 0.337388 1.370611 0.000000 0.000000 0.000000
0.943680 0.285854 1.427747 0.000000 0.000000 0.000000
0.969150 0.281033 1.434710 0.000000 0.000000 0.000000
0.981979 0.282308 1.429842 0.000000 0.000000 0.000000
0.983113 0.284189 1.432408 0.000000 0.000000 0.000000
1.059858 0.424859 1.260307 0.000000 0.000000 0.000000
0.908776 0.269310 1.474556 0.000000 0.000000 0.000000
0.928587 0.282693 1.435423 0.000000 0.000000 0.000000
0.800478 0.331112 1.425706 0.000000 0.000000 0.000000
0.990558 0.436970 1.237267 0.000000 0.000000 0.000000
0.857733 0.283338 1.475299 0.000000 0.000000 0.000000
1.070764 0.336467 1.369903 0.000000 0.000000 0.000000
0.950438 0.277997 1.440040 0.000000 0.000000 0.000000
1.076157 0.334440 1.375670 0.000000 0.000000 0.000000
1.085313 0.364374 1.339439 0.000000 0.000000 0.000000
0.873528 0.277851 1.473799 0.000000 0.000000 0.000000
0.774469 0.391630 1.345297 0.000000 0.000000 0.000000
1.086392 0.373410 1.323615 0.000000 0.000000 0.000000
0.862952 0.283068 1.465475 0.000000 0.000000 0.000000
0.992019 0.309947 1.391506 0.000000 0.000000 0.000000
1.076473 0.346121 1.359543 0.000000 0.000000 0.000000
1.084657 0.388423 1.310184 0.000000 0.000000 0.000000
1.079566 0.402709 1.290011 0.000000 0.000000 0.000000
0.884305 0.274594 1.474111 0.000000 0.000000 0.000000
1.071966 0.397477 1.296957 0.000000 0.000000 0.000000
1.082880 0.394573 1.301068 0.000000 0.000000 0.000000
1.075251 0.420954 1.268440 0.000000 0.000000 0.000000
1.060644 0.315505 1.398284 0.000000 0.000000 0.000000
1.032688 0.442991 1.230965 0.000000 0.000000 0.000000
1.072168 0.423812 1.268531 0.000000 0.000000 0.000000
0.787302 0.357976 1.389047 0.000000 0.000000 0.000000
1.004959 0.296350 1.412950 0.000000 0.000000 0.000000
1.006483 0.450551 1.223039 0.000000 0.000000 0.000000
0.785107 0.359742 1.376030 0.000000 0.000000 0.000000
1.027124 0.445921 1.228315 0.000000 0.000000 0.000000
0.782043 0.359245 1.381307 0.000000 0.000000 0.000000
0.995563 0.456579 1.221233 0.000000 0.000000 0.000000
1.008207 0.294211 1.416560 0.000000 0.000000 0.000000
1.026676 0.298613 1.419553 0.000000 0.000000 0.000000
0.976717 0.268504 1.456964 0.000000 0.000000 0.000000
1.013014 0.444592 1.225781 0.000000 0.000000 0.000000
0.986568 0.273987 1.451477 0.000000 0.000000 0.000000
0.968515 0.273194 1.448847 0.000000 0.000000 0.000000
1.080457 0.402910 1.289454 0.000000 0.000000 0.000000
0.958849 0.268221 1.454335 0.000000 0.000000 0.000000
0.932774 0.462698 1.221896 0.000000 0.000000 0.000000
0.961358 0.461308 1.219046 0.000000 0.000000 0.000000
1.090220 0.351762 1.355244 0.000000 0.000000 0.000000
1.070429 0.375949 1.319989 0.000000 0.000000 0.000000
0.807983 0.340466 1.415999 0.000000 0.000000 0.000000
1.092882 0.371756 1.330892 0.000000 0.000000 0.000000
1.036718 0.443195 1.237018 0.000000 0.000000 0.000000
1.050110 0.311855 1.397456 0.000000 0.000000 0.000000
0.844863 0.460319 1.256485 0.000000 0.000000 0.000000
0.975304 0.385965 1.320150 0.000000 0.000000 0.000000
0.822662 0.456160 1.271755 0.000000 0.000000 0.000000
1.087076 0.367872 1.333366 0.000000 0.000000 0.000000
1.022614 0.447494 1.229919 0.000000 0.000000 0.000000
0.994186 0.274972 1.447267 0.000000 0.000000 0.000000
0.799761 0.326939 1.435172 0.000000 0.000000 0.000000
0.995754 0.455517 1.221413 0.000000 0.000000 0.000000
0.997691 0.455461 1.221148 0.000000 0.000000 0.000000
1.004532 0.450849 1.222181 0.000000 0.000000 0.000000
0.943951 0.269920 1.470538 0.000000 0.000000 0.000000
1.078509 0.377492 1.317845 0.000000 0.000000 0.000000
0.928054 0.453618 1.224580 0.000000 0.000000 0.000000
0.960930 0.461604 1.221480 0.000000 0.000000 0.000000
0.774345 0.399777 1.339500 0.000000 0.000000 0.000000
0.818242 0.329722 1.431871 0.000000 0.000000 0.000000
0.812571 0.431965 1.311216 0.000000 0.000000 0.000000
0.887641 0.299511 1.454297 0.000000 0.000000 0.000000
0.942327 0.463505 1.220526 0.000000 0.000000 0.000000
1.081313 0.388687 1.305846 0.000000 0.000000 0.000000
1.000996 0.281115 1.444668 0.000000 0.000000 0.000000
0.796917 0.329518 1.428077 0.000000 0.000000 0.000000
1.085496 0.379578 1.314336 0.000000 0.000000 0.000000
1.064586 0.398161 1.303890 0.000000 0.000000 0.000000
0.818189 0.326693 1.412632 0.000000 0.000000 0.000000
0.802181 0.327800 1.413379 0.000000 0.000000 0.000000
0.850495 0.286347 1.473366 0.000000 0.000000 0.000000
0.821010 0.304261 1.460355 0.000000 0.000000 0.000000
0.794183 0.399440 1.342985 0.000000 0.000000 0.000000
0.936344 0.274094 1.465944 0.000000 0.000000 0.000000
0.934097 0.461756 1.220680 0.000000 0.000000 0.000000
0.918150 0.461320 1.223225 0.000000 0.000000 0.000000
0.899926 0.278767 1.475317 0.000000 0.000000 0.000000
0.920194 0.270696 1.478477 0.000000 0.000000 0.000000
0.922860 0.462644 1.222514 0.000000 0.000000 0.000000
0.964150 0.458560 1.222779 0.000000 0.000000 0.000000
1.031560 0.446377 1.231430 0.000000 0.000000 0.000000
1.090144 0.367771 1.331892 0.000000 0.000000 0.000000
0.780421 0.390994 1.340697 0.000000 0.000000 0.000000
0.775972 0.384292 1.345172 0.000000 0.000000 0.000000
1.088731 0.379859 1.315506 0.000000 0.000000 0.000000
1.091680 0.363862 1.343449 0.000000 0.000000 0.000000
0.922212 0.463154 1.218662 0.000000 0.000000 0.000000
0.927661 0.461958 1.218012 0.000000 0.000000 0.000000
0.927537 0.267538 1.476424 0.000000 0.000000 0.000000
0.945279 0.461517 1.219506 0.000000 0.000000 0.000000
1.078218 0.377535 1.319982 0.000000 0.000000 0.000000
0.876608 0.463703 1.235104 0.000000 0.000000 0.000000
0.991728 0.458609 1.217989 0.000000 0.000000 0.000000
0.875896 0.459511 1.247174 0.000000 0.000000 0.000000
0.967568 0.264515 1.465706 0.000000 0.000000 0.000000
0.996234 0.456525 1.218400 0.000000 0.000000 0.000000
0.886179 0.461822 1.241027 0.000000 0.000000 0.000000
1.072464 0.412194 1.275393 0.000000 0.000000 0.000000
1.015976 0.293150 1.421301 0.000000 0.000000 0.000000
1.007594 0.291396 1.421135 0.000000 0.000000 0.000000
0.820186 0.303887 1.459291 0.000000 0.000000 0.000000
1.031827 0.298291 1.413191 0.000000 0.000000 0.000000
1.014519 0.287110 1.429447 0.000000 0.000000 0.000000
0.825327 0.307471 1.449628 0.000000 0.000000 0.000000
1.067683 0.425903 1.263359 0.000000 0.000000 0.000000
1.069704 0.428718 1.260737 0.000000 0.000000 0.000000
0.926123 0.462970 1.220776 0.000000 0.000000 0.000000
1.081562 0.399984 1.291702 0.000000 0.000000 0.000000
1.037576 0.303597 1.410700 0.000000 0.000000 0.000000
1.063265 0.316609 1.395624 0.000000 0.000000 0.000000
1.023805 0.289910 1.420620 0.000000 0.000000 0.000000
1.024781 0.290975 1.421757 0.000000 0.000000 0.000000
0.768221 0.378463 1.362578 0.000000 0.000000 0.000000
1.061038 0.432554 1.250317 0.000000 0.000000 0.000000
1.021494 0.298166 1.417299 0.000000 0.000000 0.000000
1.016181 0.301627 1.405810 0.000000 0.000000 0.000000
1.012728 0.288596 1.428984 0.000000 0.000000 0.000000
0.807386 0.478196 1.280863 0.000000 0.000000 0.000000
0.766674 0.378205 1.363926 0.000000 0.000000 0.000000
0.995003 0.457760 1.219400 0.000000 0.000000 0.000000
1.060057 0.395955 1.307487 0.000000 0.000000 0.000000
1.090389 0.360298 1.343556 0.000000 0.000000 0.000000
1.090503 0.375495 1.321983 0.000000 0.000000 0.000000
1.089906 0.371558 1.326691 0.000000 0.000000 0.000000
1.089468 0.376218 1.323767 0.000000 0.000000 0.000000
1.058169 0.309563 1.397944 0.000000 0.000000 0.000000
1.090554 0.364730 1.331540 0.000000 0.000000 0.000000
0.902063 0.269682 1.478705 0.000000 0.000000 0.000000
1.090869 0.351560 1.355412 0.000000 0.000000 0.000000
1.094317 0.367695 1.339075 0.000000 0.000000 0.000000
0.889508 0.276173 1.475655 0.000000 0.000000 0.000000
0.854657 0.285667 1.471451 0.000000 0.000000 0.000000
1.086160 0.363416 1.336511 0.000000 0.000000 0.000000
0.856079 0.285221 1.470037 0.000000 0.000000 0.000000
0.869625 0.284272 1.476267 0.000000 0.000000 0.000000
0.982743 0.272476 1.456606 0.000000 0.000000 0.000000
0.988193 0.278022 1.448937 0.000000 0.000000 0.000000
0.986483 0.272651 1.454282 0.000000 0.000000 0.000000
1.003429 0.288684 1.425400 0.000000 0.000000 0.000000
0.968462 0.274876 1.443690 0.000000 0.000000 0.000000
1.078361 0.337205 1.377582 0.000000 0.000000 0.000000
1.081541 0.397835 1.296376 0.000000 0.000000 0.000000
0.852027 0.284423 1.475832 0.000000 0.000000 0.000000
0.809337 0.440478 1.292784 0.000000 0.000000 0.000000
0.809700 0.465269 1.281816 0.000000 0.000000 0.000000
0.814266 0.463694 1.277946 0.000000 0.000000 0.000000
0.972699 0.343617 1.345563 0.000000 0.000000 0.000000
1.081701 0.398402 1.295464 0.000000 0.000000 0.000000
0.940436 0.465163 1.217836 0.000000 0.000000 0.000000
1.071977 0.339099 1.373972 0.000000 0.000000 0.000000
1.086741 0.379384 1.317061 0.000000 0.000000 0.000000
0.785167 0.386940 1.338268 0.000000 0.000000 0.000000
0.778743 0.378934 1.353389 0.000000 0.000000 0.000000
0.772599 0.384987 1.350503 0.000000 0.000000 0.000000
1.061955 0.379507 1.320123 0.000000 0.000000 0.000000
0.980186 0.270961 1.458126 0.000000 0.000000 0.000000
0.769999 0.391211 1.352995 0.000000 0.000000 0.000000
1.091219 0.371397 1.327128 0.000000 0.000000 0.000000
0.775661 0.377004 1.357464 0.000000 0.000000 0.000000
1.071624 0.369110 1.332234 0.000000 0.000000 0.000000
1.080866 0.382775 1.316709 0.000000 0.000000 0.000000
1.084950 0.371988 1.328178 0.000000 0.000000 0.000000
1.075866 0.390839 1.303825 0.000000 0.000000 0.000000
0.795163 0.375987 1.365035 0.000000 0.000000 0.000000
0.778146 0.382953 1.354064 0.000000 0.000000 0.000000
1.083122 0.392488 1.307395 0.000000 0.000000 0.000000
0.982300 0.272907 1.452043 0.000000 0.000000 0.000000
1.081657 0.368285 1.331854 0.000000 0.000000 0.000000
1.082437 0.375613 1.321379 0.000000 0.000000 0.000000
1.078438 0.373972 1.324038 0.000000 0.000000 0.000000
1.072211 0.373196 1.325460 0.000000 0.000000 0.000000
0.779650 0.382808 1.348518 0.000000 0.000000 0.000000
1.085221 0.379459 1.317846 0.000000 0.000000 0.000000
0.970892 0.268951 1.456378 0.000000 0.000000 0.000000
1.090167 0.366290 1.333812 0.000000 0.000000 0.000000
1.089081 0.386883 1.312109 0.000000 0.000000 0.000000
1.088073 0.369485 1.330049 0.000000 0.000000 0.000000
0.881062 0.274538 1.478571 0.000000 0.000000 0.000000
0.936815 0.425893 1.280270 0.000000 0.000000 0.000000
0.765910 0.376080 1.367485 0.000000 0.000000 0.000000
0.890323 0.276204 1.471227 0.000000 0.000000 0.000000
0.885441 0.269140 1.477431 0.000000 0.000000 0.000000
0.946716 0.422167 1.285673 0.000000 0.000000 0.000000
0.887893 0.272684 1.478339 0.000000 0.000000 0.000000
0.902658 0.268699 1.477073 0.000000 0.000000 0.000000
0.934500 0.434538 1.264150 0.000000 0.000000 0.000000
0.965794 0.464760 1.217731 0.000000 0.000000 0.000000
1.080964 0.376768 1.320982 0.000000 0.000000 0.000000
0.770237 0.370018 1.373434 0.000000 0.000000 0.000000
0.776158 0.369801 1.364183 0.000000 0.000000 0.000000
0.775213 0.372319 1.363402 0.000000 0.000000 0.000000
0.778402 0.377811 1.355236 0.000000 0.000000 0.000000
0.895386 0.271429 1.478333 0.000000 0.000000 0.000000
0.768852 0.385616 1.355171 0.000000 0.000000 0.000000
0.773914 0.368684 1.371982 0.000000 0.000000 0.000000
0.795354 0.372078 1.353715 0.000000 0.000000 0.000000
0.774088 0.369408 1.369370 0.000000 0.000000 0.000000
0.776359 0.373453 1.368818 0.000000 0.000000 0.000000
0.774267 0.377327 1.359535 0.000000 0.000000 0.000000
0.897779 0.270945 1.479839 0.000000 0.000000 0.000000
0.771340 0.386201 1.353800 0.000000 0.000000 0.000000
0.931146 0.459494 1.219003 0.000000 0.000000 0.000000
0.819417 0.304149 1.458336 0.000000 0.000000 0.000000
1.079788 0.379791 1.316909 0.000000 0.000000 0.000000
0.773513 0.376189 1.364650 0.000000 0.000000 0.000000
0.837228 0.332363 1.427640 0.000000 0.000000 0.000000
0.902745 0.293577 1.445709 0.000000 0.000000 0.000000
0.861744 0.300512 1.459190 0.000000 0.000000 0.000000
0.867950 0.330935 1.423630 0.000000 0.000000 0.000000
0.866716 0.310896 1.445835 0.000000 0.000000 0.000000
0.848323 0.304298 1.459270 0.000000 0.000000 0.000000
0.779783 0.361846 1.380136 0.000000 0.000000 0.000000
0.869148 0.300414 1.447354 0.000000 0.000000 0.000000
0.847547 0.298012 1.464956 0.000000 0.000000 0.000000
1.037225 0.440205 1.238330 0.000000 0.000000 0.000000
0.912316 0.284846 1.462956 0.000000 0.000000 0.000000
0.912884 0.292676 1.451786 0.000000 0.000000 0.000000
0.875944 0.301585 1.455613 0.000000 0.000000 0.000000
0.853963 0.318878 1.438718 0.000000 0.000000 0.000000
0.872617 0.287794 1.466647 0.000000 0.000000 0.000000
0.838671 0.307265 1.456497 0.000000 0.000000 0.000000
0.826298 0.308876 1.435947 0.000000 0.000000 0.000000
0.833723 0.302915 1.458363 0.000000 0.000000 0.000000
0.853804 0.453448 1.257748 0.000000 0.000000 0.000000
1.014401 0.450397 1.225427 0.000000 0.000000 0.000000
0.871141 0.291520 1.468963 0.000000 0.000000 0.000000
0.818166 0.308462 1.449646 0.000000 0.000000 0.000000
0.833101 0.308029 1.449298 0.000000 0.000000 0.000000
0.814711 0.315746 1.448313 0.000000 0.000000 0.000000
0.816576 0.303748 1.454081 0.000000 0.000000 0.000000
0.811891 0.314444 1.445269 0.000000 0.000000 0.000000
0.828288 0.300289 1.449256 0.000000 0.000000 0.000000
0.873007 0.380922 1.317588 0.000000 0.000000 0.000000
0.811578 0.311489 1.449671 0.000000 0.000000 0.000000
0.818007 0.307482 1.443265 0.000000 0.000000 0.000000
0.924623 0.383176 1.319538 0.000000 0.000000 0.000000
0.996414 0.275727 1.451710 0.000000 0.000000 0.000000
0.813503 0.314436 1.444083 0.000000 0.000000 0.000000
0.816783 0.314352 1.445350 0.000000 0.000000 0.000000
0.888008 0.273685 1.474504 0.000000 0.000000 0.000000
0.801277 0.451577 1.281901 0.000000 0.000000 0.000000
0.862281 0.281385 1.476832 0.000000 0.000000 0.000000
1.026718 0.447061 1.228601 0.000000 0.000000 0.000000
0.773655 0.360245 1.379590 0.000000 0.000000 0.000000
0.790745 0.353382 1.382187 0.000000 0.000000 0.000000
1.066220 0.320915 1.388753 0.000000 0.000000 0.000000
0.832920 0.458630 1.262031 0.000000 0.000000 0.000000
1.067415 0.328175 1.388066 0.000000 0.000000 0.000000
1.008199 0.453359 1.221945 0.000000 0.000000 0.000000
0.783565 0.368762 1.375011 0.000000 0.000000 0.000000
1.086280 0.391583 1.303465 0.000000 0.000000 0.000000
0.886063 0.461967 1.233718 0.000000 0.000000 0.000000
1.082158 0.398189 1.293287 0.000000 0.000000 0.000000
1.017955 0.285525 1.429284 0.000000 0.000000 0.000000
0.777492 0.364266 1.379079 0.000000 0.000000 0.000000
1.057629 0.318850 1.395611 0.000000 0.000000 0.000000
1.056564 0.321508 1.383910 0.000000 0.000000 0.000000
1.022841 0.442307 1.235630 0.000000 0.000000 0.000000
0.796557 0.363679 1.382148 0.000000 0.000000 0.000000
1.055114 0.316055 1.398220 0.000000 0.000000 0.000000
1.067741 0.315459 1.393583 0.000000 0.000000 0.000000
0.894951 0.459451 1.239233 0.000000 0.000000 0.000000
1.082988 0.398291 1.295139 0.000000 0.000000 0.000000
1.081362 0.396874 1.297103 0.000000 0.000000 0.000000
1.088019 0.352646 1.356407 0.000000 0.000000 0.000000
1.087680 0.349089 1.359984 0.000000 0.000000 0.000000
0.877088 0.275969 1.477911 0.000000 0.000000 0.000000
0.956705 0.287102 1.445570 0.000000 0.000000 0.000000
0.946706 0.347892 1.380251 0.000000 0.000000 0.000000
0.822017 0.461862 1.271328 0.000000 0.000000 0.000000
0.797300 0.331229 1.426069 0.000000 0.000000 0.000000
1.089965 0.354008 1.348710 0.000000 0.000000 0.000000
0.863685 0.282105 1.473988 0.000000 0.000000 0.000000
0.992844 0.342813 1.375434 0.000000 0.000000 0.000000
0.793523 0.334245 1.423921 0.000000 0.000000 0.000000
1.090586 0.353020 1.344889 0.000000 0.000000 0.000000
0.859289 0.281276 1.478083 0.000000 0.000000 0.000000
1.073228 0.417781 1.274957 0.000000 0.000000 0.000000
0.980647 0.461781 1.218211 0.000000 0.000000 0.000000
1.009337 0.450587 1.222807 0.000000 0.000000 0.000000
1.081217 0.397628 1.296956 0.000000 0.000000 0.000000
1.020286 0.448058 1.228028 0.000000 0.000000 0.000000
1.004631 0.283385 1.438084 0.000000 0.000000 0.000000
0.773523 0.360904 1.387367 0.000000 0.000000 0.000000
1.080912 0.398515 1.295228 0.000000 0.000000 0.000000
1.045703 0.441877 1.238905 0.000000 0.000000 0.000000
0.956557 0.455456 1.221109 0.000000 0.000000 0.000000
0.975117 0.457037 1.223935 0.000000 0.000000 0.000000
0.804347 0.321526 1.440758 0.000000 0.000000 0.000000
0.882081 0.458617 1.238019 0.000000 0.000000 0.000000
0.814913 0.467071 1.274710 0.000000 0.000000 0.000000
1.094302 0.359725 1.339618 0.000000 0.000000 0.000000
1.078137 0.395049 1.293473 0.000000 0.000000 0.000000
1.084659 0.347301 1.362184 0.000000 0.000000 0.000000
0.804772 0.322331 1.437843 0.000000 0.000000 0.000000
1.092899 0.368697 1.334506 0.000000 0.000000 0.000000
1.088465 0.360144 1.343697 0.000000 0.000000 0.000000
0.807031 0.318555 1.443223 0.000000 0.000000 0.000000
0.804408 0.322534 1.439432 0.000000 0.000000 0.000000
0.805542 0.320302 1.443429 0.000000 0.000000 0.000000
0.899607 0.454984 1.226737 0.000000 0.000000 0.000000
0.794001 0.328073 1.435553 0.000000 0.000000 0.000000
0.976557 0.270376 1.458562 0.000000 0.000000 0.000000
0.907744 0.457979 1.229683 0.000000 0.000000 0.000000
1.092760 0.372069 1.322347 0.000000 0.000000 0.000000
0.952694 0.459287 1.221245 0.000000 0.000000 0.000000
0.969223 0.271788 1.458977 0.000000 0.000000 0.000000
1.083612 0.363952 1.337103 0.000000 0.000000 0.000000
0.800377 0.440753 1.284384 0.000000 0.000000 0.000000
0.940937 0.460986 1.220935 0.000000 0.000000 0.000000
0.846787 0.299128 1.447920 0.000000 0.000000 0.000000
0.917750 0.463075 1.219466 0.000000 0.000000 0.000000
0.876378 0.459707 1.234442 0.000000 0.000000 0.000000
0.817075 0.319846 1.421638 0.000000 0.000000 0.000000
0.866052 0.438453 1.272392 0.000000 0.000000 0.000000
0.833257 0.320814 1.408604 0.000000 0.000000 0.000000
0.796238 0.345947 1.387465 0.000000 0.000000 0.000000
1.029941 0.437451 1.234539 0.000000 0.000000 0.000000
0.847257 0.390114 1.317282 0.000000 0.000000 0.000000
1.042387 0.436666 1.240571 0.000000 0.000000 0.000000
0.970027 0.397321 1.299895 0.000000 0.000000 0.000000
0.877043 0.450036 1.251115 0.000000 0.000000 0.000000
0.956903 0.424095 1.259542 0.000000 0.000000 0.000000
0.893318 0.278748 1.476902 0.000000 0.000000 0.000000
0.803171 0.338660 1.399440 0.000000 0.000000 0.000000
0.801467 0.333739 1.407172 0.000000 0.000000 0.000000
0.815217 0.429309 1.297056 0.000000 0.000000 0.000000
1.036186 0.446564 1.234306 0.000000 0.000000 0.000000
0.836270 0.294686 1.469332 0.000000 0.000000 0.000000
0.856856 0.460017 1.249262 0.000000 0.000000 0.000000
0.838672 0.463338 1.259457 0.000000 0.000000 0.000000
0.864786 0.455179 1.250571 0.000000 0.000000 0.000000
1.081962 0.389899 1.304698 0.000000 0.000000 0.000000
0.890957 0.274698 1.478374 0.000000 0.000000 0.000000
0.792271 0.351996 1.396356 0.000000 0.000000 0.000000
0.955419 0.433142 1.261222 0.000000 0.000000 0.000000
0.891507 0.272010 1.475155 0.000000 0.000000 0.000000
0.896619 0.462080 1.226121 0.000000 0.000000 0.000000
0.848525 0.311021 1.415107 0.000000 0.000000 0.000000
0.935237 0.407057 1.308493 0.000000 0.000000 0.000000
0.845699 0.305553 1.425438 0.000000 0.000000 0.000000
1.037315 0.437278 1.234232 0.000000 0.000000 0.000000
1.047279 0.436242 1.242478 0.000000 0.000000 0.000000
0.942834 0.451970 1.230261 0.000000 0.000000 0.000000
0.965245 0.403625 1.300816 0.000000 0.000000 0.000000
0.888937 0.451663 1.242389 0.000000 0.000000 0.000000
0.864093 0.289706 1.470431 0.000000 0.000000 0.000000
0.822091 0.327207 1.405945 0.000000 0.000000 0.000000
0.842877 0.348623 1.360695 0.000000 0.000000 0.000000
0.793351 0.334902 1.415814 0.000000 0.000000 0.000000
0.780408 0.407476 1.324995 0.000000 0.000000 0.000000
0.826881 0.299757 1.461114 0.000000 0.000000 0.000000
0.857026 0.340069 1.365564 0.000000 0.000000 0.000000
0.789273 0.352014 1.383950 0.000000 0.000000 0.000000
0.863602 0.461140 1.244024 0.000000 0.000000 0.000000
0.841822 0.466742 1.254875 0.000000 0.000000 0.000000
0.852832 0.404552 1.298793 0.000000 0.000000 0.000000
1.084286 0.384660 1.309098 0.000000 0.000000 0.000000
0.887642 0.272738 1.478313 0.000000 0.000000 0.000000
0.885356 0.273302 1.478640 0.000000 0.000000 0.000000
0.781281 0.349299 1.399996 0.000000 0.000000 0.000000
0.779445 0.352335 1.394322 0.000000 0.000000 0.000000
0.920864 0.463117 1.222015 0.000000 0.000000 0.000000
0.945955 0.452883 1.223590 0.000000 0.000000 0.000000
0.911530 0.438379 1.267640 0.000000 0.000000 0.000000
0.882291 0.274515 1.477483 0.000000 0.000000 0.000000
1.047923 0.436728 1.237938 0.000000 0.000000 0.000000
0.864272 0.464847 1.242426 0.000000 0.000000 0.000000
1.053349 0.435769 1.242006 0.000000 0.000000 0.000000
1.092070 0.364648 1.337852 0.000000 0.000000 0.000000
0.776379 0.396947 1.344938 0.000000 0.000000 0.000000
0.887800 0.460892 1.231696 0.000000 0.000000 0.000000
0.933811 0.455059 1.224966 0.000000 0.000000 0.000000
0.861725 0.433105 1.271468 0.000000 0.000000 0.000000
0.995833 0.458759 1.219640 0.000000 0.000000 0.000000
0.979358 0.364331 1.321608 0.000000 0.000000 0.000000
0.932853 0.463823 1.216495 0.000000 0.000000 0.000000
0.789865 0.386096 1.341299 0.000000 0.000000 0.000000
0.943789 0.462296 1.216118 0.000000 0.000000 0.000000
0.924818 0.458132 1.220268 0.000000 0.000000 0.000000
0.879183 0.413857 1.281506 0.000000 0.000000 0.000000
0.987261 0.458531 1.220989 0.000000 0.000000 0.000000
0.965515 0.361806 1.320327 0.000000 0.000000 0.000000
0.771278 0.386068 1.356641 0.000000 0.000000 0.000000
0.920594 0.459655 1.216180 0.000000 0.000000 0.000000
0.782572 0.395405 1.337526 0.000000 0.000000 0.000000
0.951004 0.460221 1.216982 0.000000 0.000000 0.000000
1.076689 0.403255 1.289788 0.000000 0.000000 0.000000
1.079924 0.409703 1.281543 0.000000 0.000000 0.000000
1.006687 0.451749 1.221126 0.000000 0.000000 0.000000
1.063353 0.311597 1.398521 0.000000 0.000000 0.000000
1.079600 0.408339 1.286266 0.000000 0.000000 0.000000
1.075139 0.407859 1.282784 0.000000 0.000000 0.000000
1.006318 0.452626 1.221189 0.000000 0.000000 0.000000
0.763669 0.383904 1.358848 0.000000 0.000000 0.000000
0.770524 0.393215 1.348222 0.000000 0.000000 0.000000
0.813139 0.313141 1.452827 0.000000 0.000000 0.000000
0.812556 0.314888 1.435588 0.000000 0.000000 0.000000
0.835034 0.300743 1.450423 0.000000 0.000000 0.000000
0.962497 0.266289 1.467475 0.000000 0.000000 0.000000
0.994268 0.455235 1.220098 0.000000 0.000000 0.000000
1.001083 0.454346 1.221721 0.000000 0.000000 0.000000
0.979375 0.450712 1.221817 0.000000 0.000000 0.000000
0.970228 0.267503 1.462669 0.000000 0.000000 0.000000
0.766877 0.382420 1.359128 0.000000 0.000000 0.000000
0.812381 0.313425 1.448616 0.000000 0.000000 0.000000
0.809727 0.316597 1.438146 0.000000 0.000000 0.000000
1.091016 0.354702 1.349375 0.000000 0.000000 0.000000
1.018723 0.291080 1.415607 0.000000 0.000000 0.000000
0.830024 0.298671 1.464544 0.000000 0.000000 0.000000
0.961182 0.269045 1.466711 0.000000 0.000000 0.000000
0.988428 0.453998 1.220386 0.000000 0.000000 0.000000
0.992560 0.454382 1.220037 0.000000 0.000000 0.000000
1.003523 0.444765 1.225329 0.000000 0.000000 0.000000
1.000205 0.452919 1.220576 0.000000 0.000000 0.000000
1.016742 0.445023 1.224484 0.000000 0.000000 0.000000
0.968081 0.265689 1.463863 0.000000 0.000000 0.000000
0.765430 0.391135 1.349590 0.000000 0.000000 0.000000
0.817199 0.308656 1.448925 0.000000 0.000000 0.000000
1.079117 0.411871 1.281441 0.000000 0.000000 0.000000
1.029317 0.446965 1.228539 0.000000 0.000000 0.000000
1.027573 0.449254 1.226071 0.000000 0.000000 0.000000
1.054370 0.437326 1.245275 0.000000 0.000000 0.000000
1.024076 0.440726 1.230853 0.000000 0.000000 0.000000
0.934633 0.266204 1.476691 0.000000 0.000000 0.000000
1.043376 0.439555 1.236466 0.000000 0.000000 0.000000
0.902704 0.457961 1.222906 0.000000 0.000000 0.000000
1.040839 0.439564 1.239427 0.000000 0.000000 0.000000
1.050009 0.439818 1.240507 0.000000 0.000000 0.000000
1.043473 0.440416 1.234721 0.000000 0.000000 0.000000
1.049631 0.432296 1.243737 0.000000 0.000000 0.000000
1.034729 0.442764 1.232560 0.000000 0.000000 0.000000
0.925069 0.269492 1.476030 0.000000 0.000000 0.000000
1.028172 0.439821 1.232216 0.000000 0.000000 0.000000
0.896916 0.462479 1.223549 0.000000 0.000000 0.000000
0.989757 0.276031 1.446275 0.000000 0.000000 0.000000
0.951028 0.273769 1.460942 0.000000 0.000000 0.000000
0.955479 0.267553 1.458475 0.000000 0.000000 0.000000
0.967921 0.265902 1.461998 0.000000 0.000000 0.000000
0.963525 0.273984 1.458983 0.000000 0.000000 0.000000
0.919707 0.270122 1.473128 0.000000 0.000000 0.000000
0.956701 0.262591 1.469385 0.000000 0.000000 0.000000
0.799781 0.339231 1.412070 0.000000 0.000000 0.000000
0.970860 0.278781 1.440824 0.000000 0.000000 0.000000
0.961631 0.261043 1.467286 0.000000 0.000000 0.000000
0.945580 0.263278 1.468754 0.000000 0.000000 0.000000
0.881915 0.356400 1.338340 0.000000 0.000000 0.000000
0.889650 0.378997 1.311245 0.000000 0.000000 0.000000
0.883889 0.376073 1.317735 0.000000 0.000000 0.000000
0.775968 0.402892 1.339695 0.000000 0.000000 0.000000
0.984025 0.266838 1.455683 0.000000 0.000000 0.000000
0.991861 0.276416 1.452701 0.000000 0.000000 0.000000
0.937480 0.269814 1.475747 0.000000 0.000000 0.000000
0.966329 0.267349 1.465742 0.000000 0.000000 0.000000
0.959627 0.264659 1.469204 0.000000 0.000000 0.000000
0.954283 0.264235 1.469535 0.000000 0.000000 0.000000
0.943207 0.276511 1.459702 0.000000 0.000000 0.000000
0.980908 0.274603 1.454297 0.000000 0.000000 0.000000
0.946329 0.265090 1.471927 0.000000 0.000000 0.000000
0.776488 0.388950 1.353152 0.000000 0.000000 0.000000
1.042227 0.301098 1.407059 0.000000 0.000000 0.000000
0.931169 0.267331 1.462644 0.000000 0.000000 0.000000
0.946151 0.264268 1.472673 0.000000 0.000000 0.000000
0.920777 0.361270 1.327768 0.000000 0.000000 0.000000
0.888139 0.361068 1.329749 0.000000 0.000000 0.000000
0.876576 0.362676 1.332066 0.000000 0.000000 0.000000
0.789454 0.391083 1.352269 0.000000 0.000000 0.000000
0.954697 0.263242 1.464832 0.000000 0.000000 0.000000
0.995751 0.277152 1.449268 0.000000 0.000000 0.000000
0.946649 0.267273 1.473446 0.000000 0.000000 0.000000
1.082315 0.400240 1.297842 0.000000 0.000000 0.000000
0.960827 0.265116 1.470512 0.000000 0.000000 0.000000
0.957021 0.264208 1.464778 0.000000 0.000000 0.000000
0.946262 0.262590 1.471329 0.000000 0.000000 0.000000
0.962336 0.268329 1.461154 0.000000 0.000000 0.000000
0.950438 0.301039 1.433587 0.000000 0.000000 0.000000
0.937094 0.323999 1.410205 0.000000 0.000000 0.000000
1.010459 0.340592 1.366467 0.000000 0.000000 0.000000
0.932590 0.271639 1.472159 0.000000 0.000000 0.000000
0.954338 0.312142 1.420136 0.000000 0.000000 0.000000
0.924662 0.307340 1.432559 0.000000 0.000000 0.000000
0.952495 0.332362 1.396544 0.000000 0.000000 0.000000
0.948274 0.278313 1.464476 0.000000 0.000000 0.000000
1.006008 0.452949 1.223512 0.000000 0.000000 0.000000
0.814992 0.310432 1.441123 0.000000 0.000000 0.000000
0.812371 0.314720 1.438193 0.000000 0.000000 0.000000
0.822161 0.308673 1.444571 0.000000 0.000000 0.000000
0.809222 0.322828 1.416908 0.000000 0.000000 0.000000
0.827507 0.306222 1.445554 0.000000 0.000000 0.000000
0.947329 0.262798 1.475220 0.000000 0.000000 0.000000
0.837528 0.310781 1.440383 0.000000 0.000000 0.000000
0.803730 0.331087 1.410940 0.000000 0.000000 0.000000
1.068216 0.330464 1.382565 0.000000 0.000000 0.000000
0.803419 0.320970 1.436901 0.000000 0.000000 0.000000
1.078360 0.336026 1.376873 0.000000 0.000000 0.000000
1.070590 0.325744 1.386753 0.000000 0.000000 0.000000
1.081663 0.338682 1.371439 0.000000 0.000000 0.000000
0.817671 0.457976 1.266468 0.000000 0.000000 0.000000
0.809263 0.324386 1.421595 0.000000 0.000000 0.000000
0.844946 0.289747 1.468537 0.000000 0.000000 0.000000
0.822489 0.312707 1.431427 0.000000 0.000000 0.000000
1.070539 0.322208 1.387003 0.000000 0.000000 0.000000
0.818513 0.312148 1.442077 0.000000 0.000000 0.000000
0.805871 0.331305 1.409474 0.000000 0.000000 0.000000
1.079618 0.336845 1.372079 0.000000 0.000000 0.000000
1.076777 0.336084 1.376315 0.000000 0.000000 0.000000
0.803904 0.322630 1.431762 0.000000 0.000000 0.000000
1.071916 0.325498 1.384907 0.000000 0.000000 0.000000
1.062117 0.316275 1.390859 0.000000 0.000000 0.000000
1.076146 0.332780 1.373479 0.000000 0.000000 0.000000
0.840417 0.461132 1.251494 0.000000 0.000000 0.000000
0.816893 0.313547 1.434982 0.000000 0.000000 0.000000
0.784449 0.395539 1.332035 0.000000 0.000000 0.000000
0.828729 0.296828 1.466392 0.000000 0.000000 0.000000
1.078633 0.327003 1.381112 0.000000 0.000000 0.000000
1.089284 0.357485 1.347861 0.000000 0.000000 0.000000
1.088899 0.357819 1.347116 0.000000 0.000000 0.000000
1.085002 0.358000 1.348917 0.000000 0.000000 0.000000
1.076236 0.351806 1.352606 0.000000 0.000000 0.000000
1.078550 0.354306 1.350592 0.000000 0.000000 0.000000
1.076525 0.399079 1.296949 0.000000 0.000000 0.000000
1.086363 0.397816 1.299670 0.000000 0.000000 0.000000
1.081410 0.397582 1.295808 0.000000 0.000000 0.000000
0.845045 0.469963 1.256326 0.000000 0.000000 0.000000
1.077239 0.345694 1.360824 0.000000 0.000000 0.000000
1.079010 0.346114 1.360756 0.000000 0.000000 0.000000
1.081528 0.352616 1.352378 0.000000 0.000000 0.000000
1.091346 0.350292 1.361305 0.000000 0.000000 0.000000
1.083165 0.356881 1.352178 0.000000 0.000000 0.000000
0.995717 0.279157 1.448320 0.000000 0.000000 0.000000
1.012370 0.280093 1.438206 0.000000 0.000000 0.000000
1.080556 0.361808 1.339616 0.000000 0.000000 0.000000
1.082783 0.399540 1.295088 0.000000 0.000000 0.000000
0.855352 0.462990 1.245427 0.000000 0.000000 0.000000
1.088980 0.350193 1.355645 0.000000 0.000000 0.000000
1.084314 0.350098 1.358002 0.000000 0.000000 0.000000
1.074159 0.335857 1.371863 0.000000 0.000000 0.000000
1.084638 0.341141 1.366783 0.000000 0.000000 0.000000
0.997652 0.276676 1.447341 0.000000 0.000000 0.000000
1.063546 0.429240 1.255407 0.000000 0.000000 0.000000
1.056625 0.427765 1.256320 0.000000 0.000000 0.000000
1.066852 0.424522 1.260516 0.000000 0.000000 0.000000
1.065110 0.431172 1.254155 0.000000 0.000000 0.000000
1.066765 0.423562 1.260729 0.000000 0.000000 0.000000
1.062255 0.431407 1.253845 0.000000 0.000000 0.000000
1.054551 0.421583 1.260586 0.000000 0.000000 0.000000
0.838799 0.375398 1.377540 0.000000 0.000000 0.000000
1.063355 0.432450 1.252309 0.000000 0.000000 0.000000
0.817182 0.375472 1.370586 0.000000 0.000000 0.000000
0.926989 0.375171 1.350689 0.000000 0.000000 0.000000
0.822807 0.414590 1.330015 0.000000 0.000000 0.000000
1.065893 0.428515 1.251800 0.000000 0.000000 0.000000
0.788640 0.342057 1.409179 0.000000 0.000000 0.000000
0.786499 0.344860 1.406363 0.000000 0.000000 0.000000
1.058345 0.435933 1.247812 0.000000 0.000000 0.000000
0.870192 0.430135 1.295922 0.000000 0.000000 0.000000
0.885964 0.430882 1.294972 0.000000 0.000000 0.000000
0.846468 0.462908 1.249345 0.000000 0.000000 0.000000
0.791235 0.342624 1.407988 0.000000 0.000000 0.000000
0.784603 0.344056 1.410940 0.000000 0.000000 0.000000
0.838297 0.435559 1.299302 0.000000 0.000000 0.000000
0.865471 0.463574 1.235418 0.000000 0.000000 0.000000
0.942776 0.392292 1.328779 0.000000 0.000000 0.000000
0.905614 0.427203 1.296715 0.000000 0.000000 0.000000
1.057080 0.430618 1.251982 0.000000 0.000000 0.000000
0.835203 0.367261 1.384480 0.000000 0.000000 0.000000
0.850744 0.422949 1.310238 0.000000 0.000000 0.000000
1.070334 0.424371 1.260344 0.000000 0.000000 0.000000
0.792531 0.339508 1.413727 0.000000 0.000000 0.000000
0.793298 0.343342 1.401950 0.000000 0.000000 0.000000
1.066384 0.432881 1.254285 0.000000 0.000000 0.000000
0.914892 0.395866 1.327437 0.000000 0.000000 0.000000
0.932376 0.417501 1.294814 0.000000 0.000000 0.000000
0.859236 0.462195 1.240898 0.000000 0.000000 0.000000
0.793194 0.331228 1.428050 0.000000 0.000000 0.000000
0.803283 0.350924 1.398518 0.000000 0.000000 0.000000
0.781399 0.342676 1.410994 0.000000 0.000000 0.000000
0.866232 0.458829 1.236397 0.000000 0.000000 0.000000
0.921707 0.407242 1.314820 0.000000 0.000000 0.000000
0.788028 0.345283 1.397772 0.000000 0.000000 0.000000
0.823992 0.387961 1.357987 0.000000 0.000000 0.000000
0.776006 0.359257 1.383511 0.000000 0.000000 0.000000
0.787675 0.344444 1.400272 0.000000 0.000000 0.000000
0.777419 0.358958 1.387371 0.000000 0.000000 0.000000
0.782656 0.355792 1.387892 0.000000 0.000000 0.000000
0.779259 0.350565 1.393916 0.000000 0.000000 0.000000
0.782959 0.406677 1.320503 0.000000 0.000000 0.000000
1.062682 0.319523 1.394182 0.000000 0.000000 0.000000
0.881329 0.277931 1.484493 0.000000 0.000000 0.000000
0.779314 0.359780 1.382049 0.000000 0.000000 0.000000
0.780364 0.353362 1.392488 0.000000 0.000000 0.000000
0.775354 0.366390 1.377360 0.000000 0.000000 0.000000
0.784350 0.350318 1.397005 0.000000 0.000000 0.000000
1.086302 0.359698 1.344006 0.000000 0.000000 0.000000
0.779610 0.413045 1.326261 0.000000 0.000000 0.000000
0.931647 0.462650 1.220090 0.000000 0.000000 0.000000
1.039059 0.299751 1.408308 0.000000 0.000000 0.000000
1.072547 0.338353 1.370877 0.000000 0.000000 0.000000
1.077380 0.336000 1.376953 0.000000 0.000000 0.000000
0.903727 0.460296 1.223661 0.000000 0.000000 0.000000
0.908685 0.461449 1.219924 0.000000 0.000000 0.000000
1.077350 0.330942 1.376652 0.000000 0.000000 0.000000
1.084050 0.339517 1.372764 0.000000 0.000000 0.000000
1.077789 0.342500 1.370781 0.000000 0.000000 0.000000
1.082498 0.345936 1.367685 0.000000 0.000000 0.000000
1.085218 0.343868 1.364997 0.000000 0.000000 0.000000
1.040490 0.304482 1.410000 0.000000 0.000000 0.000000
1.035537 0.340823 1.361412 0.000000 0.000000 0.000000
1.030796 0.295137 1.415142 0.000000 0.000000 0.000000
1.045785 0.308247 1.404485 0.000000 0.000000 0.000000
1.041864 0.308808 1.406709 0.000000 0.000000 0.000000
1.014723 0.308886 1.394972 0.000000 0.000000 0.000000
1.032361 0.308147 1.396798 0.000000 0.000000 0.000000
0.806133 0.458993 1.280467 0.000000 0.000000 0.000000
1.082441 0.344665 1.367102 0.000000 0.000000 0.000000
1.031718 0.292584 1.415074 0.000000 0.000000 0.000000
1.091252 0.368534 1.336192 0.000000 0.000000 0.000000
0.872879 0.463762 1.234655 0.000000 0.000000 0.000000
0.825238 0.465149 1.268346 0.000000 0.000000 0.000000
0.896144 0.457485 1.234826 0.000000 0.000000 0.000000
0.912109 0.462377 1.221095 0.000000 0.000000 0.000000
0.904012 0.461525 1.221114 0.000000 0.000000 0.000000
0.896648 0.461941 1.228034 0.000000 0.000000 0.000000
0.862564 0.461870 1.240911 0.000000 0.000000 0.000000
0.869106 0.462852 1.234509 0.000000 0.000000 0.000000
1.056156 0.310403 1.398276 0.000000 0.000000 0.000000
1.081335 0.345921 1.360618 0.000000 0.000000 0.000000
1.075140 0.346805 1.357602 0.000000 0.000000 0.000000
1.083140 0.336889 1.366739 0.000000 0.000000 0.000000
1.076129 0.324747 1.378952 0.000000 0.000000 0.000000
1.036738 0.306489 1.403139 0.000000 0.000000 0.000000
1.039600 0.303392 1.408888 0.000000 0.000000 0.000000
1.029631 0.324910 1.377741 0.000000 0.000000 0.000000
1.028736 0.308508 1.400790 0.000000 0.000000 0.000000
1.045773 0.308073 1.408124 0.000000 0.000000 0.000000
1.051270 0.307767 1.401131 0.000000 0.000000 0.000000
1.041355 0.307039 1.400948 0.000000 0.000000 0.000000
1.078793 0.342458 1.364997 0.000000 0.000000 0.000000
1.033414 0.293412 1.413691 0.000000 0.000000 0.000000
0.875982 0.464074 1.236460 0.000000 0.000000 0.000000
0.821536 0.466557 1.265326 0.000000 0.000000 0.000000
0.909244 0.462221 1.224815 0.000000 0.000000 0.000000
0.911405 0.462285 1.224197 0.000000 0.000000 0.000000
0.897344 0.460075 1.231556 0.000000 0.000000 0.000000
0.880306 0.464536 1.235478 0.000000 0.000000 0.000000
1.049038 0.304029 1.403866 0.000000 0.000000 0.000000
1.079269 0.337144 1.368580 0.000000 0.000000 0.000000
1.077878 0.335204 1.371982 0.000000 0.000000 0.000000
1.069643 0.340233 1.366064 0.000000 0.000000 0.000000
1.083244 0.338581 1.365739 0.000000 0.000000 0.000000
1.086773 0.343183 1.361402 0.000000 0.000000 0.000000
0.954317 0.456000 1.227727 0.000000 0.000000 0.000000
1.091344 0.349198 1.354379 0.000000 0.000000 0.000000
0.938546 0.264581 1.470526 0.000000 0.000000 0.000000
0.971275 0.462840 1.218243 0.000000 0.000000 0.000000
1.071927 0.360505 1.350398 0.000000 0.000000 0.000000
1.086407 0.351983 1.353817 0.000000 0.000000 0.000000
1.089376 0.357590 1.351374 0.000000 0.000000 0.000000
1.090362 0.356491 1.353373 0.000000 0.000000 0.000000
0.998291 0.277389 1.445310 0.000000 0.000000 0.000000
1.065269 0.318360 1.390643 0.000000 0.000000 0.000000
1.009738 0.283067 1.436255 0.000000 0.000000 0.000000
1.061313 0.316491 1.394045 0.000000 0.000000 0.000000
1.013520 0.289585 1.427603 0.000000 0.000000 0.000000
1.001971 0.278935 1.442671 0.000000 0.000000 0.000000
0.775441 0.418711 1.322348 0.000000 0.000000 0.000000
1.064054 0.322093 1.391699 0.000000 0.000000 0.000000
0.995568 0.278166 1.446173 0.000000 0.000000 0.000000
1.058602 0.314646 1.392911 0.000000 0.000000 0.000000
1.001376 0.283879 1.442666 0.000000 0.000000 0.000000
0.875945 0.277091 1.480309 0.000000 0.000000 0.000000
1.093929 0.367363 1.333727 0.000000 0.000000 0.000000
1.093297 0.372406 1.327084 0.000000 0.000000 0.000000
0.889524 0.451123 1.260597 0.000000 0.000000 0.000000
1.010139 0.411332 1.265986 0.000000 0.000000 0.000000
0.838547 0.469528 1.264879 0.000000 0.000000 0.000000
1.090717 0.360462 1.339505 0.000000 0.000000 0.000000
0.869204 0.461532 1.245840 0.000000 0.000000 0.000000
0.824951 0.453282 1.285511 0.000000 0.000000 0.000000
0.840095 0.457872 1.276057 0.000000 0.000000 0.000000
0.869010 0.445477 1.277933 0.000000 0.000000 0.000000
0.848342 0.440537 1.293828 0.000000 0.000000 0.000000
0.899966 0.435523 1.271625 0.000000 0.000000 0.000000
0.855427 0.456222 1.275021 0.000000 0.000000 0.000000
0.975575 0.439839 1.243316 0.000000 0.000000 0.000000
1.038683 0.424335 1.250987 0.000000 0.000000 0.000000
0.853660 0.463795 1.262347 0.000000 0.000000 0.000000
1.092762 0.352283 1.348883 0.000000 0.000000 0.000000
0.873693 0.460209 1.254284 0.000000 0.000000 0.000000
0.825221 0.441070 1.299267 0.000000 0.000000 0.000000
0.829087 0.460624 1.278993 0.000000 0.000000 0.000000
