ply
format ascii 1.0
comment VCGLIB generated
obj_info Generated by SPFormer!
element vertex 884
property float x
property float y
property float z
property float nx
property float ny
property float nz
end_header
0.451326 0.329132 1.431403 0.000000 0.000000 0.000000
0.490779 0.309028 1.438750 0.000000 0.000000 0.000000
0.394676 0.361828 1.365213 0.000000 0.000000 0.000000
0.404948 0.358782 1.391348 0.000000 0.000000 0.000000
0.444984 0.467059 1.239923 0.000000 0.000000 0.000000
0.394854 0.363228 1.385512 0.000000 0.000000 0.000000
0.393297 0.365249 1.370831 0.000000 0.000000 0.000000
0.466587 0.323589 1.445175 0.000000 0.000000 0.000000
0.362456 0.441208 1.287643 0.000000 0.000000 0.000000
0.460044 0.385305 1.299278 0.000000 0.000000 0.000000
0.445125 0.326031 1.386243 0.000000 0.000000 0.000000
0.410266 0.459534 1.246500 0.000000 0.000000 0.000000
0.379358 0.377063 1.364066 0.000000 0.000000 0.000000
0.471547 0.320168 1.412703 0.000000 0.000000 0.000000
0.570905 0.326356 1.365024 0.000000 0.000000 0.000000
0.469790 0.442102 1.254359 0.000000 0.000000 0.000000
0.468049 0.449519 1.242210 0.000000 0.000000 0.000000
0.556194 0.345610 1.322010 0.000000 0.000000 0.000000
0.458177 0.453057 1.240278 0.000000 0.000000 0.000000
0.479402 0.454044 1.249213 0.000000 0.000000 0.000000
0.462194 0.407569 1.280120 0.000000 0.000000 0.000000
0.364239 0.435183 1.288471 0.000000 0.000000 0.000000
0.540678 0.373495 1.262489 0.000000 0.000000 0.000000
0.481071 0.395262 1.285114 0.000000 0.000000 0.000000
0.543837 0.388110 1.257879 0.000000 0.000000 0.000000
0.571017 0.328583 1.358050 0.000000 0.000000 0.000000
0.456830 0.446761 1.244243 0.000000 0.000000 0.000000
0.435305 0.470028 1.238505 0.000000 0.000000 0.000000
0.511237 0.381276 1.275315 0.000000 0.000000 0.000000
0.370619 0.429874 1.294528 0.000000 0.000000 0.000000
0.508878 0.371699 1.289773 0.000000 0.000000 0.000000
0.567847 0.348463 1.305256 0.000000 0.000000 0.000000
0.489251 0.389065 1.273006 0.000000 0.000000 0.000000
0.451313 0.463025 1.239585 0.000000 0.000000 0.000000
0.508238 0.405015 1.252408 0.000000 0.000000 0.000000
0.448142 0.458450 1.239001 0.000000 0.000000 0.000000
0.462801 0.463083 1.239856 0.000000 0.000000 0.000000
0.487604 0.438784 1.240594 0.000000 0.000000 0.000000
0.481515 0.436927 1.243646 0.000000 0.000000 0.000000
0.445563 0.472355 1.243006 0.000000 0.000000 0.000000
0.564293 0.355727 1.286950 0.000000 0.000000 0.000000
0.374616 0.389028 1.352176 0.000000 0.000000 0.000000
0.550896 0.361505 1.299624 0.000000 0.000000 0.000000
0.572288 0.307812 1.433854 0.000000 0.000000 0.000000
0.429423 0.452422 1.248736 0.000000 0.000000 0.000000
0.424612 0.454554 1.247186 0.000000 0.000000 0.000000
0.431583 0.418296 1.284510 0.000000 0.000000 0.000000
0.562595 0.349695 1.300358 0.000000 0.000000 0.000000
0.568332 0.316233 1.396271 0.000000 0.000000 0.000000
0.352267 0.462753 1.264090 0.000000 0.000000 0.000000
0.366345 0.455464 1.266176 0.000000 0.000000 0.000000
0.410383 0.459976 1.256581 0.000000 0.000000 0.000000
0.382319 0.380808 1.346928 0.000000 0.000000 0.000000
0.554261 0.352082 1.307612 0.000000 0.000000 0.000000
0.410230 0.351729 1.403894 0.000000 0.000000 0.000000
0.580405 0.312665 1.386728 0.000000 0.000000 0.000000
0.396165 0.363276 1.382054 0.000000 0.000000 0.000000
0.558717 0.344344 1.309746 0.000000 0.000000 0.000000
0.581358 0.319223 1.373843 0.000000 0.000000 0.000000
0.387603 0.370174 1.370019 0.000000 0.000000 0.000000
0.395653 0.359813 1.361955 0.000000 0.000000 0.000000
0.383721 0.470128 1.257597 0.000000 0.000000 0.000000
0.414455 0.464833 1.249018 0.000000 0.000000 0.000000
0.403242 0.348549 1.391006 0.000000 0.000000 0.000000
0.394803 0.464751 1.251616 0.000000 0.000000 0.000000
0.420102 0.459123 1.245067 0.000000 0.000000 0.000000
0.410258 0.452763 1.249323 0.000000 0.000000 0.000000
0.374385 0.377799 1.367205 0.000000 0.000000 0.000000
0.385215 0.460808 1.261158 0.000000 0.000000 0.000000
0.399895 0.353531 1.385529 0.000000 0.000000 0.000000
0.409965 0.460810 1.247118 0.000000 0.000000 0.000000
0.442704 0.397003 1.297237 0.000000 0.000000 0.000000
0.579306 0.318696 1.377660 0.000000 0.000000 0.000000
0.385231 0.368116 1.368525 0.000000 0.000000 0.000000
0.449718 0.398563 1.297819 0.000000 0.000000 0.000000
0.352331 0.445817 1.305535 0.000000 0.000000 0.000000
0.383235 0.374305 1.369569 0.000000 0.000000 0.000000
0.440651 0.461083 1.242305 0.000000 0.000000 0.000000
0.442954 0.453486 1.242880 0.000000 0.000000 0.000000
0.450558 0.449732 1.241711 0.000000 0.000000 0.000000
0.494811 0.393530 1.261718 0.000000 0.000000 0.000000
0.406610 0.467675 1.244515 0.000000 0.000000 0.000000
0.444954 0.464084 1.239910 0.000000 0.000000 0.000000
0.571619 0.318172 1.377995 0.000000 0.000000 0.000000
0.390075 0.371049 1.370726 0.000000 0.000000 0.000000
0.383940 0.369026 1.371768 0.000000 0.000000 0.000000
0.378039 0.453487 1.268565 0.000000 0.000000 0.000000
0.374291 0.467968 1.262507 0.000000 0.000000 0.000000
0.419090 0.346235 1.387821 0.000000 0.000000 0.000000
0.580938 0.330254 1.339597 0.000000 0.000000 0.000000
0.369115 0.467067 1.263104 0.000000 0.000000 0.000000
0.577736 0.330542 1.341438 0.000000 0.000000 0.000000
0.402751 0.363735 1.357988 0.000000 0.000000 0.000000
0.440852 0.330759 1.384934 0.000000 0.000000 0.000000
0.452061 0.328653 1.438996 0.000000 0.000000 0.000000
0.374526 0.401553 1.331277 0.000000 0.000000 0.000000
0.426200 0.462540 1.253597 0.000000 0.000000 0.000000
0.434381 0.468006 1.241618 0.000000 0.000000 0.000000
0.455064 0.458934 1.241899 0.000000 0.000000 0.000000
0.453959 0.337891 1.441916 0.000000 0.000000 0.000000
0.582642 0.324192 1.361547 0.000000 0.000000 0.000000
0.507327 0.314835 1.455808 0.000000 0.000000 0.000000
0.435353 0.469208 1.244175 0.000000 0.000000 0.000000
0.421612 0.470728 1.239871 0.000000 0.000000 0.000000
0.554328 0.308675 1.446418 0.000000 0.000000 0.000000
0.362208 0.412904 1.323223 0.000000 0.000000 0.000000
0.374696 0.392602 1.331640 0.000000 0.000000 0.000000
0.533353 0.306443 1.426589 0.000000 0.000000 0.000000
0.373752 0.400874 1.340081 0.000000 0.000000 0.000000
0.585875 0.328111 1.341849 0.000000 0.000000 0.000000
0.523000 0.418132 1.241244 0.000000 0.000000 0.000000
0.560816 0.314733 1.388839 0.000000 0.000000 0.000000
0.454233 0.465468 1.240435 0.000000 0.000000 0.000000
0.526516 0.413208 1.251107 0.000000 0.000000 0.000000
0.529688 0.411971 1.251338 0.000000 0.000000 0.000000
0.584087 0.335607 1.331490 0.000000 0.000000 0.000000
0.447269 0.467367 1.237868 0.000000 0.000000 0.000000
0.427509 0.340457 1.417879 0.000000 0.000000 0.000000
0.388869 0.436983 1.303925 0.000000 0.000000 0.000000
0.435191 0.341803 1.425043 0.000000 0.000000 0.000000
0.541195 0.368186 1.273354 0.000000 0.000000 0.000000
0.549066 0.388030 1.262222 0.000000 0.000000 0.000000
0.529681 0.405865 1.254036 0.000000 0.000000 0.000000
0.437834 0.338094 1.420438 0.000000 0.000000 0.000000
0.443088 0.339388 1.428813 0.000000 0.000000 0.000000
0.364387 0.452469 1.276116 0.000000 0.000000 0.000000
0.374644 0.464767 1.269165 0.000000 0.000000 0.000000
0.354485 0.434706 1.318077 0.000000 0.000000 0.000000
0.348758 0.434546 1.309532 0.000000 0.000000 0.000000
0.379906 0.455742 1.269997 0.000000 0.000000 0.000000
0.552071 0.362510 1.290062 0.000000 0.000000 0.000000
0.403951 0.428959 1.301008 0.000000 0.000000 0.000000
0.427072 0.346032 1.418471 0.000000 0.000000 0.000000
0.528241 0.387155 1.273481 0.000000 0.000000 0.000000
0.560428 0.358243 1.298207 0.000000 0.000000 0.000000
0.531506 0.384289 1.259063 0.000000 0.000000 0.000000
0.426640 0.338792 1.417094 0.000000 0.000000 0.000000
0.441133 0.335477 1.427644 0.000000 0.000000 0.000000
0.578956 0.311791 1.416937 0.000000 0.000000 0.000000
0.348676 0.459052 1.279894 0.000000 0.000000 0.000000
0.378959 0.469834 1.259928 0.000000 0.000000 0.000000
0.351681 0.430405 1.307341 0.000000 0.000000 0.000000
0.353744 0.422696 1.321053 0.000000 0.000000 0.000000
0.371159 0.458477 1.278743 0.000000 0.000000 0.000000
0.370294 0.463500 1.263844 0.000000 0.000000 0.000000
0.418362 0.469016 1.240661 0.000000 0.000000 0.000000
0.461751 0.405498 1.262029 0.000000 0.000000 0.000000
0.460877 0.400871 1.271500 0.000000 0.000000 0.000000
0.434619 0.339685 1.423589 0.000000 0.000000 0.000000
0.455516 0.428486 1.249674 0.000000 0.000000 0.000000
0.449986 0.464071 1.241958 0.000000 0.000000 0.000000
0.438624 0.464741 1.238746 0.000000 0.000000 0.000000
0.361251 0.410854 1.330002 0.000000 0.000000 0.000000
0.475024 0.393343 1.288402 0.000000 0.000000 0.000000
0.450236 0.403521 1.277201 0.000000 0.000000 0.000000
0.489083 0.407167 1.252206 0.000000 0.000000 0.000000
0.482501 0.403374 1.255485 0.000000 0.000000 0.000000
0.418054 0.470021 1.243128 0.000000 0.000000 0.000000
0.417059 0.346128 1.413181 0.000000 0.000000 0.000000
0.425355 0.461668 1.243402 0.000000 0.000000 0.000000
0.369591 0.397099 1.349825 0.000000 0.000000 0.000000
0.462798 0.332926 1.444057 0.000000 0.000000 0.000000
0.389969 0.374025 1.358703 0.000000 0.000000 0.000000
0.433013 0.336138 1.410662 0.000000 0.000000 0.000000
0.427739 0.338837 1.386962 0.000000 0.000000 0.000000
0.411246 0.356585 1.407688 0.000000 0.000000 0.000000
0.530239 0.343144 1.335255 0.000000 0.000000 0.000000
0.379768 0.381617 1.367453 0.000000 0.000000 0.000000
0.566097 0.325225 1.345318 0.000000 0.000000 0.000000
0.508811 0.423211 1.243369 0.000000 0.000000 0.000000
0.481203 0.436633 1.246132 0.000000 0.000000 0.000000
0.458330 0.319456 1.423050 0.000000 0.000000 0.000000
0.487218 0.425408 1.243610 0.000000 0.000000 0.000000
0.466783 0.427153 1.247536 0.000000 0.000000 0.000000
0.508896 0.431078 1.243655 0.000000 0.000000 0.000000
0.453068 0.440490 1.245776 0.000000 0.000000 0.000000
0.372682 0.391801 1.355164 0.000000 0.000000 0.000000
0.510093 0.424965 1.246964 0.000000 0.000000 0.000000
0.506775 0.427554 1.246651 0.000000 0.000000 0.000000
0.453036 0.418960 1.265470 0.000000 0.000000 0.000000
0.517483 0.424172 1.244390 0.000000 0.000000 0.000000
0.463199 0.318561 1.438960 0.000000 0.000000 0.000000
0.501359 0.430232 1.244774 0.000000 0.000000 0.000000
0.484971 0.408710 1.251786 0.000000 0.000000 0.000000
0.500417 0.424958 1.243076 0.000000 0.000000 0.000000
0.499854 0.413526 1.246255 0.000000 0.000000 0.000000
0.373444 0.398364 1.344064 0.000000 0.000000 0.000000
0.369991 0.400142 1.346896 0.000000 0.000000 0.000000
0.531380 0.417670 1.245719 0.000000 0.000000 0.000000
0.349630 0.433941 1.311822 0.000000 0.000000 0.000000
0.588047 0.323378 1.363481 0.000000 0.000000 0.000000
0.528833 0.416002 1.245072 0.000000 0.000000 0.000000
0.397519 0.352899 1.375733 0.000000 0.000000 0.000000
0.521371 0.397281 1.249162 0.000000 0.000000 0.000000
0.583405 0.331189 1.341989 0.000000 0.000000 0.000000
0.579878 0.320837 1.380849 0.000000 0.000000 0.000000
0.518270 0.415161 1.242767 0.000000 0.000000 0.000000
0.490441 0.411302 1.252557 0.000000 0.000000 0.000000
0.407801 0.354043 1.399835 0.000000 0.000000 0.000000
0.520338 0.425968 1.245714 0.000000 0.000000 0.000000
0.573757 0.327732 1.355172 0.000000 0.000000 0.000000
0.585708 0.320121 1.368909 0.000000 0.000000 0.000000
0.421242 0.348331 1.411626 0.000000 0.000000 0.000000
0.357468 0.458502 1.273562 0.000000 0.000000 0.000000
0.521501 0.417478 1.247614 0.000000 0.000000 0.000000
0.570564 0.308758 1.413715 0.000000 0.000000 0.000000
0.553093 0.305153 1.440251 0.000000 0.000000 0.000000
0.566676 0.307128 1.426864 0.000000 0.000000 0.000000
0.395663 0.360547 1.373504 0.000000 0.000000 0.000000
0.580972 0.309589 1.415582 0.000000 0.000000 0.000000
0.557147 0.308004 1.437299 0.000000 0.000000 0.000000
0.551747 0.307810 1.427839 0.000000 0.000000 0.000000
0.566413 0.307671 1.439435 0.000000 0.000000 0.000000
0.555610 0.304873 1.427251 0.000000 0.000000 0.000000
0.356539 0.416496 1.328403 0.000000 0.000000 0.000000
0.362333 0.416450 1.325771 0.000000 0.000000 0.000000
0.508728 0.421795 1.246918 0.000000 0.000000 0.000000
0.367298 0.407866 1.340107 0.000000 0.000000 0.000000
0.367624 0.411918 1.337234 0.000000 0.000000 0.000000
0.372098 0.397244 1.331971 0.000000 0.000000 0.000000
0.366579 0.404285 1.332865 0.000000 0.000000 0.000000
0.373004 0.393501 1.350662 0.000000 0.000000 0.000000
0.416718 0.362777 1.336163 0.000000 0.000000 0.000000
0.395466 0.362674 1.351748 0.000000 0.000000 0.000000
0.360286 0.454888 1.280466 0.000000 0.000000 0.000000
0.368641 0.399328 1.342893 0.000000 0.000000 0.000000
0.370363 0.398855 1.343952 0.000000 0.000000 0.000000
0.375701 0.396700 1.349467 0.000000 0.000000 0.000000
0.509005 0.417458 1.240076 0.000000 0.000000 0.000000
0.516849 0.414433 1.244330 0.000000 0.000000 0.000000
0.371682 0.396284 1.349016 0.000000 0.000000 0.000000
0.370534 0.406197 1.343969 0.000000 0.000000 0.000000
0.374827 0.389535 1.351017 0.000000 0.000000 0.000000
0.549931 0.388503 1.258127 0.000000 0.000000 0.000000
0.380515 0.379742 1.346566 0.000000 0.000000 0.000000
0.411782 0.368075 1.341849 0.000000 0.000000 0.000000
0.394945 0.370210 1.354129 0.000000 0.000000 0.000000
0.366656 0.421240 1.320081 0.000000 0.000000 0.000000
0.371474 0.395260 1.346987 0.000000 0.000000 0.000000
0.360780 0.416058 1.319381 0.000000 0.000000 0.000000
0.369448 0.404877 1.338666 0.000000 0.000000 0.000000
0.522692 0.424682 1.243828 0.000000 0.000000 0.000000
0.372386 0.471977 1.257953 0.000000 0.000000 0.000000
0.385104 0.378763 1.368775 0.000000 0.000000 0.000000
0.509522 0.436367 1.242862 0.000000 0.000000 0.000000
0.510459 0.414980 1.244269 0.000000 0.000000 0.000000
0.381536 0.387733 1.351511 0.000000 0.000000 0.000000
0.351657 0.455291 1.287316 0.000000 0.000000 0.000000
0.575783 0.311309 1.414938 0.000000 0.000000 0.000000
0.356484 0.453198 1.280950 0.000000 0.000000 0.000000
0.507853 0.315773 1.461095 0.000000 0.000000 0.000000
0.513514 0.313636 1.458407 0.000000 0.000000 0.000000
0.401611 0.463425 1.248148 0.000000 0.000000 0.000000
0.418477 0.350107 1.412460 0.000000 0.000000 0.000000
0.519982 0.314058 1.459830 0.000000 0.000000 0.000000
0.499122 0.318495 1.459217 0.000000 0.000000 0.000000
0.484204 0.319639 1.440351 0.000000 0.000000 0.000000
0.410940 0.349324 1.401351 0.000000 0.000000 0.000000
0.492606 0.320546 1.458050 0.000000 0.000000 0.000000
0.497466 0.320425 1.461011 0.000000 0.000000 0.000000
0.568663 0.332979 1.349414 0.000000 0.000000 0.000000
0.497140 0.441816 1.247519 0.000000 0.000000 0.000000
0.394024 0.422816 1.282919 0.000000 0.000000 0.000000
0.527261 0.314230 1.457272 0.000000 0.000000 0.000000
0.498759 0.318013 1.457229 0.000000 0.000000 0.000000
0.492697 0.321476 1.451823 0.000000 0.000000 0.000000
0.499341 0.319785 1.435779 0.000000 0.000000 0.000000
0.497954 0.317198 1.460002 0.000000 0.000000 0.000000
0.354440 0.433075 1.308403 0.000000 0.000000 0.000000
0.506700 0.317471 1.459201 0.000000 0.000000 0.000000
0.540367 0.335404 1.340219 0.000000 0.000000 0.000000
0.378754 0.379944 1.359531 0.000000 0.000000 0.000000
0.377575 0.380431 1.367460 0.000000 0.000000 0.000000
0.579654 0.313295 1.419726 0.000000 0.000000 0.000000
0.573338 0.305237 1.393539 0.000000 0.000000 0.000000
0.461707 0.323647 1.441238 0.000000 0.000000 0.000000
0.545028 0.379730 1.261444 0.000000 0.000000 0.000000
0.543001 0.311866 1.454789 0.000000 0.000000 0.000000
0.536059 0.313974 1.456121 0.000000 0.000000 0.000000
0.484118 0.429123 1.239857 0.000000 0.000000 0.000000
0.588588 0.316281 1.389027 0.000000 0.000000 0.000000
0.581918 0.333152 1.336768 0.000000 0.000000 0.000000
0.469571 0.451946 1.242244 0.000000 0.000000 0.000000
0.529088 0.313547 1.448715 0.000000 0.000000 0.000000
0.533807 0.309414 1.457908 0.000000 0.000000 0.000000
0.476075 0.429372 1.243575 0.000000 0.000000 0.000000
0.582093 0.320439 1.386266 0.000000 0.000000 0.000000
0.367572 0.431589 1.305264 0.000000 0.000000 0.000000
0.495577 0.311446 1.424977 0.000000 0.000000 0.000000
0.490667 0.323603 1.386298 0.000000 0.000000 0.000000
0.489865 0.320143 1.392735 0.000000 0.000000 0.000000
0.373083 0.463273 1.256022 0.000000 0.000000 0.000000
0.496342 0.317562 1.398038 0.000000 0.000000 0.000000
0.485327 0.317164 1.398775 0.000000 0.000000 0.000000
0.505204 0.377751 1.293255 0.000000 0.000000 0.000000
0.379616 0.471093 1.257376 0.000000 0.000000 0.000000
0.431229 0.336360 1.379404 0.000000 0.000000 0.000000
0.354811 0.448764 1.296980 0.000000 0.000000 0.000000
0.359158 0.418708 1.325503 0.000000 0.000000 0.000000
0.472541 0.330421 1.361430 0.000000 0.000000 0.000000
0.511640 0.306816 1.430976 0.000000 0.000000 0.000000
0.504801 0.314022 1.402148 0.000000 0.000000 0.000000
0.532685 0.309207 1.454505 0.000000 0.000000 0.000000
0.502491 0.312458 1.418730 0.000000 0.000000 0.000000
0.506126 0.309860 1.415459 0.000000 0.000000 0.000000
0.361039 0.409077 1.313021 0.000000 0.000000 0.000000
0.362806 0.403369 1.337557 0.000000 0.000000 0.000000
0.356460 0.420021 1.327680 0.000000 0.000000 0.000000
0.486693 0.316036 1.408469 0.000000 0.000000 0.000000
0.495154 0.316814 1.424600 0.000000 0.000000 0.000000
0.462048 0.394152 1.312539 0.000000 0.000000 0.000000
0.472602 0.322973 1.389099 0.000000 0.000000 0.000000
0.483999 0.325942 1.382100 0.000000 0.000000 0.000000
0.495880 0.322799 1.388511 0.000000 0.000000 0.000000
0.491631 0.315008 1.409042 0.000000 0.000000 0.000000
0.493507 0.390783 1.289995 0.000000 0.000000 0.000000
0.377228 0.473457 1.254072 0.000000 0.000000 0.000000
0.505591 0.312572 1.408660 0.000000 0.000000 0.000000
0.508732 0.314547 1.426567 0.000000 0.000000 0.000000
0.485426 0.315352 1.408179 0.000000 0.000000 0.000000
0.364546 0.447219 1.292265 0.000000 0.000000 0.000000
0.497241 0.325178 1.369641 0.000000 0.000000 0.000000
0.553622 0.307913 1.451483 0.000000 0.000000 0.000000
0.487005 0.311260 1.412733 0.000000 0.000000 0.000000
0.503808 0.316867 1.403407 0.000000 0.000000 0.000000
0.540344 0.305732 1.449430 0.000000 0.000000 0.000000
0.489124 0.313111 1.426151 0.000000 0.000000 0.000000
0.524634 0.305970 1.423077 0.000000 0.000000 0.000000
0.520900 0.307337 1.419999 0.000000 0.000000 0.000000
0.352709 0.433946 1.309642 0.000000 0.000000 0.000000
0.555064 0.380973 1.274460 0.000000 0.000000 0.000000
0.365869 0.415914 1.320333 0.000000 0.000000 0.000000
0.371565 0.421450 1.302506 0.000000 0.000000 0.000000
0.382075 0.386259 1.327600 0.000000 0.000000 0.000000
0.366044 0.398767 1.323994 0.000000 0.000000 0.000000
0.363938 0.424274 1.305749 0.000000 0.000000 0.000000
0.537503 0.307201 1.420716 0.000000 0.000000 0.000000
0.512453 0.366286 1.296455 0.000000 0.000000 0.000000
0.416230 0.352850 1.355618 0.000000 0.000000 0.000000
0.350257 0.427463 1.317663 0.000000 0.000000 0.000000
0.375523 0.399992 1.313434 0.000000 0.000000 0.000000
0.380398 0.382821 1.340332 0.000000 0.000000 0.000000
0.385860 0.382874 1.333194 0.000000 0.000000 0.000000
0.362421 0.418829 1.313433 0.000000 0.000000 0.000000
0.569749 0.330597 1.350381 0.000000 0.000000 0.000000
0.356928 0.431996 1.302275 0.000000 0.000000 0.000000
0.505341 0.365784 1.301423 0.000000 0.000000 0.000000
0.419126 0.355139 1.350580 0.000000 0.000000 0.000000
0.450515 0.383729 1.307665 0.000000 0.000000 0.000000
0.574533 0.309766 1.432208 0.000000 0.000000 0.000000
0.580758 0.315976 1.396757 0.000000 0.000000 0.000000
0.582563 0.322118 1.358500 0.000000 0.000000 0.000000
0.543512 0.313489 1.392870 0.000000 0.000000 0.000000
0.547378 0.310972 1.396544 0.000000 0.000000 0.000000
0.532059 0.312604 1.400987 0.000000 0.000000 0.000000
0.424339 0.468631 1.240432 0.000000 0.000000 0.000000
0.578672 0.322391 1.367514 0.000000 0.000000 0.000000
0.351092 0.438618 1.308899 0.000000 0.000000 0.000000
0.547378 0.315001 1.383925 0.000000 0.000000 0.000000
0.482690 0.377737 1.295270 0.000000 0.000000 0.000000
0.519162 0.318662 1.387443 0.000000 0.000000 0.000000
0.552708 0.307982 1.409531 0.000000 0.000000 0.000000
0.538989 0.312359 1.397969 0.000000 0.000000 0.000000
0.541852 0.317697 1.383901 0.000000 0.000000 0.000000
0.567140 0.345648 1.317036 0.000000 0.000000 0.000000
0.532238 0.349147 1.315717 0.000000 0.000000 0.000000
0.407008 0.465492 1.245048 0.000000 0.000000 0.000000
0.518462 0.366912 1.293664 0.000000 0.000000 0.000000
0.431482 0.455489 1.246272 0.000000 0.000000 0.000000
0.562355 0.326475 1.362445 0.000000 0.000000 0.000000
0.581735 0.325888 1.356632 0.000000 0.000000 0.000000
0.356364 0.420836 1.317770 0.000000 0.000000 0.000000
0.554363 0.312076 1.393383 0.000000 0.000000 0.000000
0.499691 0.372034 1.299125 0.000000 0.000000 0.000000
0.581175 0.335737 1.330938 0.000000 0.000000 0.000000
0.574575 0.326879 1.345107 0.000000 0.000000 0.000000
0.542175 0.307773 1.452166 0.000000 0.000000 0.000000
0.534240 0.305147 1.439495 0.000000 0.000000 0.000000
0.356232 0.439693 1.293325 0.000000 0.000000 0.000000
0.518651 0.308788 1.434414 0.000000 0.000000 0.000000
0.479980 0.455136 1.248626 0.000000 0.000000 0.000000
0.535943 0.307944 1.449882 0.000000 0.000000 0.000000
0.529180 0.305802 1.444952 0.000000 0.000000 0.000000
0.532389 0.304474 1.433498 0.000000 0.000000 0.000000
0.373924 0.421985 1.313791 0.000000 0.000000 0.000000
0.565771 0.330687 1.343827 0.000000 0.000000 0.000000
0.574669 0.327895 1.352895 0.000000 0.000000 0.000000
0.585606 0.324540 1.359541 0.000000 0.000000 0.000000
0.354883 0.448362 1.308544 0.000000 0.000000 0.000000
0.351232 0.448970 1.288572 0.000000 0.000000 0.000000
0.579420 0.336478 1.326650 0.000000 0.000000 0.000000
0.523190 0.316871 1.462021 0.000000 0.000000 0.000000
0.585565 0.330860 1.333412 0.000000 0.000000 0.000000
0.577020 0.336176 1.335940 0.000000 0.000000 0.000000
0.533150 0.354861 1.303797 0.000000 0.000000 0.000000
0.542840 0.305420 1.442025 0.000000 0.000000 0.000000
0.354876 0.427121 1.311222 0.000000 0.000000 0.000000
0.534040 0.304846 1.439996 0.000000 0.000000 0.000000
0.538417 0.305065 1.447788 0.000000 0.000000 0.000000
0.546194 0.305110 1.451345 0.000000 0.000000 0.000000
0.360062 0.433859 1.307149 0.000000 0.000000 0.000000
0.565149 0.335783 1.338402 0.000000 0.000000 0.000000
0.576723 0.326249 1.349307 0.000000 0.000000 0.000000
0.500228 0.436480 1.243470 0.000000 0.000000 0.000000
0.580445 0.325780 1.356867 0.000000 0.000000 0.000000
0.357719 0.435139 1.311668 0.000000 0.000000 0.000000
0.505581 0.429290 1.244768 0.000000 0.000000 0.000000
0.364935 0.430213 1.298599 0.000000 0.000000 0.000000
0.584592 0.336792 1.331455 0.000000 0.000000 0.000000
0.517635 0.313841 1.456721 0.000000 0.000000 0.000000
0.581106 0.331408 1.338791 0.000000 0.000000 0.000000
0.554909 0.339872 1.340641 0.000000 0.000000 0.000000
0.537937 0.357808 1.302255 0.000000 0.000000 0.000000
0.568090 0.350449 1.316781 0.000000 0.000000 0.000000
0.388247 0.370983 1.373858 0.000000 0.000000 0.000000
0.543366 0.391168 1.254476 0.000000 0.000000 0.000000
0.540497 0.396553 1.253010 0.000000 0.000000 0.000000
0.537270 0.405892 1.250657 0.000000 0.000000 0.000000
0.547955 0.385862 1.262921 0.000000 0.000000 0.000000
0.548437 0.375548 1.261508 0.000000 0.000000 0.000000
0.531461 0.404195 1.249680 0.000000 0.000000 0.000000
0.352684 0.458470 1.274803 0.000000 0.000000 0.000000
0.531442 0.391872 1.260462 0.000000 0.000000 0.000000
0.547902 0.389536 1.263566 0.000000 0.000000 0.000000
0.541099 0.398379 1.250441 0.000000 0.000000 0.000000
0.551727 0.384075 1.259815 0.000000 0.000000 0.000000
0.366756 0.411035 1.331232 0.000000 0.000000 0.000000
0.539512 0.310720 1.456306 0.000000 0.000000 0.000000
0.543159 0.385194 1.257726 0.000000 0.000000 0.000000
0.538805 0.402058 1.251202 0.000000 0.000000 0.000000
0.541692 0.396252 1.260827 0.000000 0.000000 0.000000
0.547601 0.385067 1.258100 0.000000 0.000000 0.000000
0.536573 0.395320 1.251233 0.000000 0.000000 0.000000
0.544745 0.395527 1.254998 0.000000 0.000000 0.000000
0.546000 0.397521 1.257513 0.000000 0.000000 0.000000
0.544936 0.393621 1.253922 0.000000 0.000000 0.000000
0.364926 0.410742 1.336455 0.000000 0.000000 0.000000
0.543169 0.313836 1.463439 0.000000 0.000000 0.000000
0.348789 0.457454 1.279937 0.000000 0.000000 0.000000
0.499499 0.315595 1.448980 0.000000 0.000000 0.000000
0.357192 0.419784 1.313174 0.000000 0.000000 0.000000
0.456383 0.467111 1.239080 0.000000 0.000000 0.000000
0.466016 0.458730 1.241262 0.000000 0.000000 0.000000
0.442944 0.442732 1.255952 0.000000 0.000000 0.000000
0.491831 0.318044 1.441233 0.000000 0.000000 0.000000
0.353100 0.413160 1.324053 0.000000 0.000000 0.000000
0.433657 0.465097 1.244472 0.000000 0.000000 0.000000
0.459474 0.464203 1.239657 0.000000 0.000000 0.000000
0.400605 0.356833 1.395702 0.000000 0.000000 0.000000
0.500050 0.316918 1.455164 0.000000 0.000000 0.000000
0.534523 0.406714 1.247533 0.000000 0.000000 0.000000
0.490848 0.441562 1.240743 0.000000 0.000000 0.000000
0.357387 0.411075 1.318853 0.000000 0.000000 0.000000
0.353999 0.420311 1.316633 0.000000 0.000000 0.000000
0.491506 0.427438 1.242205 0.000000 0.000000 0.000000
0.528936 0.413971 1.252943 0.000000 0.000000 0.000000
0.364493 0.418876 1.308729 0.000000 0.000000 0.000000
0.348968 0.428150 1.315488 0.000000 0.000000 0.000000
0.528259 0.385790 1.249906 0.000000 0.000000 0.000000
0.508042 0.396440 1.254378 0.000000 0.000000 0.000000
0.537429 0.388053 1.252917 0.000000 0.000000 0.000000
0.526762 0.378883 1.259362 0.000000 0.000000 0.000000
0.519607 0.388679 1.251545 0.000000 0.000000 0.000000
0.463456 0.457190 1.249536 0.000000 0.000000 0.000000
0.512702 0.380989 1.267561 0.000000 0.000000 0.000000
0.528244 0.383340 1.257240 0.000000 0.000000 0.000000
0.551529 0.377744 1.264544 0.000000 0.000000 0.000000
0.541409 0.373268 1.265872 0.000000 0.000000 0.000000
0.423447 0.350176 1.417431 0.000000 0.000000 0.000000
0.355236 0.444665 1.286890 0.000000 0.000000 0.000000
0.523482 0.381213 1.253296 0.000000 0.000000 0.000000
0.502599 0.397710 1.250426 0.000000 0.000000 0.000000
0.535257 0.404054 1.248423 0.000000 0.000000 0.000000
0.506820 0.390100 1.256466 0.000000 0.000000 0.000000
0.516754 0.386786 1.256044 0.000000 0.000000 0.000000
0.440677 0.459776 1.255730 0.000000 0.000000 0.000000
0.544030 0.378189 1.263293 0.000000 0.000000 0.000000
0.533815 0.379789 1.256678 0.000000 0.000000 0.000000
0.518720 0.381241 1.257252 0.000000 0.000000 0.000000
0.418723 0.344925 1.408593 0.000000 0.000000 0.000000
0.349177 0.437603 1.300884 0.000000 0.000000 0.000000
0.405299 0.449077 1.266496 0.000000 0.000000 0.000000
0.518527 0.315504 1.461521 0.000000 0.000000 0.000000
0.351724 0.456329 1.278893 0.000000 0.000000 0.000000
0.353633 0.458616 1.272656 0.000000 0.000000 0.000000
0.362783 0.460333 1.275743 0.000000 0.000000 0.000000
0.352244 0.458197 1.281794 0.000000 0.000000 0.000000
0.498493 0.322602 1.458769 0.000000 0.000000 0.000000
0.353524 0.437729 1.297000 0.000000 0.000000 0.000000
0.539600 0.403142 1.250858 0.000000 0.000000 0.000000
0.347247 0.451245 1.291427 0.000000 0.000000 0.000000
0.352723 0.451903 1.288500 0.000000 0.000000 0.000000
0.367438 0.460534 1.269967 0.000000 0.000000 0.000000
0.420687 0.337208 1.400717 0.000000 0.000000 0.000000
0.420693 0.337555 1.396999 0.000000 0.000000 0.000000
0.362010 0.460135 1.276297 0.000000 0.000000 0.000000
0.351307 0.459928 1.271509 0.000000 0.000000 0.000000
0.353660 0.453352 1.284898 0.000000 0.000000 0.000000
0.414776 0.337856 1.390569 0.000000 0.000000 0.000000
0.429985 0.334959 1.403986 0.000000 0.000000 0.000000
0.522510 0.408309 1.246480 0.000000 0.000000 0.000000
0.391623 0.363910 1.356277 0.000000 0.000000 0.000000
0.355442 0.459064 1.276275 0.000000 0.000000 0.000000
0.542920 0.397364 1.250262 0.000000 0.000000 0.000000
0.358225 0.462093 1.269054 0.000000 0.000000 0.000000
0.531613 0.411153 1.249120 0.000000 0.000000 0.000000
0.509947 0.317338 1.456602 0.000000 0.000000 0.000000
0.351300 0.442722 1.300185 0.000000 0.000000 0.000000
0.363684 0.433496 1.297286 0.000000 0.000000 0.000000
0.381758 0.412611 1.310745 0.000000 0.000000 0.000000
0.542761 0.400393 1.250319 0.000000 0.000000 0.000000
0.412292 0.344598 1.391835 0.000000 0.000000 0.000000
0.424998 0.335832 1.405222 0.000000 0.000000 0.000000
0.354645 0.455253 1.279480 0.000000 0.000000 0.000000
0.357958 0.450785 1.285476 0.000000 0.000000 0.000000
0.351373 0.456930 1.279240 0.000000 0.000000 0.000000
0.426414 0.332707 1.398409 0.000000 0.000000 0.000000
0.529459 0.394565 1.250566 0.000000 0.000000 0.000000
0.391983 0.365929 1.378866 0.000000 0.000000 0.000000
0.358724 0.455370 1.277778 0.000000 0.000000 0.000000
0.534691 0.398784 1.249472 0.000000 0.000000 0.000000
0.528192 0.414357 1.246476 0.000000 0.000000 0.000000
0.518558 0.316574 1.458842 0.000000 0.000000 0.000000
0.350818 0.440263 1.308851 0.000000 0.000000 0.000000
0.352558 0.451358 1.294668 0.000000 0.000000 0.000000
0.379092 0.442732 1.287586 0.000000 0.000000 0.000000
0.532110 0.399715 1.249655 0.000000 0.000000 0.000000
0.494386 0.445405 1.241225 0.000000 0.000000 0.000000
0.480192 0.453122 1.240246 0.000000 0.000000 0.000000
0.375819 0.391912 1.351272 0.000000 0.000000 0.000000
0.486369 0.453322 1.240653 0.000000 0.000000 0.000000
0.483383 0.446471 1.238944 0.000000 0.000000 0.000000
0.484962 0.436686 1.235700 0.000000 0.000000 0.000000
0.475050 0.454590 1.247273 0.000000 0.000000 0.000000
0.565468 0.362355 1.279558 0.000000 0.000000 0.000000
0.542048 0.307750 1.406731 0.000000 0.000000 0.000000
0.454288 0.317356 1.406687 0.000000 0.000000 0.000000
0.584935 0.319583 1.373486 0.000000 0.000000 0.000000
0.588645 0.322043 1.368764 0.000000 0.000000 0.000000
0.446093 0.470142 1.241941 0.000000 0.000000 0.000000
0.396585 0.370444 1.382908 0.000000 0.000000 0.000000
0.550968 0.307462 1.407461 0.000000 0.000000 0.000000
0.465478 0.315550 1.413280 0.000000 0.000000 0.000000
0.564377 0.357539 1.294290 0.000000 0.000000 0.000000
0.568772 0.359941 1.289035 0.000000 0.000000 0.000000
0.547659 0.309855 1.455351 0.000000 0.000000 0.000000
0.455267 0.470081 1.238515 0.000000 0.000000 0.000000
0.515224 0.304306 1.435487 0.000000 0.000000 0.000000
0.415408 0.449652 1.262626 0.000000 0.000000 0.000000
0.387735 0.444772 1.280398 0.000000 0.000000 0.000000
0.570218 0.345510 1.309017 0.000000 0.000000 0.000000
0.514754 0.309326 1.409236 0.000000 0.000000 0.000000
0.465951 0.407501 1.257001 0.000000 0.000000 0.000000
0.459152 0.420395 1.251080 0.000000 0.000000 0.000000
0.444065 0.419355 1.254827 0.000000 0.000000 0.000000
0.512364 0.308220 1.436757 0.000000 0.000000 0.000000
0.518180 0.309871 1.423497 0.000000 0.000000 0.000000
0.555819 0.305491 1.429199 0.000000 0.000000 0.000000
0.519440 0.305694 1.427148 0.000000 0.000000 0.000000
0.431071 0.443158 1.251087 0.000000 0.000000 0.000000
0.390433 0.464382 1.262498 0.000000 0.000000 0.000000
0.392585 0.443587 1.274706 0.000000 0.000000 0.000000
0.514936 0.313719 1.408213 0.000000 0.000000 0.000000
0.457090 0.414375 1.253755 0.000000 0.000000 0.000000
0.446939 0.426489 1.252260 0.000000 0.000000 0.000000
0.468293 0.411818 1.256850 0.000000 0.000000 0.000000
0.522021 0.310583 1.417514 0.000000 0.000000 0.000000
0.509509 0.310961 1.417301 0.000000 0.000000 0.000000
0.539112 0.303165 1.427588 0.000000 0.000000 0.000000
0.512438 0.306942 1.426478 0.000000 0.000000 0.000000
0.431148 0.449890 1.249270 0.000000 0.000000 0.000000
0.391128 0.375951 1.379985 0.000000 0.000000 0.000000
0.587360 0.313353 1.407104 0.000000 0.000000 0.000000
0.535448 0.397464 1.260340 0.000000 0.000000 0.000000
0.471215 0.332979 1.389156 0.000000 0.000000 0.000000
0.581026 0.319627 1.376355 0.000000 0.000000 0.000000
0.588197 0.312561 1.388114 0.000000 0.000000 0.000000
0.588314 0.313889 1.400414 0.000000 0.000000 0.000000
0.581756 0.315288 1.368189 0.000000 0.000000 0.000000
0.484975 0.455099 1.242250 0.000000 0.000000 0.000000
0.402431 0.463650 1.239652 0.000000 0.000000 0.000000
0.520130 0.317770 1.462499 0.000000 0.000000 0.000000
0.540761 0.312197 1.458404 0.000000 0.000000 0.000000
0.586318 0.338051 1.327842 0.000000 0.000000 0.000000
0.415375 0.465580 1.236465 0.000000 0.000000 0.000000
0.438946 0.343898 1.431208 0.000000 0.000000 0.000000
0.528271 0.310050 1.453004 0.000000 0.000000 0.000000
0.591499 0.316533 1.389177 0.000000 0.000000 0.000000
0.526427 0.313765 1.462058 0.000000 0.000000 0.000000
0.588868 0.334808 1.339495 0.000000 0.000000 0.000000
0.572158 0.322297 1.375792 0.000000 0.000000 0.000000
0.579681 0.309827 1.417952 0.000000 0.000000 0.000000
0.454467 0.337554 1.444448 0.000000 0.000000 0.000000
0.410060 0.432482 1.271215 0.000000 0.000000 0.000000
0.442501 0.400597 1.284183 0.000000 0.000000 0.000000
0.452862 0.334182 1.438900 0.000000 0.000000 0.000000
0.439525 0.412383 1.265655 0.000000 0.000000 0.000000
0.423096 0.425896 1.262758 0.000000 0.000000 0.000000
0.425708 0.421204 1.268617 0.000000 0.000000 0.000000
0.481066 0.319280 1.452312 0.000000 0.000000 0.000000
0.416442 0.345382 1.406425 0.000000 0.000000 0.000000
0.375456 0.390431 1.353809 0.000000 0.000000 0.000000
0.380889 0.384650 1.365954 0.000000 0.000000 0.000000
0.471429 0.320395 1.446919 0.000000 0.000000 0.000000
0.482842 0.323006 1.449649 0.000000 0.000000 0.000000
0.478523 0.321337 1.452850 0.000000 0.000000 0.000000
0.476012 0.384361 1.287945 0.000000 0.000000 0.000000
0.489037 0.320657 1.446031 0.000000 0.000000 0.000000
0.487371 0.319543 1.453789 0.000000 0.000000 0.000000
0.413826 0.427657 1.278643 0.000000 0.000000 0.000000
0.449461 0.336191 1.434570 0.000000 0.000000 0.000000
0.447319 0.412399 1.263279 0.000000 0.000000 0.000000
0.413696 0.435755 1.261522 0.000000 0.000000 0.000000
0.424401 0.414130 1.280804 0.000000 0.000000 0.000000
0.482659 0.322314 1.453512 0.000000 0.000000 0.000000
0.412286 0.353422 1.405783 0.000000 0.000000 0.000000
0.374032 0.387315 1.362081 0.000000 0.000000 0.000000
0.502669 0.313910 1.441644 0.000000 0.000000 0.000000
0.489462 0.321316 1.452541 0.000000 0.000000 0.000000
0.519745 0.370505 1.291266 0.000000 0.000000 0.000000
0.468767 0.319020 1.442583 0.000000 0.000000 0.000000
0.482816 0.319164 1.451021 0.000000 0.000000 0.000000
0.457878 0.467041 1.239821 0.000000 0.000000 0.000000
0.375023 0.395695 1.353676 0.000000 0.000000 0.000000
0.469215 0.461466 1.241721 0.000000 0.000000 0.000000
0.379501 0.389183 1.357516 0.000000 0.000000 0.000000
0.433792 0.328326 1.389643 0.000000 0.000000 0.000000
0.462801 0.315280 1.426044 0.000000 0.000000 0.000000
0.429905 0.329379 1.382594 0.000000 0.000000 0.000000
0.430829 0.330622 1.389558 0.000000 0.000000 0.000000
0.441026 0.328319 1.410604 0.000000 0.000000 0.000000
0.432874 0.331109 1.402927 0.000000 0.000000 0.000000
0.450758 0.324711 1.413981 0.000000 0.000000 0.000000
0.449199 0.321342 1.405071 0.000000 0.000000 0.000000
0.459584 0.321928 1.427387 0.000000 0.000000 0.000000
0.459872 0.319401 1.403764 0.000000 0.000000 0.000000
0.400592 0.461837 1.252468 0.000000 0.000000 0.000000
0.389182 0.466768 1.252496 0.000000 0.000000 0.000000
0.393227 0.471094 1.254931 0.000000 0.000000 0.000000
0.418035 0.458036 1.248660 0.000000 0.000000 0.000000
0.445108 0.325386 1.399597 0.000000 0.000000 0.000000
0.444661 0.321007 1.404612 0.000000 0.000000 0.000000
0.440066 0.458871 1.254288 0.000000 0.000000 0.000000
0.423105 0.333376 1.389455 0.000000 0.000000 0.000000
0.421327 0.342447 1.361205 0.000000 0.000000 0.000000
0.427093 0.335767 1.385098 0.000000 0.000000 0.000000
0.438922 0.328438 1.407514 0.000000 0.000000 0.000000
0.440149 0.333851 1.413774 0.000000 0.000000 0.000000
0.455713 0.319080 1.423364 0.000000 0.000000 0.000000
0.453462 0.322979 1.426019 0.000000 0.000000 0.000000
0.465206 0.317021 1.435072 0.000000 0.000000 0.000000
0.442783 0.324863 1.386819 0.000000 0.000000 0.000000
0.432497 0.328826 1.397332 0.000000 0.000000 0.000000
0.384650 0.470172 1.251909 0.000000 0.000000 0.000000
0.399231 0.467931 1.249721 0.000000 0.000000 0.000000
0.402476 0.467425 1.244727 0.000000 0.000000 0.000000
0.439361 0.328610 1.392897 0.000000 0.000000 0.000000
0.393731 0.464724 1.248722 0.000000 0.000000 0.000000
0.403085 0.457175 1.265635 0.000000 0.000000 0.000000
0.417628 0.338865 1.386941 0.000000 0.000000 0.000000
0.464273 0.462338 1.240258 0.000000 0.000000 0.000000
0.514971 0.316349 1.461916 0.000000 0.000000 0.000000
0.540385 0.379417 1.258446 0.000000 0.000000 0.000000
0.554940 0.307853 1.451659 0.000000 0.000000 0.000000
0.474563 0.459973 1.239497 0.000000 0.000000 0.000000
0.475863 0.460337 1.240194 0.000000 0.000000 0.000000
0.516319 0.382041 1.267171 0.000000 0.000000 0.000000
0.480096 0.458659 1.239766 0.000000 0.000000 0.000000
0.552036 0.314099 1.456298 0.000000 0.000000 0.000000
0.533479 0.314359 1.462329 0.000000 0.000000 0.000000
0.540444 0.374953 1.259811 0.000000 0.000000 0.000000
0.556047 0.309820 1.453571 0.000000 0.000000 0.000000
0.482657 0.453583 1.240097 0.000000 0.000000 0.000000
0.469648 0.464181 1.240415 0.000000 0.000000 0.000000
0.522810 0.377234 1.263884 0.000000 0.000000 0.000000
0.478028 0.459876 1.241092 0.000000 0.000000 0.000000
0.547608 0.311204 1.454155 0.000000 0.000000 0.000000
0.540063 0.313800 1.459198 0.000000 0.000000 0.000000
0.568363 0.309473 1.399456 0.000000 0.000000 0.000000
0.587474 0.313248 1.401458 0.000000 0.000000 0.000000
0.582904 0.311709 1.390149 0.000000 0.000000 0.000000
0.582734 0.311839 1.419025 0.000000 0.000000 0.000000
0.582214 0.338006 1.327303 0.000000 0.000000 0.000000
0.565760 0.359334 1.286390 0.000000 0.000000 0.000000
0.488097 0.457637 1.240961 0.000000 0.000000 0.000000
0.374082 0.422287 1.297006 0.000000 0.000000 0.000000
0.556661 0.308029 1.412668 0.000000 0.000000 0.000000
0.577915 0.306133 1.412330 0.000000 0.000000 0.000000
0.573799 0.311332 1.402509 0.000000 0.000000 0.000000
0.373078 0.401222 1.348911 0.000000 0.000000 0.000000
0.551705 0.304330 1.441126 0.000000 0.000000 0.000000
0.573057 0.312006 1.394802 0.000000 0.000000 0.000000
0.585258 0.310851 1.386247 0.000000 0.000000 0.000000
0.584070 0.311531 1.402058 0.000000 0.000000 0.000000
0.590596 0.311485 1.394884 0.000000 0.000000 0.000000
0.571447 0.310807 1.407687 0.000000 0.000000 0.000000
0.561851 0.313083 1.386497 0.000000 0.000000 0.000000
0.580554 0.315992 1.385603 0.000000 0.000000 0.000000
0.579268 0.310261 1.429628 0.000000 0.000000 0.000000
0.557039 0.362123 1.286541 0.000000 0.000000 0.000000
0.577540 0.319248 1.390143 0.000000 0.000000 0.000000
0.587472 0.316526 1.398053 0.000000 0.000000 0.000000
0.589900 0.314764 1.399021 0.000000 0.000000 0.000000
0.582322 0.312202 1.389954 0.000000 0.000000 0.000000
0.559984 0.366946 1.282364 0.000000 0.000000 0.000000
0.374785 0.438369 1.282126 0.000000 0.000000 0.000000
0.563707 0.307885 1.402190 0.000000 0.000000 0.000000
0.415229 0.397518 1.302691 0.000000 0.000000 0.000000
0.573270 0.306696 1.437692 0.000000 0.000000 0.000000
0.370110 0.402572 1.348655 0.000000 0.000000 0.000000
0.582810 0.312059 1.399333 0.000000 0.000000 0.000000
0.584856 0.326756 1.351886 0.000000 0.000000 0.000000
0.582517 0.311372 1.416122 0.000000 0.000000 0.000000
0.573357 0.310214 1.419170 0.000000 0.000000 0.000000
0.588071 0.320005 1.373197 0.000000 0.000000 0.000000
0.589659 0.321056 1.376895 0.000000 0.000000 0.000000
0.588243 0.322516 1.366523 0.000000 0.000000 0.000000
0.570941 0.308515 1.425729 0.000000 0.000000 0.000000
0.590634 0.315789 1.391809 0.000000 0.000000 0.000000
0.578946 0.308918 1.404790 0.000000 0.000000 0.000000
0.456309 0.326424 1.438295 0.000000 0.000000 0.000000
0.473819 0.321812 1.451120 0.000000 0.000000 0.000000
0.350550 0.423833 1.302340 0.000000 0.000000 0.000000
0.486941 0.445485 1.237082 0.000000 0.000000 0.000000
0.387273 0.468467 1.248656 0.000000 0.000000 0.000000
0.351558 0.430197 1.300172 0.000000 0.000000 0.000000
0.544765 0.391655 1.261665 0.000000 0.000000 0.000000
0.485693 0.450083 1.246567 0.000000 0.000000 0.000000
0.384183 0.468028 1.251079 0.000000 0.000000 0.000000
0.461311 0.328491 1.440783 0.000000 0.000000 0.000000
0.559404 0.305554 1.442861 0.000000 0.000000 0.000000
0.469572 0.326015 1.446894 0.000000 0.000000 0.000000
0.584075 0.311171 1.392366 0.000000 0.000000 0.000000
0.466468 0.325452 1.445185 0.000000 0.000000 0.000000
0.437120 0.405738 1.293009 0.000000 0.000000 0.000000
0.559367 0.361847 1.282855 0.000000 0.000000 0.000000
0.509007 0.382280 1.284066 0.000000 0.000000 0.000000
0.546721 0.380318 1.270312 0.000000 0.000000 0.000000
0.492798 0.367234 1.320587 0.000000 0.000000 0.000000
0.490837 0.386971 1.284390 0.000000 0.000000 0.000000
0.549937 0.375558 1.270672 0.000000 0.000000 0.000000
0.551887 0.307673 1.439184 0.000000 0.000000 0.000000
0.555552 0.305651 1.443481 0.000000 0.000000 0.000000
0.543541 0.394259 1.259493 0.000000 0.000000 0.000000
0.554144 0.353843 1.304607 0.000000 0.000000 0.000000
0.543940 0.367146 1.284563 0.000000 0.000000 0.000000
0.547010 0.375131 1.265318 0.000000 0.000000 0.000000
0.577589 0.308121 1.427757 0.000000 0.000000 0.000000
0.564396 0.307142 1.444889 0.000000 0.000000 0.000000
0.572352 0.306620 1.432305 0.000000 0.000000 0.000000
0.568259 0.309726 1.441977 0.000000 0.000000 0.000000
0.553792 0.364279 1.293203 0.000000 0.000000 0.000000
0.575570 0.310521 1.434764 0.000000 0.000000 0.000000
0.564011 0.312458 1.446029 0.000000 0.000000 0.000000
0.492211 0.362308 1.329191 0.000000 0.000000 0.000000
0.560864 0.310525 1.450114 0.000000 0.000000 0.000000
0.570515 0.306743 1.428660 0.000000 0.000000 0.000000
0.583584 0.313364 1.401118 0.000000 0.000000 0.000000
0.583565 0.309085 1.400180 0.000000 0.000000 0.000000
0.584493 0.311125 1.399516 0.000000 0.000000 0.000000
0.558212 0.377993 1.265895 0.000000 0.000000 0.000000
0.432078 0.402937 1.301920 0.000000 0.000000 0.000000
0.553489 0.370330 1.270911 0.000000 0.000000 0.000000
0.474564 0.401241 1.274449 0.000000 0.000000 0.000000
0.549304 0.374200 1.276192 0.000000 0.000000 0.000000
0.482106 0.353326 1.344633 0.000000 0.000000 0.000000
0.538225 0.364671 1.297961 0.000000 0.000000 0.000000
0.550580 0.379358 1.263459 0.000000 0.000000 0.000000
0.564700 0.308864 1.444649 0.000000 0.000000 0.000000
0.553163 0.380273 1.274061 0.000000 0.000000 0.000000
0.562572 0.304577 1.438802 0.000000 0.000000 0.000000
0.551465 0.363775 1.286882 0.000000 0.000000 0.000000
0.548432 0.358713 1.299952 0.000000 0.000000 0.000000
0.545025 0.353160 1.310252 0.000000 0.000000 0.000000
0.570709 0.308672 1.437199 0.000000 0.000000 0.000000
0.548365 0.311815 1.456713 0.000000 0.000000 0.000000
0.565767 0.304844 1.435424 0.000000 0.000000 0.000000
0.565519 0.306210 1.437878 0.000000 0.000000 0.000000
0.516198 0.365857 1.312518 0.000000 0.000000 0.000000
0.553760 0.355397 1.306675 0.000000 0.000000 0.000000
0.567190 0.310823 1.446212 0.000000 0.000000 0.000000
0.571666 0.309839 1.438509 0.000000 0.000000 0.000000
0.578084 0.310083 1.427388 0.000000 0.000000 0.000000
0.569483 0.310263 1.435907 0.000000 0.000000 0.000000
0.582901 0.313575 1.390541 0.000000 0.000000 0.000000
0.584527 0.309570 1.395401 0.000000 0.000000 0.000000
0.583147 0.313598 1.381937 0.000000 0.000000 0.000000
0.555130 0.377466 1.263193 0.000000 0.000000 0.000000
0.555760 0.365279 1.270035 0.000000 0.000000 0.000000
0.397699 0.355410 1.393114 0.000000 0.000000 0.000000
0.502096 0.318898 1.463011 0.000000 0.000000 0.000000
0.460579 0.316408 1.414001 0.000000 0.000000 0.000000
0.558323 0.372451 1.270816 0.000000 0.000000 0.000000
0.545631 0.371631 1.268196 0.000000 0.000000 0.000000
0.474567 0.312562 1.424520 0.000000 0.000000 0.000000
0.496724 0.320874 1.460780 0.000000 0.000000 0.000000
0.503570 0.319841 1.461174 0.000000 0.000000 0.000000
0.558965 0.373662 1.271958 0.000000 0.000000 0.000000
0.557679 0.369762 1.273450 0.000000 0.000000 0.000000
0.541668 0.375251 1.263848 0.000000 0.000000 0.000000
0.470456 0.313179 1.417850 0.000000 0.000000 0.000000
0.509364 0.316313 1.461329 0.000000 0.000000 0.000000
0.509893 0.320349 1.462153 0.000000 0.000000 0.000000
0.559006 0.375683 1.273069 0.000000 0.000000 0.000000
0.558001 0.371213 1.269397 0.000000 0.000000 0.000000
0.559290 0.375040 1.271944 0.000000 0.000000 0.000000
0.588001 0.320927 1.364715 0.000000 0.000000 0.000000
0.577132 0.323248 1.364951 0.000000 0.000000 0.000000
0.583122 0.325024 1.361035 0.000000 0.000000 0.000000
0.586817 0.326603 1.357377 0.000000 0.000000 0.000000
0.587519 0.318982 1.377843 0.000000 0.000000 0.000000
0.493334 0.435856 1.242065 0.000000 0.000000 0.000000
0.501756 0.445948 1.248165 0.000000 0.000000 0.000000
0.506062 0.439735 1.244015 0.000000 0.000000 0.000000
0.492670 0.449189 1.241394 0.000000 0.000000 0.000000
0.588576 0.327919 1.351087 0.000000 0.000000 0.000000
0.586286 0.326858 1.350545 0.000000 0.000000 0.000000
0.589350 0.326441 1.357347 0.000000 0.000000 0.000000
0.580907 0.319660 1.380445 0.000000 0.000000 0.000000
0.499999 0.436848 1.243039 0.000000 0.000000 0.000000
0.512477 0.436025 1.249946 0.000000 0.000000 0.000000
0.513161 0.435254 1.244737 0.000000 0.000000 0.000000
0.498928 0.446200 1.242106 0.000000 0.000000 0.000000
0.586406 0.328405 1.351395 0.000000 0.000000 0.000000
0.550037 0.367496 1.278518 0.000000 0.000000 0.000000
0.547769 0.368582 1.264994 0.000000 0.000000 0.000000
0.548495 0.372824 1.265526 0.000000 0.000000 0.000000
0.560023 0.366694 1.269207 0.000000 0.000000 0.000000
0.540168 0.368726 1.273428 0.000000 0.000000 0.000000
0.556481 0.371739 1.269640 0.000000 0.000000 0.000000
0.435006 0.336734 1.415828 0.000000 0.000000 0.000000
0.533154 0.370922 1.278147 0.000000 0.000000 0.000000
0.528504 0.371852 1.271428 0.000000 0.000000 0.000000
0.562543 0.351041 1.309867 0.000000 0.000000 0.000000
0.545568 0.365141 1.286368 0.000000 0.000000 0.000000
0.555032 0.368151 1.275645 0.000000 0.000000 0.000000
0.554517 0.364643 1.281678 0.000000 0.000000 0.000000
0.556909 0.360056 1.275174 0.000000 0.000000 0.000000
0.538769 0.373204 1.265964 0.000000 0.000000 0.000000
0.531692 0.385531 1.257704 0.000000 0.000000 0.000000
0.429300 0.337779 1.412645 0.000000 0.000000 0.000000
0.516980 0.375824 1.282569 0.000000 0.000000 0.000000
0.545413 0.366078 1.286475 0.000000 0.000000 0.000000
0.569038 0.356249 1.293794 0.000000 0.000000 0.000000
0.554227 0.366629 1.280326 0.000000 0.000000 0.000000
0.558317 0.361829 1.279075 0.000000 0.000000 0.000000
0.556845 0.367215 1.273900 0.000000 0.000000 0.000000
0.409372 0.467033 1.244162 0.000000 0.000000 0.000000
0.566997 0.347820 1.314602 0.000000 0.000000 0.000000
0.428338 0.471687 1.237885 0.000000 0.000000 0.000000
0.565422 0.343508 1.313350 0.000000 0.000000 0.000000
0.405242 0.464070 1.246963 0.000000 0.000000 0.000000
0.568352 0.352558 1.302246 0.000000 0.000000 0.000000
0.504615 0.319016 1.465332 0.000000 0.000000 0.000000
0.502605 0.319743 1.463556 0.000000 0.000000 0.000000
0.536035 0.349287 1.316655 0.000000 0.000000 0.000000
0.531222 0.348639 1.322702 0.000000 0.000000 0.000000
0.554783 0.351919 1.308733 0.000000 0.000000 0.000000
0.571383 0.348226 1.312332 0.000000 0.000000 0.000000
0.576789 0.340480 1.319894 0.000000 0.000000 0.000000
0.567988 0.352864 1.306686 0.000000 0.000000 0.000000
0.563321 0.337534 1.331120 0.000000 0.000000 0.000000
0.563885 0.339609 1.327191 0.000000 0.000000 0.000000
0.405835 0.469363 1.241952 0.000000 0.000000 0.000000
0.561642 0.342218 1.323200 0.000000 0.000000 0.000000
0.571824 0.334258 1.337794 0.000000 0.000000 0.000000
0.582353 0.329007 1.349619 0.000000 0.000000 0.000000
0.577413 0.341064 1.319532 0.000000 0.000000 0.000000
0.574341 0.346316 1.312906 0.000000 0.000000 0.000000
0.579591 0.337852 1.325145 0.000000 0.000000 0.000000
0.578995 0.343353 1.323452 0.000000 0.000000 0.000000
0.574162 0.335261 1.330217 0.000000 0.000000 0.000000
0.530632 0.318678 1.460443 0.000000 0.000000 0.000000
0.374265 0.394912 1.355971 0.000000 0.000000 0.000000
0.398890 0.467677 1.248490 0.000000 0.000000 0.000000
0.557331 0.379439 1.273977 0.000000 0.000000 0.000000
0.548906 0.351875 1.311631 0.000000 0.000000 0.000000
0.494424 0.353581 1.350943 0.000000 0.000000 0.000000
0.554016 0.382544 1.263918 0.000000 0.000000 0.000000
0.525621 0.350742 1.331615 0.000000 0.000000 0.000000
0.536911 0.348683 1.319879 0.000000 0.000000 0.000000
0.557243 0.346739 1.316463 0.000000 0.000000 0.000000
0.560428 0.354941 1.306206 0.000000 0.000000 0.000000
0.569096 0.342868 1.317016 0.000000 0.000000 0.000000
