ply
format ascii 1.0
comment VCGLIB generated
obj_info Generated by SPFormer!
element vertex 884
property float x
property float y
property float z
property float nx
property float ny
property float nz
end_header
0.654454 0.835686 1.734155 0.000000 0.000000 0.000000
0.667973 0.802597 1.775472 0.000000 0.000000 0.000000
0.704518 0.786291 1.787912 0.000000 0.000000 0.000000
0.719072 0.839414 1.739103 0.000000 0.000000 0.000000
0.685893 0.787030 1.791636 0.000000 0.000000 0.000000
0.669110 0.776479 1.828766 0.000000 0.000000 0.000000
0.620890 0.831597 1.747891 0.000000 0.000000 0.000000
0.564081 0.929137 1.661108 0.000000 0.000000 0.000000
0.634832 0.795585 1.789402 0.000000 0.000000 0.000000
0.693599 0.806112 1.760485 0.000000 0.000000 0.000000
0.691998 0.810857 1.766984 0.000000 0.000000 0.000000
0.671479 0.804543 1.778666 0.000000 0.000000 0.000000
0.720483 0.830699 1.748112 0.000000 0.000000 0.000000
0.610251 0.937453 1.625195 0.000000 0.000000 0.000000
0.718271 0.883177 1.689571 0.000000 0.000000 0.000000
0.619215 0.779046 1.843288 0.000000 0.000000 0.000000
0.656739 0.781981 1.823704 0.000000 0.000000 0.000000
0.676614 0.905240 1.660745 0.000000 0.000000 0.000000
0.578487 0.932776 1.673218 0.000000 0.000000 0.000000
0.509632 0.872470 1.723454 0.000000 0.000000 0.000000
0.634331 0.780039 1.826130 0.000000 0.000000 0.000000
0.552243 0.808029 1.793990 0.000000 0.000000 0.000000
0.669137 0.865784 1.698174 0.000000 0.000000 0.000000
0.708014 0.827454 1.742573 0.000000 0.000000 0.000000
0.651510 0.779710 1.822773 0.000000 0.000000 0.000000
0.525241 0.888603 1.698112 0.000000 0.000000 0.000000
0.545233 0.804516 1.811166 0.000000 0.000000 0.000000
0.630160 0.930513 1.637588 0.000000 0.000000 0.000000
0.626572 0.781536 1.827973 0.000000 0.000000 0.000000
0.566879 0.794661 1.827266 0.000000 0.000000 0.000000
0.616263 0.785672 1.824309 0.000000 0.000000 0.000000
0.706474 0.834798 1.734329 0.000000 0.000000 0.000000
0.711383 0.884513 1.688354 0.000000 0.000000 0.000000
0.725662 0.838606 1.740076 0.000000 0.000000 0.000000
0.643452 0.777470 1.838098 0.000000 0.000000 0.000000
0.554808 0.801367 1.815911 0.000000 0.000000 0.000000
0.648740 0.779005 1.834067 0.000000 0.000000 0.000000
0.590477 0.945752 1.662345 0.000000 0.000000 0.000000
0.726659 0.801740 1.784603 0.000000 0.000000 0.000000
0.578094 0.796939 1.821223 0.000000 0.000000 0.000000
0.526541 0.911468 1.691853 0.000000 0.000000 0.000000
0.644442 0.916970 1.638203 0.000000 0.000000 0.000000
0.708428 0.807115 1.767471 0.000000 0.000000 0.000000
0.701890 0.827602 1.744054 0.000000 0.000000 0.000000
0.595027 0.797807 1.801138 0.000000 0.000000 0.000000
0.705835 0.807785 1.771673 0.000000 0.000000 0.000000
0.709686 0.884974 1.687590 0.000000 0.000000 0.000000
0.527916 0.828809 1.766291 0.000000 0.000000 0.000000
0.698785 0.816130 1.759829 0.000000 0.000000 0.000000
0.690148 0.908081 1.657864 0.000000 0.000000 0.000000
0.581906 0.851226 1.722717 0.000000 0.000000 0.000000
0.703929 0.858928 1.711523 0.000000 0.000000 0.000000
0.639825 0.773658 1.844627 0.000000 0.000000 0.000000
0.705834 0.794311 1.783657 0.000000 0.000000 0.000000
0.512983 0.887320 1.712137 0.000000 0.000000 0.000000
0.522727 0.890381 1.701290 0.000000 0.000000 0.000000
0.587638 0.791656 1.836161 0.000000 0.000000 0.000000
0.520386 0.899571 1.703644 0.000000 0.000000 0.000000
0.526591 0.895736 1.696449 0.000000 0.000000 0.000000
0.533518 0.868202 1.702557 0.000000 0.000000 0.000000
0.579337 0.897039 1.673966 0.000000 0.000000 0.000000
0.724866 0.833321 1.749863 0.000000 0.000000 0.000000
0.535584 0.822888 1.772017 0.000000 0.000000 0.000000
0.711162 0.851691 1.724809 0.000000 0.000000 0.000000
0.526827 0.876908 1.721968 0.000000 0.000000 0.000000
0.681419 0.833185 1.736324 0.000000 0.000000 0.000000
0.711656 0.883818 1.681999 0.000000 0.000000 0.000000
0.608062 0.785788 1.835988 0.000000 0.000000 0.000000
0.544589 0.894418 1.698766 0.000000 0.000000 0.000000
0.594489 0.874430 1.716973 0.000000 0.000000 0.000000
0.718131 0.863726 1.716060 0.000000 0.000000 0.000000
0.605737 0.927492 1.644771 0.000000 0.000000 0.000000
0.549182 0.812334 1.785240 0.000000 0.000000 0.000000
0.520189 0.887466 1.702276 0.000000 0.000000 0.000000
0.691536 0.899928 1.663692 0.000000 0.000000 0.000000
0.651136 0.907258 1.652376 0.000000 0.000000 0.000000
0.686648 0.902061 1.663564 0.000000 0.000000 0.000000
0.572975 0.794972 1.823832 0.000000 0.000000 0.000000
0.542472 0.805708 1.804295 0.000000 0.000000 0.000000
0.554746 0.814150 1.790670 0.000000 0.000000 0.000000
0.647274 0.885959 1.661086 0.000000 0.000000 0.000000
0.711329 0.876094 1.689228 0.000000 0.000000 0.000000
0.645820 0.842392 1.716139 0.000000 0.000000 0.000000
0.699497 0.894985 1.662935 0.000000 0.000000 0.000000
0.597070 0.910662 1.661359 0.000000 0.000000 0.000000
0.612641 0.791913 1.828915 0.000000 0.000000 0.000000
0.590367 0.793409 1.820583 0.000000 0.000000 0.000000
0.495653 0.866851 1.735914 0.000000 0.000000 0.000000
0.590618 0.850856 1.713291 0.000000 0.000000 0.000000
0.707530 0.882606 1.681067 0.000000 0.000000 0.000000
0.717008 0.893936 1.675055 0.000000 0.000000 0.000000
0.640034 0.785736 1.832020 0.000000 0.000000 0.000000
0.705986 0.867831 1.704330 0.000000 0.000000 0.000000
0.704456 0.878479 1.698117 0.000000 0.000000 0.000000
0.539382 0.806724 1.802554 0.000000 0.000000 0.000000
0.712533 0.828336 1.753534 0.000000 0.000000 0.000000
0.682138 0.876877 1.685389 0.000000 0.000000 0.000000
0.720625 0.866320 1.713659 0.000000 0.000000 0.000000
0.719855 0.836127 1.746627 0.000000 0.000000 0.000000
0.668702 0.849443 1.734279 0.000000 0.000000 0.000000
0.630628 0.920381 1.647521 0.000000 0.000000 0.000000
0.622188 0.783971 1.834042 0.000000 0.000000 0.000000
0.632735 0.786146 1.820116 0.000000 0.000000 0.000000
0.656374 0.930831 1.624570 0.000000 0.000000 0.000000
0.515886 0.870406 1.726083 0.000000 0.000000 0.000000
0.681507 0.899943 1.668513 0.000000 0.000000 0.000000
0.662624 0.884483 1.715799 0.000000 0.000000 0.000000
0.677188 0.927107 1.628985 0.000000 0.000000 0.000000
0.720377 0.870315 1.707468 0.000000 0.000000 0.000000
0.684996 0.865322 1.704823 0.000000 0.000000 0.000000
0.684993 0.921922 1.638281 0.000000 0.000000 0.000000
0.506579 0.868852 1.732186 0.000000 0.000000 0.000000
0.690753 0.899027 1.663661 0.000000 0.000000 0.000000
0.696761 0.896412 1.668925 0.000000 0.000000 0.000000
0.531586 0.817186 1.777804 0.000000 0.000000 0.000000
0.618479 0.940122 1.623095 0.000000 0.000000 0.000000
0.598837 0.785271 1.841565 0.000000 0.000000 0.000000
0.495113 0.866077 1.734295 0.000000 0.000000 0.000000
0.507988 0.879292 1.719852 0.000000 0.000000 0.000000
0.655345 0.936437 1.624341 0.000000 0.000000 0.000000
0.715050 0.845763 1.726919 0.000000 0.000000 0.000000
0.698446 0.853661 1.727420 0.000000 0.000000 0.000000
0.614827 0.780213 1.840227 0.000000 0.000000 0.000000
0.686240 0.780506 1.800745 0.000000 0.000000 0.000000
0.506071 0.868726 1.727169 0.000000 0.000000 0.000000
0.693186 0.895753 1.670298 0.000000 0.000000 0.000000
0.625112 0.936043 1.629882 0.000000 0.000000 0.000000
0.728091 0.809970 1.774150 0.000000 0.000000 0.000000
0.706717 0.891286 1.676415 0.000000 0.000000 0.000000
0.513313 0.853921 1.738213 0.000000 0.000000 0.000000
0.601662 0.785063 1.841635 0.000000 0.000000 0.000000
0.634389 0.778990 1.841506 0.000000 0.000000 0.000000
0.590946 0.791934 1.819399 0.000000 0.000000 0.000000
0.712732 0.796873 1.783604 0.000000 0.000000 0.000000
0.577812 0.844581 1.730952 0.000000 0.000000 0.000000
0.589285 0.788867 1.835031 0.000000 0.000000 0.000000
0.569335 0.798061 1.817569 0.000000 0.000000 0.000000
0.713802 0.787553 1.795995 0.000000 0.000000 0.000000
0.566261 0.850481 1.723786 0.000000 0.000000 0.000000
0.517328 0.814588 1.785859 0.000000 0.000000 0.000000
0.670427 0.922534 1.633379 0.000000 0.000000 0.000000
0.583051 0.868452 1.705698 0.000000 0.000000 0.000000
0.604720 0.954709 1.641345 0.000000 0.000000 0.000000
0.660955 0.923693 1.627414 0.000000 0.000000 0.000000
0.659563 0.909611 1.658407 0.000000 0.000000 0.000000
0.593645 0.787020 1.836198 0.000000 0.000000 0.000000
0.671689 0.922529 1.636878 0.000000 0.000000 0.000000
0.652799 0.775922 1.832518 0.000000 0.000000 0.000000
0.678738 0.790762 1.790033 0.000000 0.000000 0.000000
0.575484 0.899894 1.690951 0.000000 0.000000 0.000000
0.512392 0.818469 1.782296 0.000000 0.000000 0.000000
0.524428 0.808875 1.797512 0.000000 0.000000 0.000000
0.502085 0.867972 1.735057 0.000000 0.000000 0.000000
0.704493 0.896466 1.674714 0.000000 0.000000 0.000000
0.502773 0.868539 1.732365 0.000000 0.000000 0.000000
0.504279 0.835233 1.757385 0.000000 0.000000 0.000000
0.517983 0.828315 1.757900 0.000000 0.000000 0.000000
0.711415 0.892120 1.665974 0.000000 0.000000 0.000000
0.505994 0.826618 1.768091 0.000000 0.000000 0.000000
0.489992 0.849841 1.742426 0.000000 0.000000 0.000000
0.524756 0.833884 1.751187 0.000000 0.000000 0.000000
0.665285 0.777219 1.832775 0.000000 0.000000 0.000000
0.665526 0.777008 1.833231 0.000000 0.000000 0.000000
0.631849 0.782585 1.829805 0.000000 0.000000 0.000000
0.669396 0.781584 1.817332 0.000000 0.000000 0.000000
0.507651 0.864513 1.735296 0.000000 0.000000 0.000000
0.527428 0.808670 1.801422 0.000000 0.000000 0.000000
0.529788 0.805775 1.803653 0.000000 0.000000 0.000000
0.694468 0.891511 1.662050 0.000000 0.000000 0.000000
0.642502 0.781780 1.823884 0.000000 0.000000 0.000000
0.716016 0.850624 1.731240 0.000000 0.000000 0.000000
0.718586 0.866981 1.711387 0.000000 0.000000 0.000000
0.535579 0.808608 1.801061 0.000000 0.000000 0.000000
0.504760 0.835863 1.760553 0.000000 0.000000 0.000000
0.517915 0.840287 1.758298 0.000000 0.000000 0.000000
0.698573 0.908227 1.653060 0.000000 0.000000 0.000000
0.646128 0.777777 1.837049 0.000000 0.000000 0.000000
0.537645 0.825505 1.763952 0.000000 0.000000 0.000000
0.667008 0.779735 1.822747 0.000000 0.000000 0.000000
0.712816 0.833384 1.741457 0.000000 0.000000 0.000000
0.525994 0.810488 1.793882 0.000000 0.000000 0.000000
0.518202 0.823120 1.769100 0.000000 0.000000 0.000000
0.512493 0.834968 1.762101 0.000000 0.000000 0.000000
0.699497 0.904163 1.659731 0.000000 0.000000 0.000000
0.663267 0.780019 1.823627 0.000000 0.000000 0.000000
0.674301 0.781548 1.813366 0.000000 0.000000 0.000000
0.498544 0.841286 1.757635 0.000000 0.000000 0.000000
0.528364 0.811722 1.794196 0.000000 0.000000 0.000000
0.723831 0.850109 1.733617 0.000000 0.000000 0.000000
0.610574 0.788291 1.832031 0.000000 0.000000 0.000000
0.505577 0.838597 1.753107 0.000000 0.000000 0.000000
0.664700 0.784966 1.812132 0.000000 0.000000 0.000000
0.503842 0.850320 1.747697 0.000000 0.000000 0.000000
0.677583 0.783470 1.809157 0.000000 0.000000 0.000000
0.495755 0.867850 1.736288 0.000000 0.000000 0.000000
0.720499 0.817375 1.762772 0.000000 0.000000 0.000000
0.711230 0.789161 1.795064 0.000000 0.000000 0.000000
0.625017 0.842475 1.725727 0.000000 0.000000 0.000000
0.719752 0.867945 1.709383 0.000000 0.000000 0.000000
0.524157 0.865910 1.720181 0.000000 0.000000 0.000000
0.725493 0.861539 1.722181 0.000000 0.000000 0.000000
0.719229 0.880347 1.693678 0.000000 0.000000 0.000000
0.715229 0.867659 1.711105 0.000000 0.000000 0.000000
0.497697 0.870829 1.730788 0.000000 0.000000 0.000000
0.516122 0.860971 1.725466 0.000000 0.000000 0.000000
0.509932 0.856945 1.730012 0.000000 0.000000 0.000000
0.701256 0.864443 1.715228 0.000000 0.000000 0.000000
0.511129 0.853007 1.736999 0.000000 0.000000 0.000000
0.498264 0.855987 1.743464 0.000000 0.000000 0.000000
0.550387 0.803328 1.807813 0.000000 0.000000 0.000000
0.552133 0.810215 1.790460 0.000000 0.000000 0.000000
0.557713 0.814863 1.778841 0.000000 0.000000 0.000000
0.537107 0.877726 1.700395 0.000000 0.000000 0.000000
0.534125 0.812024 1.792159 0.000000 0.000000 0.000000
0.512763 0.878170 1.723985 0.000000 0.000000 0.000000
0.699012 0.910649 1.650796 0.000000 0.000000 0.000000
0.560077 0.814295 1.785066 0.000000 0.000000 0.000000
0.600657 0.915353 1.651165 0.000000 0.000000 0.000000
0.575184 0.820516 1.768292 0.000000 0.000000 0.000000
0.516370 0.901060 1.704584 0.000000 0.000000 0.000000
0.534603 0.809399 1.797270 0.000000 0.000000 0.000000
0.515207 0.879428 1.709228 0.000000 0.000000 0.000000
0.713864 0.906820 1.648027 0.000000 0.000000 0.000000
0.688292 0.907840 1.644309 0.000000 0.000000 0.000000
0.692003 0.911060 1.649747 0.000000 0.000000 0.000000
0.620357 0.821169 1.752900 0.000000 0.000000 0.000000
0.623769 0.887453 1.695311 0.000000 0.000000 0.000000
0.569043 0.896029 1.684412 0.000000 0.000000 0.000000
0.624690 0.906006 1.639630 0.000000 0.000000 0.000000
0.700984 0.796084 1.782697 0.000000 0.000000 0.000000
0.571849 0.848675 1.721631 0.000000 0.000000 0.000000
0.631886 0.942071 1.619186 0.000000 0.000000 0.000000
0.677716 0.920939 1.641387 0.000000 0.000000 0.000000
0.509252 0.871173 1.723591 0.000000 0.000000 0.000000
0.645535 0.850272 1.712065 0.000000 0.000000 0.000000
0.612159 0.830143 1.763906 0.000000 0.000000 0.000000
0.491779 0.875165 1.726721 0.000000 0.000000 0.000000
0.640052 0.923185 1.628830 0.000000 0.000000 0.000000
0.722702 0.807136 1.776630 0.000000 0.000000 0.000000
0.643138 0.838696 1.741752 0.000000 0.000000 0.000000
0.610176 0.786149 1.826601 0.000000 0.000000 0.000000
0.513367 0.878028 1.713749 0.000000 0.000000 0.000000
0.665588 0.916738 1.640446 0.000000 0.000000 0.000000
0.673055 0.790197 1.801139 0.000000 0.000000 0.000000
0.513948 0.847872 1.750591 0.000000 0.000000 0.000000
0.510498 0.826545 1.762411 0.000000 0.000000 0.000000
0.681617 0.786358 1.797567 0.000000 0.000000 0.000000
0.574700 0.866756 1.708156 0.000000 0.000000 0.000000
0.564776 0.890642 1.682424 0.000000 0.000000 0.000000
0.629686 0.774793 1.846102 0.000000 0.000000 0.000000
0.651259 0.775449 1.840743 0.000000 0.000000 0.000000
0.706336 0.897657 1.664322 0.000000 0.000000 0.000000
0.611082 0.902269 1.672869 0.000000 0.000000 0.000000
0.521465 0.839590 1.744059 0.000000 0.000000 0.000000
0.563600 0.851223 1.719615 0.000000 0.000000 0.000000
0.676111 0.789939 1.792746 0.000000 0.000000 0.000000
0.507184 0.851410 1.741652 0.000000 0.000000 0.000000
0.659572 0.775415 1.838045 0.000000 0.000000 0.000000
0.588489 0.828430 1.741543 0.000000 0.000000 0.000000
0.623983 0.776622 1.845842 0.000000 0.000000 0.000000
0.619150 0.780330 1.837872 0.000000 0.000000 0.000000
0.503566 0.879730 1.721759 0.000000 0.000000 0.000000
0.723976 0.875441 1.701987 0.000000 0.000000 0.000000
0.704273 0.900372 1.663812 0.000000 0.000000 0.000000
0.697287 0.897918 1.661303 0.000000 0.000000 0.000000
0.642226 0.897323 1.674915 0.000000 0.000000 0.000000
0.585780 0.868719 1.703680 0.000000 0.000000 0.000000
0.575432 0.817063 1.766717 0.000000 0.000000 0.000000
0.495289 0.859306 1.740306 0.000000 0.000000 0.000000
0.620357 0.778280 1.842314 0.000000 0.000000 0.000000
0.499328 0.835714 1.760435 0.000000 0.000000 0.000000
0.712284 0.892597 1.669297 0.000000 0.000000 0.000000
0.506330 0.873480 1.720202 0.000000 0.000000 0.000000
0.713836 0.902321 1.659833 0.000000 0.000000 0.000000
0.701626 0.912389 1.652561 0.000000 0.000000 0.000000
0.585080 0.878756 1.690431 0.000000 0.000000 0.000000
0.717803 0.899977 1.666564 0.000000 0.000000 0.000000
0.510175 0.824460 1.769751 0.000000 0.000000 0.000000
0.515341 0.817329 1.782408 0.000000 0.000000 0.000000
0.566036 0.881019 1.692217 0.000000 0.000000 0.000000
0.717538 0.797974 1.786059 0.000000 0.000000 0.000000
0.722471 0.863436 1.718136 0.000000 0.000000 0.000000
0.711972 0.797020 1.780410 0.000000 0.000000 0.000000
0.534903 0.841856 1.738640 0.000000 0.000000 0.000000
0.529575 0.860704 1.723018 0.000000 0.000000 0.000000
0.723725 0.848568 1.734802 0.000000 0.000000 0.000000
0.655957 0.912204 1.637677 0.000000 0.000000 0.000000
0.703552 0.896855 1.665715 0.000000 0.000000 0.000000
0.673141 0.917311 1.635828 0.000000 0.000000 0.000000
0.700263 0.915854 1.644446 0.000000 0.000000 0.000000
0.720591 0.860056 1.724389 0.000000 0.000000 0.000000
0.716674 0.797103 1.786274 0.000000 0.000000 0.000000
0.713701 0.844392 1.733291 0.000000 0.000000 0.000000
0.718972 0.864868 1.711972 0.000000 0.000000 0.000000
0.694463 0.909544 1.640851 0.000000 0.000000 0.000000
0.673679 0.931675 1.622624 0.000000 0.000000 0.000000
0.564493 0.862186 1.703591 0.000000 0.000000 0.000000
0.673690 0.914375 1.635947 0.000000 0.000000 0.000000
0.513451 0.871221 1.715892 0.000000 0.000000 0.000000
0.549540 0.884018 1.689919 0.000000 0.000000 0.000000
0.551442 0.838019 1.739364 0.000000 0.000000 0.000000
0.638101 0.903299 1.648848 0.000000 0.000000 0.000000
0.708844 0.895408 1.663438 0.000000 0.000000 0.000000
0.702710 0.903556 1.651746 0.000000 0.000000 0.000000
0.566493 0.854897 1.730389 0.000000 0.000000 0.000000
0.543383 0.837693 1.746509 0.000000 0.000000 0.000000
0.590363 0.884011 1.673288 0.000000 0.000000 0.000000
0.700791 0.910131 1.646446 0.000000 0.000000 0.000000
0.692942 0.918592 1.635156 0.000000 0.000000 0.000000
0.706590 0.904848 1.658091 0.000000 0.000000 0.000000
0.660123 0.920352 1.635144 0.000000 0.000000 0.000000
0.679406 0.921774 1.631616 0.000000 0.000000 0.000000
0.505638 0.863331 1.722346 0.000000 0.000000 0.000000
0.722679 0.865137 1.716278 0.000000 0.000000 0.000000
0.710365 0.785106 1.798595 0.000000 0.000000 0.000000
0.592024 0.789441 1.832524 0.000000 0.000000 0.000000
0.706496 0.847251 1.728879 0.000000 0.000000 0.000000
0.721955 0.872243 1.704500 0.000000 0.000000 0.000000
0.692693 0.916482 1.638916 0.000000 0.000000 0.000000
0.532319 0.901527 1.682557 0.000000 0.000000 0.000000
0.539639 0.852693 1.724557 0.000000 0.000000 0.000000
0.554416 0.839673 1.737232 0.000000 0.000000 0.000000
0.625466 0.775917 1.851032 0.000000 0.000000 0.000000
0.561471 0.919073 1.657259 0.000000 0.000000 0.000000
0.706526 0.911727 1.647063 0.000000 0.000000 0.000000
0.713970 0.788347 1.799302 0.000000 0.000000 0.000000
0.720936 0.869261 1.706820 0.000000 0.000000 0.000000
0.717026 0.855871 1.722905 0.000000 0.000000 0.000000
0.720147 0.892011 1.677396 0.000000 0.000000 0.000000
0.719789 0.877100 1.697705 0.000000 0.000000 0.000000
0.707578 0.873359 1.699459 0.000000 0.000000 0.000000
0.714983 0.874604 1.693177 0.000000 0.000000 0.000000
0.681874 0.779195 1.815840 0.000000 0.000000 0.000000
0.613666 0.789294 1.837195 0.000000 0.000000 0.000000
0.691954 0.915843 1.642504 0.000000 0.000000 0.000000
0.628215 0.778053 1.839003 0.000000 0.000000 0.000000
0.715056 0.866926 1.711823 0.000000 0.000000 0.000000
0.719208 0.878116 1.696302 0.000000 0.000000 0.000000
0.710611 0.867125 1.707753 0.000000 0.000000 0.000000
0.710717 0.871404 1.706611 0.000000 0.000000 0.000000
0.603696 0.880126 1.680381 0.000000 0.000000 0.000000
0.715190 0.789145 1.795560 0.000000 0.000000 0.000000
0.509581 0.828262 1.768544 0.000000 0.000000 0.000000
0.506104 0.828650 1.766687 0.000000 0.000000 0.000000
0.501534 0.832184 1.761698 0.000000 0.000000 0.000000
0.727946 0.884225 1.697832 0.000000 0.000000 0.000000
0.517002 0.827174 1.763041 0.000000 0.000000 0.000000
0.523901 0.869052 1.709427 0.000000 0.000000 0.000000
0.595218 0.846988 1.720443 0.000000 0.000000 0.000000
0.648578 0.780553 1.826072 0.000000 0.000000 0.000000
0.512701 0.816703 1.783925 0.000000 0.000000 0.000000
0.713814 0.787510 1.793198 0.000000 0.000000 0.000000
0.512165 0.840239 1.751041 0.000000 0.000000 0.000000
0.509146 0.830622 1.761385 0.000000 0.000000 0.000000
0.519883 0.827267 1.762381 0.000000 0.000000 0.000000
0.633414 0.910741 1.636932 0.000000 0.000000 0.000000
0.559126 0.849634 1.732916 0.000000 0.000000 0.000000
0.509260 0.818573 1.778154 0.000000 0.000000 0.000000
0.506326 0.842204 1.749968 0.000000 0.000000 0.000000
0.724378 0.859827 1.725291 0.000000 0.000000 0.000000
0.531872 0.842700 1.737285 0.000000 0.000000 0.000000
0.630231 0.848593 1.707784 0.000000 0.000000 0.000000
0.662152 0.846284 1.706368 0.000000 0.000000 0.000000
0.649665 0.770978 1.841039 0.000000 0.000000 0.000000
0.715215 0.794628 1.784704 0.000000 0.000000 0.000000
0.707183 0.808809 1.772231 0.000000 0.000000 0.000000
0.517867 0.842768 1.743266 0.000000 0.000000 0.000000
0.513011 0.820651 1.775274 0.000000 0.000000 0.000000
0.519168 0.843462 1.742499 0.000000 0.000000 0.000000
0.515534 0.815909 1.783050 0.000000 0.000000 0.000000
0.516889 0.818685 1.777411 0.000000 0.000000 0.000000
0.533853 0.824079 1.765673 0.000000 0.000000 0.000000
0.593689 0.866596 1.719377 0.000000 0.000000 0.000000
0.516228 0.822365 1.770882 0.000000 0.000000 0.000000
0.519163 0.828098 1.767407 0.000000 0.000000 0.000000
0.586312 0.913292 1.656738 0.000000 0.000000 0.000000
0.724150 0.854394 1.729657 0.000000 0.000000 0.000000
0.708203 0.902007 1.655915 0.000000 0.000000 0.000000
0.723396 0.867244 1.713657 0.000000 0.000000 0.000000
0.704214 0.858825 1.713491 0.000000 0.000000 0.000000
0.715872 0.861325 1.715315 0.000000 0.000000 0.000000
0.712565 0.844850 1.731423 0.000000 0.000000 0.000000
0.531701 0.815671 1.784528 0.000000 0.000000 0.000000
0.717641 0.894218 1.672190 0.000000 0.000000 0.000000
0.720320 0.876970 1.697180 0.000000 0.000000 0.000000
0.712137 0.869393 1.702122 0.000000 0.000000 0.000000
0.579958 0.922040 1.643622 0.000000 0.000000 0.000000
0.692847 0.882917 1.677652 0.000000 0.000000 0.000000
0.517391 0.873653 1.731274 0.000000 0.000000 0.000000
0.679274 0.898378 1.657379 0.000000 0.000000 0.000000
0.723377 0.856920 1.728103 0.000000 0.000000 0.000000
0.621442 0.905094 1.643631 0.000000 0.000000 0.000000
0.634384 0.880761 1.663567 0.000000 0.000000 0.000000
0.691624 0.903700 1.652244 0.000000 0.000000 0.000000
0.676486 0.894168 1.663595 0.000000 0.000000 0.000000
0.726165 0.863584 1.719161 0.000000 0.000000 0.000000
0.642354 0.909328 1.640107 0.000000 0.000000 0.000000
0.627978 0.877576 1.667543 0.000000 0.000000 0.000000
0.659189 0.876218 1.671656 0.000000 0.000000 0.000000
0.495524 0.851074 1.745857 0.000000 0.000000 0.000000
0.647548 0.900837 1.652615 0.000000 0.000000 0.000000
0.496473 0.838805 1.754916 0.000000 0.000000 0.000000
0.635535 0.944457 1.620696 0.000000 0.000000 0.000000
0.626966 0.946911 1.616908 0.000000 0.000000 0.000000
0.649659 0.933266 1.622447 0.000000 0.000000 0.000000
0.636184 0.938987 1.619733 0.000000 0.000000 0.000000
0.507053 0.829281 1.767397 0.000000 0.000000 0.000000
0.622594 0.852775 1.725538 0.000000 0.000000 0.000000
0.718295 0.891761 1.680889 0.000000 0.000000 0.000000
0.622710 0.942190 1.620049 0.000000 0.000000 0.000000
0.638195 0.941890 1.619547 0.000000 0.000000 0.000000
0.507408 0.834077 1.759155 0.000000 0.000000 0.000000
0.611815 0.784042 1.831335 0.000000 0.000000 0.000000
0.567429 0.797418 1.823090 0.000000 0.000000 0.000000
0.522896 0.811997 1.789266 0.000000 0.000000 0.000000
0.723767 0.866722 1.713545 0.000000 0.000000 0.000000
0.571729 0.808224 1.789375 0.000000 0.000000 0.000000
0.587319 0.787429 1.834646 0.000000 0.000000 0.000000
0.583636 0.790496 1.832910 0.000000 0.000000 0.000000
0.718954 0.897641 1.670007 0.000000 0.000000 0.000000
0.638751 0.777165 1.835587 0.000000 0.000000 0.000000
0.558125 0.832907 1.745758 0.000000 0.000000 0.000000
0.578407 0.791755 1.830382 0.000000 0.000000 0.000000
0.631910 0.779654 1.838891 0.000000 0.000000 0.000000
0.552046 0.817063 1.775773 0.000000 0.000000 0.000000
0.586428 0.794854 1.823240 0.000000 0.000000 0.000000
0.534126 0.817792 1.779047 0.000000 0.000000 0.000000
0.594896 0.790196 1.824233 0.000000 0.000000 0.000000
0.587386 0.791156 1.827140 0.000000 0.000000 0.000000
0.720726 0.878134 1.696184 0.000000 0.000000 0.000000
0.637408 0.775690 1.838369 0.000000 0.000000 0.000000
0.536663 0.822879 1.767141 0.000000 0.000000 0.000000
0.570860 0.794215 1.828833 0.000000 0.000000 0.000000
0.721600 0.887644 1.688244 0.000000 0.000000 0.000000
0.607013 0.785064 1.835431 0.000000 0.000000 0.000000
0.562611 0.930846 1.659450 0.000000 0.000000 0.000000
0.503041 0.857703 1.739832 0.000000 0.000000 0.000000
0.529435 0.878304 1.695362 0.000000 0.000000 0.000000
0.514605 0.887370 1.718632 0.000000 0.000000 0.000000
0.517524 0.901569 1.703891 0.000000 0.000000 0.000000
0.685767 0.779982 1.811404 0.000000 0.000000 0.000000
0.526176 0.854591 1.724198 0.000000 0.000000 0.000000
0.617405 0.778969 1.846709 0.000000 0.000000 0.000000
0.616858 0.780625 1.839028 0.000000 0.000000 0.000000
0.532594 0.878454 1.697314 0.000000 0.000000 0.000000
0.520579 0.887976 1.703116 0.000000 0.000000 0.000000
0.543470 0.854630 1.718419 0.000000 0.000000 0.000000
0.522738 0.891807 1.700099 0.000000 0.000000 0.000000
0.517085 0.814129 1.789103 0.000000 0.000000 0.000000
0.578359 0.793136 1.830752 0.000000 0.000000 0.000000
0.672069 0.926569 1.626577 0.000000 0.000000 0.000000
0.689514 0.779278 1.810983 0.000000 0.000000 0.000000
0.514002 0.864985 1.722314 0.000000 0.000000 0.000000
0.710261 0.904484 1.659222 0.000000 0.000000 0.000000
0.515657 0.867178 1.712973 0.000000 0.000000 0.000000
0.499431 0.861604 1.736601 0.000000 0.000000 0.000000
0.603603 0.782714 1.842042 0.000000 0.000000 0.000000
0.561823 0.907934 1.665835 0.000000 0.000000 0.000000
0.710382 0.785226 1.799645 0.000000 0.000000 0.000000
0.644549 0.773869 1.836790 0.000000 0.000000 0.000000
0.709985 0.909807 1.650358 0.000000 0.000000 0.000000
0.572528 0.925461 1.644105 0.000000 0.000000 0.000000
0.500766 0.863216 1.737807 0.000000 0.000000 0.000000
0.506481 0.877935 1.716264 0.000000 0.000000 0.000000
0.606426 0.928207 1.631207 0.000000 0.000000 0.000000
0.535442 0.866989 1.706932 0.000000 0.000000 0.000000
0.622382 0.893605 1.653977 0.000000 0.000000 0.000000
0.503576 0.870784 1.726092 0.000000 0.000000 0.000000
0.521516 0.854954 1.732096 0.000000 0.000000 0.000000
0.670949 0.931478 1.625798 0.000000 0.000000 0.000000
0.573532 0.924663 1.652219 0.000000 0.000000 0.000000
0.707406 0.907880 1.650515 0.000000 0.000000 0.000000
0.496249 0.869887 1.732587 0.000000 0.000000 0.000000
0.513116 0.858416 1.735676 0.000000 0.000000 0.000000
0.639773 0.774291 1.844535 0.000000 0.000000 0.000000
0.651416 0.788058 1.810974 0.000000 0.000000 0.000000
0.499541 0.827777 1.766435 0.000000 0.000000 0.000000
0.523694 0.818271 1.782722 0.000000 0.000000 0.000000
0.643411 0.774242 1.841731 0.000000 0.000000 0.000000
0.595159 0.843419 1.750748 0.000000 0.000000 0.000000
0.550633 0.829293 1.772759 0.000000 0.000000 0.000000
0.533989 0.825820 1.776050 0.000000 0.000000 0.000000
0.619173 0.781773 1.837243 0.000000 0.000000 0.000000
0.523161 0.900695 1.693072 0.000000 0.000000 0.000000
0.689248 0.778233 1.813469 0.000000 0.000000 0.000000
0.705353 0.782352 1.801496 0.000000 0.000000 0.000000
0.580439 0.796375 1.816519 0.000000 0.000000 0.000000
0.576016 0.797980 1.814954 0.000000 0.000000 0.000000
0.515802 0.823410 1.774471 0.000000 0.000000 0.000000
0.530854 0.819467 1.783420 0.000000 0.000000 0.000000
0.707731 0.787816 1.789371 0.000000 0.000000 0.000000
0.509652 0.823656 1.772394 0.000000 0.000000 0.000000
0.515541 0.902957 1.702667 0.000000 0.000000 0.000000
0.713573 0.887096 1.680952 0.000000 0.000000 0.000000
0.643499 0.773421 1.844346 0.000000 0.000000 0.000000
0.703769 0.914844 1.642347 0.000000 0.000000 0.000000
0.525313 0.821357 1.772225 0.000000 0.000000 0.000000
0.576653 0.790582 1.834625 0.000000 0.000000 0.000000
0.581559 0.792209 1.824888 0.000000 0.000000 0.000000
0.645764 0.773422 1.839447 0.000000 0.000000 0.000000
0.711632 0.850151 1.734926 0.000000 0.000000 0.000000
0.707130 0.906608 1.655120 0.000000 0.000000 0.000000
0.506439 0.890157 1.716963 0.000000 0.000000 0.000000
0.510662 0.894034 1.709181 0.000000 0.000000 0.000000
0.721094 0.847346 1.734534 0.000000 0.000000 0.000000
0.649302 0.776913 1.831581 0.000000 0.000000 0.000000
0.497732 0.829769 1.764548 0.000000 0.000000 0.000000
0.715859 0.902813 1.661617 0.000000 0.000000 0.000000
0.713215 0.898685 1.661743 0.000000 0.000000 0.000000
0.636898 0.775141 1.847169 0.000000 0.000000 0.000000
0.695814 0.781924 1.806543 0.000000 0.000000 0.000000
0.716680 0.829466 1.750042 0.000000 0.000000 0.000000
0.641540 0.775627 1.835565 0.000000 0.000000 0.000000
0.513294 0.819143 1.777848 0.000000 0.000000 0.000000
0.706385 0.909692 1.648723 0.000000 0.000000 0.000000
0.607721 0.782298 1.846350 0.000000 0.000000 0.000000
0.531073 0.903756 1.689846 0.000000 0.000000 0.000000
0.529139 0.896674 1.683798 0.000000 0.000000 0.000000
0.606483 0.802473 1.784370 0.000000 0.000000 0.000000
0.666204 0.928659 1.629506 0.000000 0.000000 0.000000
0.633487 0.804964 1.779002 0.000000 0.000000 0.000000
0.622832 0.810778 1.769072 0.000000 0.000000 0.000000
0.713998 0.790998 1.798638 0.000000 0.000000 0.000000
0.627310 0.941972 1.621078 0.000000 0.000000 0.000000
0.670952 0.780110 1.822528 0.000000 0.000000 0.000000
0.527396 0.809943 1.795848 0.000000 0.000000 0.000000
0.591084 0.791419 1.830578 0.000000 0.000000 0.000000
0.528120 0.912511 1.690391 0.000000 0.000000 0.000000
0.649370 0.805247 1.776554 0.000000 0.000000 0.000000
0.680670 0.925977 1.626452 0.000000 0.000000 0.000000
0.611459 0.801319 1.778890 0.000000 0.000000 0.000000
0.558454 0.797767 1.822920 0.000000 0.000000 0.000000
0.665827 0.777028 1.830189 0.000000 0.000000 0.000000
0.536443 0.805195 1.806878 0.000000 0.000000 0.000000
0.549226 0.863940 1.706063 0.000000 0.000000 0.000000
0.542527 0.812025 1.789823 0.000000 0.000000 0.000000
0.573977 0.790722 1.837596 0.000000 0.000000 0.000000
0.497457 0.872557 1.725805 0.000000 0.000000 0.000000
0.608779 0.940383 1.623848 0.000000 0.000000 0.000000
0.495701 0.874808 1.730931 0.000000 0.000000 0.000000
0.721666 0.864747 1.714727 0.000000 0.000000 0.000000
0.496969 0.859040 1.743680 0.000000 0.000000 0.000000
0.715560 0.890748 1.677190 0.000000 0.000000 0.000000
0.594303 0.924796 1.640897 0.000000 0.000000 0.000000
0.525056 0.903959 1.692721 0.000000 0.000000 0.000000
0.513635 0.895710 1.712218 0.000000 0.000000 0.000000
0.717299 0.899195 1.666243 0.000000 0.000000 0.000000
0.521117 0.904848 1.696968 0.000000 0.000000 0.000000
0.601661 0.926600 1.631428 0.000000 0.000000 0.000000
0.717806 0.880617 1.691779 0.000000 0.000000 0.000000
0.594565 0.896290 1.680395 0.000000 0.000000 0.000000
0.643323 0.940072 1.618161 0.000000 0.000000 0.000000
0.606585 0.940147 1.624123 0.000000 0.000000 0.000000
0.520714 0.908731 1.694585 0.000000 0.000000 0.000000
0.500303 0.865675 1.729811 0.000000 0.000000 0.000000
0.600712 0.914451 1.640855 0.000000 0.000000 0.000000
0.586536 0.913087 1.644560 0.000000 0.000000 0.000000
0.633964 0.932631 1.622373 0.000000 0.000000 0.000000
0.714504 0.790285 1.789428 0.000000 0.000000 0.000000
0.515049 0.892962 1.716782 0.000000 0.000000 0.000000
0.716937 0.888820 1.679279 0.000000 0.000000 0.000000
0.522990 0.897867 1.712357 0.000000 0.000000 0.000000
0.532593 0.904303 1.680653 0.000000 0.000000 0.000000
0.508579 0.827204 1.767135 0.000000 0.000000 0.000000
0.595794 0.812556 1.775746 0.000000 0.000000 0.000000
0.594075 0.909450 1.640260 0.000000 0.000000 0.000000
0.529378 0.896753 1.688812 0.000000 0.000000 0.000000
0.523357 0.882743 1.705500 0.000000 0.000000 0.000000
0.627262 0.811429 1.773515 0.000000 0.000000 0.000000
0.708772 0.897354 1.665205 0.000000 0.000000 0.000000
0.696440 0.782344 1.813995 0.000000 0.000000 0.000000
0.554034 0.808737 1.797816 0.000000 0.000000 0.000000
0.698450 0.778559 1.808341 0.000000 0.000000 0.000000
0.566388 0.804071 1.805291 0.000000 0.000000 0.000000
0.573002 0.798803 1.817135 0.000000 0.000000 0.000000
0.720960 0.802320 1.781970 0.000000 0.000000 0.000000
0.725179 0.814243 1.768146 0.000000 0.000000 0.000000
0.492360 0.854934 1.745303 0.000000 0.000000 0.000000
0.535141 0.809872 1.794182 0.000000 0.000000 0.000000
0.518639 0.905317 1.700974 0.000000 0.000000 0.000000
0.533500 0.805722 1.809388 0.000000 0.000000 0.000000
0.529401 0.887035 1.700041 0.000000 0.000000 0.000000
0.667404 0.941000 1.615563 0.000000 0.000000 0.000000
0.541637 0.802140 1.817516 0.000000 0.000000 0.000000
0.715257 0.824760 1.750674 0.000000 0.000000 0.000000
0.500312 0.829713 1.767130 0.000000 0.000000 0.000000
0.724317 0.832816 1.751305 0.000000 0.000000 0.000000
0.498619 0.874716 1.729706 0.000000 0.000000 0.000000
0.567009 0.924636 1.656399 0.000000 0.000000 0.000000
0.537329 0.805063 1.806389 0.000000 0.000000 0.000000
0.658191 0.940955 1.616540 0.000000 0.000000 0.000000
0.538158 0.807155 1.800020 0.000000 0.000000 0.000000
0.536766 0.803457 1.810035 0.000000 0.000000 0.000000
0.537643 0.805634 1.804772 0.000000 0.000000 0.000000
0.513929 0.895492 1.713105 0.000000 0.000000 0.000000
0.539745 0.803428 1.811110 0.000000 0.000000 0.000000
0.608539 0.946516 1.619869 0.000000 0.000000 0.000000
0.621320 0.903267 1.643786 0.000000 0.000000 0.000000
0.512143 0.817441 1.781275 0.000000 0.000000 0.000000
0.516217 0.814758 1.785566 0.000000 0.000000 0.000000
0.645477 0.772870 1.841025 0.000000 0.000000 0.000000
0.627353 0.901958 1.653288 0.000000 0.000000 0.000000
0.535075 0.806666 1.803937 0.000000 0.000000 0.000000
0.522595 0.895188 1.703866 0.000000 0.000000 0.000000
0.522013 0.894871 1.703196 0.000000 0.000000 0.000000
0.535096 0.912306 1.682172 0.000000 0.000000 0.000000
0.624591 0.887014 1.658432 0.000000 0.000000 0.000000
0.537590 0.820803 1.775601 0.000000 0.000000 0.000000
0.496636 0.874097 1.729091 0.000000 0.000000 0.000000
0.522412 0.898976 1.701712 0.000000 0.000000 0.000000
0.519834 0.886893 1.704345 0.000000 0.000000 0.000000
0.528114 0.893646 1.697217 0.000000 0.000000 0.000000
0.497060 0.869552 1.732137 0.000000 0.000000 0.000000
0.562275 0.931134 1.661933 0.000000 0.000000 0.000000
0.713998 0.900092 1.663464 0.000000 0.000000 0.000000
0.665733 0.777247 1.835570 0.000000 0.000000 0.000000
0.663055 0.777720 1.824047 0.000000 0.000000 0.000000
0.673729 0.777478 1.822373 0.000000 0.000000 0.000000
0.626562 0.903670 1.656052 0.000000 0.000000 0.000000
0.523361 0.810943 1.793387 0.000000 0.000000 0.000000
0.511855 0.816842 1.781479 0.000000 0.000000 0.000000
0.656115 0.778051 1.827792 0.000000 0.000000 0.000000
0.671251 0.777293 1.826182 0.000000 0.000000 0.000000
0.669954 0.937737 1.617851 0.000000 0.000000 0.000000
0.588057 0.912603 1.654805 0.000000 0.000000 0.000000
0.509430 0.818269 1.782386 0.000000 0.000000 0.000000
0.540652 0.829213 1.764115 0.000000 0.000000 0.000000
0.723965 0.825815 1.755551 0.000000 0.000000 0.000000
0.534733 0.806851 1.802532 0.000000 0.000000 0.000000
0.721068 0.894364 1.676577 0.000000 0.000000 0.000000
0.717932 0.895035 1.679087 0.000000 0.000000 0.000000
0.723660 0.833775 1.751041 0.000000 0.000000 0.000000
0.716775 0.825563 1.753064 0.000000 0.000000 0.000000
0.660973 0.938222 1.621132 0.000000 0.000000 0.000000
0.722711 0.827817 1.753180 0.000000 0.000000 0.000000
0.725644 0.830026 1.757491 0.000000 0.000000 0.000000
0.725899 0.844278 1.738425 0.000000 0.000000 0.000000
0.723694 0.819747 1.760795 0.000000 0.000000 0.000000
0.652334 0.932602 1.625555 0.000000 0.000000 0.000000
0.726785 0.831246 1.749752 0.000000 0.000000 0.000000
0.605022 0.782117 1.845016 0.000000 0.000000 0.000000
0.605534 0.781445 1.845696 0.000000 0.000000 0.000000
0.613181 0.779195 1.845542 0.000000 0.000000 0.000000
0.631614 0.783746 1.840732 0.000000 0.000000 0.000000
0.609522 0.941879 1.623174 0.000000 0.000000 0.000000
0.651052 0.775431 1.837475 0.000000 0.000000 0.000000
0.670413 0.778021 1.819881 0.000000 0.000000 0.000000
0.526976 0.811663 1.790843 0.000000 0.000000 0.000000
0.724892 0.816956 1.764845 0.000000 0.000000 0.000000
0.661975 0.775929 1.837855 0.000000 0.000000 0.000000
0.726675 0.822466 1.759708 0.000000 0.000000 0.000000
0.525631 0.881275 1.694512 0.000000 0.000000 0.000000
0.633681 0.938929 1.620426 0.000000 0.000000 0.000000
0.522550 0.882670 1.694112 0.000000 0.000000 0.000000
0.675159 0.934239 1.623926 0.000000 0.000000 0.000000
0.510382 0.816204 1.783692 0.000000 0.000000 0.000000
0.723207 0.854135 1.730961 0.000000 0.000000 0.000000
0.540870 0.873668 1.698420 0.000000 0.000000 0.000000
0.648617 0.938345 1.622869 0.000000 0.000000 0.000000
0.664106 0.936831 1.619795 0.000000 0.000000 0.000000
0.492338 0.859603 1.731920 0.000000 0.000000 0.000000
0.498561 0.856724 1.743921 0.000000 0.000000 0.000000
0.651709 0.773444 1.836973 0.000000 0.000000 0.000000
0.632055 0.944747 1.618659 0.000000 0.000000 0.000000
0.516621 0.813628 1.787614 0.000000 0.000000 0.000000
0.506132 0.872585 1.728981 0.000000 0.000000 0.000000
0.718259 0.802112 1.781800 0.000000 0.000000 0.000000
0.658051 0.939108 1.619174 0.000000 0.000000 0.000000
0.718552 0.805724 1.776826 0.000000 0.000000 0.000000
0.720787 0.810062 1.771654 0.000000 0.000000 0.000000
0.492737 0.862622 1.739937 0.000000 0.000000 0.000000
0.641819 0.773452 1.847474 0.000000 0.000000 0.000000
0.589197 0.785326 1.845014 0.000000 0.000000 0.000000
0.596961 0.784221 1.842791 0.000000 0.000000 0.000000
0.713188 0.898251 1.667944 0.000000 0.000000 0.000000
0.715296 0.894674 1.675478 0.000000 0.000000 0.000000
0.712722 0.895222 1.665441 0.000000 0.000000 0.000000
0.526502 0.810975 1.794666 0.000000 0.000000 0.000000
0.586159 0.788266 1.835870 0.000000 0.000000 0.000000
0.658834 0.938756 1.618813 0.000000 0.000000 0.000000
0.591259 0.786656 1.840424 0.000000 0.000000 0.000000
0.488422 0.868998 1.733493 0.000000 0.000000 0.000000
0.597398 0.787718 1.841132 0.000000 0.000000 0.000000
0.583903 0.789054 1.835095 0.000000 0.000000 0.000000
0.601700 0.783291 1.842797 0.000000 0.000000 0.000000
0.562798 0.798237 1.819026 0.000000 0.000000 0.000000
0.641144 0.938100 1.621595 0.000000 0.000000 0.000000
0.589111 0.789398 1.837761 0.000000 0.000000 0.000000
0.607599 0.781502 1.842116 0.000000 0.000000 0.000000
0.603614 0.786794 1.840117 0.000000 0.000000 0.000000
0.603177 0.782728 1.844797 0.000000 0.000000 0.000000
0.613027 0.779748 1.844693 0.000000 0.000000 0.000000
0.613505 0.779605 1.844995 0.000000 0.000000 0.000000
0.567993 0.912833 1.670733 0.000000 0.000000 0.000000
0.605590 0.782286 1.844319 0.000000 0.000000 0.000000
0.531167 0.807452 1.804102 0.000000 0.000000 0.000000
0.718808 0.891032 1.680373 0.000000 0.000000 0.000000
0.557532 0.798217 1.821718 0.000000 0.000000 0.000000
0.720142 0.890174 1.680201 0.000000 0.000000 0.000000
0.632543 0.776403 1.842041 0.000000 0.000000 0.000000
0.572151 0.797887 1.816221 0.000000 0.000000 0.000000
0.717608 0.894270 1.673112 0.000000 0.000000 0.000000
0.562665 0.797583 1.818355 0.000000 0.000000 0.000000
0.715769 0.884499 1.687364 0.000000 0.000000 0.000000
0.598347 0.785490 1.836091 0.000000 0.000000 0.000000
0.558708 0.799185 1.814081 0.000000 0.000000 0.000000
0.712727 0.893793 1.673698 0.000000 0.000000 0.000000
0.507712 0.843356 1.746308 0.000000 0.000000 0.000000
0.547947 0.878374 1.695561 0.000000 0.000000 0.000000
0.604743 0.892520 1.693133 0.000000 0.000000 0.000000
0.599510 0.909711 1.655566 0.000000 0.000000 0.000000
0.556706 0.878985 1.691221 0.000000 0.000000 0.000000
0.532739 0.865837 1.717583 0.000000 0.000000 0.000000
0.533349 0.844036 1.736198 0.000000 0.000000 0.000000
0.650230 0.853955 1.696182 0.000000 0.000000 0.000000
0.527077 0.887766 1.712043 0.000000 0.000000 0.000000
0.600214 0.876628 1.696771 0.000000 0.000000 0.000000
0.564130 0.895259 1.681324 0.000000 0.000000 0.000000
0.535464 0.879577 1.698594 0.000000 0.000000 0.000000
0.536966 0.870879 1.701751 0.000000 0.000000 0.000000
0.681182 0.835323 1.725157 0.000000 0.000000 0.000000
0.535759 0.885589 1.691769 0.000000 0.000000 0.000000
0.636815 0.901378 1.657899 0.000000 0.000000 0.000000
0.527942 0.854695 1.727202 0.000000 0.000000 0.000000
0.523858 0.877956 1.702965 0.000000 0.000000 0.000000
0.645206 0.838328 1.715885 0.000000 0.000000 0.000000
0.542463 0.852692 1.721822 0.000000 0.000000 0.000000
0.636825 0.823463 1.754907 0.000000 0.000000 0.000000
0.561222 0.905958 1.669797 0.000000 0.000000 0.000000
0.539083 0.854398 1.720974 0.000000 0.000000 0.000000
0.599868 0.956969 1.641960 0.000000 0.000000 0.000000
0.609756 0.953648 1.643570 0.000000 0.000000 0.000000
0.494337 0.845398 1.749634 0.000000 0.000000 0.000000
0.571075 0.924610 1.648839 0.000000 0.000000 0.000000
0.719420 0.889825 1.680405 0.000000 0.000000 0.000000
0.590599 0.896239 1.667435 0.000000 0.000000 0.000000
0.498055 0.844105 1.750456 0.000000 0.000000 0.000000
0.604587 0.926985 1.636837 0.000000 0.000000 0.000000
0.674154 0.940087 1.618845 0.000000 0.000000 0.000000
0.571637 0.871592 1.701256 0.000000 0.000000 0.000000
0.597201 0.858523 1.718189 0.000000 0.000000 0.000000
0.641620 0.923025 1.635081 0.000000 0.000000 0.000000
0.498961 0.849454 1.746711 0.000000 0.000000 0.000000
0.552891 0.878566 1.687051 0.000000 0.000000 0.000000
0.497658 0.857449 1.742261 0.000000 0.000000 0.000000
0.573346 0.925676 1.646535 0.000000 0.000000 0.000000
0.562122 0.904895 1.669279 0.000000 0.000000 0.000000
0.710487 0.900958 1.661544 0.000000 0.000000 0.000000
0.502974 0.828353 1.767730 0.000000 0.000000 0.000000
0.579495 0.920409 1.647694 0.000000 0.000000 0.000000
0.521835 0.813830 1.785682 0.000000 0.000000 0.000000
0.618859 0.842460 1.732964 0.000000 0.000000 0.000000
0.724102 0.886770 1.686930 0.000000 0.000000 0.000000
0.512497 0.814503 1.785639 0.000000 0.000000 0.000000
0.721868 0.870361 1.709012 0.000000 0.000000 0.000000
0.602108 0.936821 1.626954 0.000000 0.000000 0.000000
0.679893 0.933226 1.620498 0.000000 0.000000 0.000000
0.536769 0.804175 1.810611 0.000000 0.000000 0.000000
0.726824 0.877539 1.704205 0.000000 0.000000 0.000000
0.719754 0.890283 1.680104 0.000000 0.000000 0.000000
0.615033 0.843632 1.734001 0.000000 0.000000 0.000000
0.525804 0.813585 1.785549 0.000000 0.000000 0.000000
0.622492 0.944821 1.616861 0.000000 0.000000 0.000000
0.684996 0.928400 1.623328 0.000000 0.000000 0.000000
0.532778 0.807438 1.803077 0.000000 0.000000 0.000000
0.724292 0.875644 1.704245 0.000000 0.000000 0.000000
0.590600 0.930757 1.642382 0.000000 0.000000 0.000000
0.717166 0.883385 1.693572 0.000000 0.000000 0.000000
0.713538 0.787054 1.797193 0.000000 0.000000 0.000000
0.639096 0.885490 1.664422 0.000000 0.000000 0.000000
0.501856 0.849938 1.743520 0.000000 0.000000 0.000000
0.497976 0.831306 1.763026 0.000000 0.000000 0.000000
0.579676 0.795612 1.824139 0.000000 0.000000 0.000000
0.656186 0.832723 1.727751 0.000000 0.000000 0.000000
0.633110 0.820208 1.736969 0.000000 0.000000 0.000000
0.636414 0.856856 1.693098 0.000000 0.000000 0.000000
0.644932 0.875880 1.678629 0.000000 0.000000 0.000000
0.586602 0.901827 1.656385 0.000000 0.000000 0.000000
0.613969 0.949301 1.619310 0.000000 0.000000 0.000000
0.652066 0.774149 1.841433 0.000000 0.000000 0.000000
0.577012 0.797823 1.811389 0.000000 0.000000 0.000000
0.589833 0.885186 1.689243 0.000000 0.000000 0.000000
0.593642 0.804139 1.782504 0.000000 0.000000 0.000000
0.676658 0.826986 1.736753 0.000000 0.000000 0.000000
0.637674 0.877259 1.674489 0.000000 0.000000 0.000000
0.640302 0.839578 1.720002 0.000000 0.000000 0.000000
0.651531 0.838021 1.727463 0.000000 0.000000 0.000000
0.655277 0.811179 1.752000 0.000000 0.000000 0.000000
0.638447 0.841835 1.732906 0.000000 0.000000 0.000000
0.645227 0.849564 1.698923 0.000000 0.000000 0.000000
0.647077 0.896577 1.647539 0.000000 0.000000 0.000000
0.610594 0.889485 1.664352 0.000000 0.000000 0.000000
0.584404 0.929439 1.640066 0.000000 0.000000 0.000000
0.524326 0.809866 1.795890 0.000000 0.000000 0.000000
0.716192 0.796247 1.791307 0.000000 0.000000 0.000000
0.709161 0.797594 1.796435 0.000000 0.000000 0.000000
0.712785 0.792530 1.790107 0.000000 0.000000 0.000000
0.712815 0.784028 1.801931 0.000000 0.000000 0.000000
0.708366 0.784032 1.802897 0.000000 0.000000 0.000000
0.638459 0.939576 1.618339 0.000000 0.000000 0.000000
0.709458 0.788690 1.792436 0.000000 0.000000 0.000000
0.600521 0.943672 1.625188 0.000000 0.000000 0.000000
0.707479 0.784231 1.797658 0.000000 0.000000 0.000000
0.613059 0.779188 1.845733 0.000000 0.000000 0.000000
0.582498 0.927622 1.640977 0.000000 0.000000 0.000000
0.711143 0.794257 1.801419 0.000000 0.000000 0.000000
0.712288 0.794952 1.792751 0.000000 0.000000 0.000000
0.710398 0.784591 1.800786 0.000000 0.000000 0.000000
0.615828 0.926157 1.644513 0.000000 0.000000 0.000000
0.702328 0.781570 1.806170 0.000000 0.000000 0.000000
0.717639 0.804842 1.773268 0.000000 0.000000 0.000000
0.572002 0.924319 1.645172 0.000000 0.000000 0.000000
0.694747 0.780775 1.803470 0.000000 0.000000 0.000000
0.596388 0.919363 1.639901 0.000000 0.000000 0.000000
0.642915 0.774320 1.845538 0.000000 0.000000 0.000000
0.576181 0.927728 1.641896 0.000000 0.000000 0.000000
0.523522 0.812524 1.792160 0.000000 0.000000 0.000000
0.668842 0.773417 1.823452 0.000000 0.000000 0.000000
0.516516 0.815172 1.786159 0.000000 0.000000 0.000000
0.698684 0.904877 1.651204 0.000000 0.000000 0.000000
0.706020 0.898392 1.658129 0.000000 0.000000 0.000000
0.684705 0.907968 1.639483 0.000000 0.000000 0.000000
0.522331 0.816329 1.786451 0.000000 0.000000 0.000000
0.568308 0.920550 1.649452 0.000000 0.000000 0.000000
0.722184 0.793916 1.793471 0.000000 0.000000 0.000000
0.507090 0.821302 1.774429 0.000000 0.000000 0.000000
0.515141 0.812883 1.790166 0.000000 0.000000 0.000000
0.511003 0.816786 1.782348 0.000000 0.000000 0.000000
0.519517 0.819672 1.780048 0.000000 0.000000 0.000000
0.668559 0.869521 1.685630 0.000000 0.000000 0.000000
0.691382 0.862219 1.697930 0.000000 0.000000 0.000000
0.679358 0.835753 1.730233 0.000000 0.000000 0.000000
0.691034 0.833793 1.736471 0.000000 0.000000 0.000000
0.705764 0.868751 1.697804 0.000000 0.000000 0.000000
0.666555 0.881463 1.670834 0.000000 0.000000 0.000000
0.533070 0.811668 1.793913 0.000000 0.000000 0.000000
0.533706 0.910033 1.693013 0.000000 0.000000 0.000000
0.657014 0.877078 1.675085 0.000000 0.000000 0.000000
0.675692 0.932332 1.621845 0.000000 0.000000 0.000000
0.694156 0.898024 1.655446 0.000000 0.000000 0.000000
0.698626 0.904011 1.649247 0.000000 0.000000 0.000000
0.702604 0.889346 1.671057 0.000000 0.000000 0.000000
0.695559 0.913608 1.641081 0.000000 0.000000 0.000000
0.708384 0.893746 1.668256 0.000000 0.000000 0.000000
0.645455 0.872555 1.681131 0.000000 0.000000 0.000000
0.689110 0.897918 1.653676 0.000000 0.000000 0.000000
0.509278 0.824412 1.772456 0.000000 0.000000 0.000000
0.557485 0.806286 1.806251 0.000000 0.000000 0.000000
0.523354 0.826702 1.773798 0.000000 0.000000 0.000000
0.527698 0.836675 1.765227 0.000000 0.000000 0.000000
0.531982 0.809188 1.799132 0.000000 0.000000 0.000000
0.493852 0.835766 1.758866 0.000000 0.000000 0.000000
0.518846 0.812120 1.790749 0.000000 0.000000 0.000000
0.647822 0.870528 1.677851 0.000000 0.000000 0.000000
0.537792 0.813593 1.792925 0.000000 0.000000 0.000000
0.696034 0.877804 1.681244 0.000000 0.000000 0.000000
0.700656 0.910039 1.642986 0.000000 0.000000 0.000000
0.699720 0.872644 1.688474 0.000000 0.000000 0.000000
0.674150 0.853921 1.701195 0.000000 0.000000 0.000000
0.685459 0.864005 1.695040 0.000000 0.000000 0.000000
0.685823 0.890611 1.662755 0.000000 0.000000 0.000000
0.668880 0.882843 1.666081 0.000000 0.000000 0.000000
0.525152 0.814498 1.786738 0.000000 0.000000 0.000000
0.672040 0.908894 1.646304 0.000000 0.000000 0.000000
0.696651 0.887211 1.668478 0.000000 0.000000 0.000000
0.705360 0.912299 1.645151 0.000000 0.000000 0.000000
0.670911 0.875066 1.678921 0.000000 0.000000 0.000000
0.690891 0.891016 1.672601 0.000000 0.000000 0.000000
0.670433 0.892661 1.655721 0.000000 0.000000 0.000000
0.504405 0.827579 1.766245 0.000000 0.000000 0.000000
0.543176 0.810656 1.800037 0.000000 0.000000 0.000000
0.524982 0.819273 1.780361 0.000000 0.000000 0.000000
0.549740 0.820100 1.784536 0.000000 0.000000 0.000000
0.529775 0.816584 1.784803 0.000000 0.000000 0.000000
0.488981 0.849023 1.748046 0.000000 0.000000 0.000000
0.519474 0.815890 1.781068 0.000000 0.000000 0.000000
0.612977 0.886218 1.686817 0.000000 0.000000 0.000000
0.495745 0.867738 1.735608 0.000000 0.000000 0.000000
0.492355 0.859773 1.741122 0.000000 0.000000 0.000000
0.520516 0.891769 1.715010 0.000000 0.000000 0.000000
0.723815 0.870112 1.710038 0.000000 0.000000 0.000000
0.660759 0.941980 1.617057 0.000000 0.000000 0.000000
0.498903 0.852455 1.739406 0.000000 0.000000 0.000000
0.664649 0.776941 1.830221 0.000000 0.000000 0.000000
