ply
format ascii 1.0
comment VCGLIB generated
obj_info Generated by SPFormer!
element vertex 436
property float x
property float y
property float z
property float nx
property float ny
property float nz
end_header
-0.228480 2.291028 0.953296 0.000000 0.000000 0.000000
-0.237254 2.297066 0.945327 0.000000 0.000000 0.000000
-0.234744 2.309727 0.952306 0.000000 0.000000 0.000000
-0.237371 2.305911 0.954069 0.000000 0.000000 0.000000
-0.238504 2.312620 0.954540 0.000000 0.000000 0.000000
-0.235033 2.319713 0.957201 0.000000 0.000000 0.000000
-0.233014 2.311401 0.952463 0.000000 0.000000 0.000000
-0.232750 2.319377 0.955657 0.000000 0.000000 0.000000
-0.232522 2.306249 0.956771 0.000000 0.000000 0.000000
-0.231945 2.309247 0.957462 0.000000 0.000000 0.000000
-0.234525 2.301383 0.950075 0.000000 0.000000 0.000000
-0.232297 2.303504 0.952977 0.000000 0.000000 0.000000
-0.233918 2.305659 0.959680 0.000000 0.000000 0.000000
-0.230650 2.292927 0.956320 0.000000 0.000000 0.000000
-0.239363 2.282599 0.948493 0.000000 0.000000 0.000000
-0.239239 2.301358 0.956905 0.000000 0.000000 0.000000
-0.238498 2.285167 0.944805 0.000000 0.000000 0.000000
-0.233716 2.316442 0.950462 0.000000 0.000000 0.000000
-0.235533 2.305435 0.959329 0.000000 0.000000 0.000000
-0.232325 2.287825 0.959296 0.000000 0.000000 0.000000
-0.236711 2.312706 0.951796 0.000000 0.000000 0.000000
-0.229852 2.291258 0.948912 0.000000 0.000000 0.000000
-0.237917 2.313012 0.958977 0.000000 0.000000 0.000000
-0.234238 2.311539 0.958656 0.000000 0.000000 0.000000
-0.238988 2.291972 0.947091 0.000000 0.000000 0.000000
-0.233463 2.295149 0.952676 0.000000 0.000000 0.000000
-0.226205 2.292922 0.955147 0.000000 0.000000 0.000000
-0.234362 2.295524 0.955073 0.000000 0.000000 0.000000
-0.233618 2.301965 0.959116 0.000000 0.000000 0.000000
-0.232702 2.302871 0.956181 0.000000 0.000000 0.000000
-0.233672 2.309564 0.954179 0.000000 0.000000 0.000000
-0.239751 2.278260 0.943263 0.000000 0.000000 0.000000
-0.234968 2.290404 0.943841 0.000000 0.000000 0.000000
-0.230796 2.316776 0.957181 0.000000 0.000000 0.000000
-0.237821 2.294130 0.946316 0.000000 0.000000 0.000000
-0.239712 2.290885 0.954442 0.000000 0.000000 0.000000
-0.238282 2.302777 0.947989 0.000000 0.000000 0.000000
-0.231234 2.309668 0.958753 0.000000 0.000000 0.000000
-0.237292 2.309968 0.959663 0.000000 0.000000 0.000000
-0.231300 2.314832 0.958876 0.000000 0.000000 0.000000
-0.235468 2.319923 0.956747 0.000000 0.000000 0.000000
-0.235610 2.309748 0.957797 0.000000 0.000000 0.000000
-0.237708 2.314984 0.957114 0.000000 0.000000 0.000000
-0.237648 2.288769 0.957633 0.000000 0.000000 0.000000
-0.234176 2.311287 0.954456 0.000000 0.000000 0.000000
-0.235680 2.316846 0.953953 0.000000 0.000000 0.000000
-0.237778 2.313074 0.955292 0.000000 0.000000 0.000000
-0.196349 2.277609 0.957436 0.000000 0.000000 0.000000
-0.183300 2.274189 0.951215 0.000000 0.000000 0.000000
-0.155478 2.265847 0.959550 0.000000 0.000000 0.000000
-0.132602 2.288879 0.940884 0.000000 0.000000 0.000000
-0.178481 2.280099 0.943442 0.000000 0.000000 0.000000
-0.138867 2.280331 0.950817 0.000000 0.000000 0.000000
-0.200564 2.285568 0.924762 0.000000 0.000000 0.000000
-0.158246 2.265765 0.977453 0.000000 0.000000 0.000000
-0.158849 2.264104 0.967735 0.000000 0.000000 0.000000
-0.160406 2.276626 0.959002 0.000000 0.000000 0.000000
-0.150730 2.276889 0.947251 0.000000 0.000000 0.000000
-0.161563 2.274463 0.955589 0.000000 0.000000 0.000000
-0.204491 2.280349 0.937305 0.000000 0.000000 0.000000
-0.191783 2.277688 0.930415 0.000000 0.000000 0.000000
-0.166702 2.262667 0.978151 0.000000 0.000000 0.000000
-0.192236 2.281960 0.923395 0.000000 0.000000 0.000000
-0.132948 2.288272 0.934605 0.000000 0.000000 0.000000
-0.191037 2.280445 0.933244 0.000000 0.000000 0.000000
-0.190785 2.267070 0.962158 0.000000 0.000000 0.000000
-0.191029 2.266212 0.967564 0.000000 0.000000 0.000000
-0.133197 2.275347 0.953323 0.000000 0.000000 0.000000
-0.192530 2.274065 0.924890 0.000000 0.000000 0.000000
-0.177769 2.270191 0.959168 0.000000 0.000000 0.000000
-0.166750 2.265608 0.963113 0.000000 0.000000 0.000000
-0.146825 2.271536 0.942326 0.000000 0.000000 0.000000
-0.139968 2.289995 0.924629 0.000000 0.000000 0.000000
-0.140211 2.266917 0.974675 0.000000 0.000000 0.000000
-0.213809 2.272460 0.973279 0.000000 0.000000 0.000000
-0.165579 2.275852 0.947517 0.000000 0.000000 0.000000
-0.148367 2.275013 0.953925 0.000000 0.000000 0.000000
-0.132194 2.291707 0.934222 0.000000 0.000000 0.000000
-0.162958 2.273089 0.957639 0.000000 0.000000 0.000000
-0.168367 2.261737 0.970559 0.000000 0.000000 0.000000
-0.195019 2.284511 0.922654 0.000000 0.000000 0.000000
-0.140319 2.283812 0.927592 0.000000 0.000000 0.000000
-0.194633 2.282531 0.925714 0.000000 0.000000 0.000000
-0.150566 2.265506 0.974343 0.000000 0.000000 0.000000
-0.153616 2.266328 0.950405 0.000000 0.000000 0.000000
-0.165987 2.268690 0.946551 0.000000 0.000000 0.000000
-0.219396 2.275085 0.972125 0.000000 0.000000 0.000000
-0.147214 2.268874 0.963287 0.000000 0.000000 0.000000
-0.166670 2.276612 0.946360 0.000000 0.000000 0.000000
-0.159798 2.266163 0.955159 0.000000 0.000000 0.000000
-0.178923 2.278819 0.932612 0.000000 0.000000 0.000000
-0.168987 2.272426 0.960259 0.000000 0.000000 0.000000
-0.140344 2.265024 0.976743 0.000000 0.000000 0.000000
-0.155047 2.269210 0.955981 0.000000 0.000000 0.000000
-0.212771 2.278976 0.956035 0.000000 0.000000 0.000000
-0.208210 2.284565 0.932998 0.000000 0.000000 0.000000
-0.165143 2.285273 0.921276 0.000000 0.000000 0.000000
-0.143287 2.279217 0.940040 0.000000 0.000000 0.000000
-0.190826 2.280980 0.935745 0.000000 0.000000 0.000000
-0.206805 2.283676 0.928804 0.000000 0.000000 0.000000
-0.223066 2.280383 0.955333 0.000000 0.000000 0.000000
-0.218049 2.287814 0.939281 0.000000 0.000000 0.000000
-0.172192 2.267627 0.961533 0.000000 0.000000 0.000000
-0.191631 2.276489 0.935915 0.000000 0.000000 0.000000
-0.221062 2.287797 0.954218 0.000000 0.000000 0.000000
-0.135168 2.290555 0.937090 0.000000 0.000000 0.000000
-0.142360 2.280244 0.952738 0.000000 0.000000 0.000000
-0.162472 2.282935 0.928574 0.000000 0.000000 0.000000
-0.158549 2.263475 0.974804 0.000000 0.000000 0.000000
-0.194919 2.280622 0.937721 0.000000 0.000000 0.000000
-0.188024 2.277379 0.934912 0.000000 0.000000 0.000000
-0.149385 2.277484 0.946795 0.000000 0.000000 0.000000
-0.145854 2.286135 0.926456 0.000000 0.000000 0.000000
-0.192189 2.267216 0.973782 0.000000 0.000000 0.000000
-0.163839 2.280854 0.940255 0.000000 0.000000 0.000000
-0.206406 2.281374 0.932994 0.000000 0.000000 0.000000
-0.170240 2.272550 0.962353 0.000000 0.000000 0.000000
-0.164457 2.263351 0.973728 0.000000 0.000000 0.000000
-0.205111 2.279366 0.953111 0.000000 0.000000 0.000000
-0.142533 2.281949 0.932918 0.000000 0.000000 0.000000
-0.201522 2.275382 0.964148 0.000000 0.000000 0.000000
-0.182326 2.279147 0.943820 0.000000 0.000000 0.000000
-0.182086 2.277884 0.946733 0.000000 0.000000 0.000000
-0.155422 2.285920 0.922742 0.000000 0.000000 0.000000
-0.141902 2.290121 0.931105 0.000000 0.000000 0.000000
-0.190078 2.279838 0.926942 0.000000 0.000000 0.000000
-0.172038 2.282317 0.922432 0.000000 0.000000 0.000000
-0.163218 2.271209 0.937899 0.000000 0.000000 0.000000
-0.165875 2.276885 0.939604 0.000000 0.000000 0.000000
-0.189712 2.285823 0.919302 0.000000 0.000000 0.000000
-0.164618 2.281008 0.925771 0.000000 0.000000 0.000000
-0.171697 2.264194 0.974935 0.000000 0.000000 0.000000
-0.149649 2.280631 0.938486 0.000000 0.000000 0.000000
-0.195770 2.268602 0.967221 0.000000 0.000000 0.000000
-0.225102 2.281163 0.953635 0.000000 0.000000 0.000000
-0.150713 2.283726 0.936948 0.000000 0.000000 0.000000
-0.150579 2.289115 0.922433 0.000000 0.000000 0.000000
-0.226443 2.288143 0.942593 0.000000 0.000000 0.000000
-0.190051 2.278759 0.925267 0.000000 0.000000 0.000000
-0.213593 2.285473 0.941359 0.000000 0.000000 0.000000
-0.208721 2.285252 0.935870 0.000000 0.000000 0.000000
-0.197391 2.285669 0.926189 0.000000 0.000000 0.000000
-0.222855 2.285982 0.945624 0.000000 0.000000 0.000000
-0.220306 2.289354 0.943117 0.000000 0.000000 0.000000
-0.148722 2.269397 0.948367 0.000000 0.000000 0.000000
-0.141054 2.274176 0.944517 0.000000 0.000000 0.000000
-0.156094 2.262779 0.979454 0.000000 0.000000 0.000000
-0.166978 2.264212 0.960761 0.000000 0.000000 0.000000
-0.176652 2.272965 0.951002 0.000000 0.000000 0.000000
-0.142035 2.267668 0.967923 0.000000 0.000000 0.000000
-0.170847 2.262765 0.983092 0.000000 0.000000 0.000000
-0.164613 2.281821 0.927463 0.000000 0.000000 0.000000
-0.169890 2.271501 0.937508 0.000000 0.000000 0.000000
-0.138334 2.283961 0.945674 0.000000 0.000000 0.000000
-0.138659 2.273028 0.951354 0.000000 0.000000 0.000000
-0.157328 2.276999 0.931859 0.000000 0.000000 0.000000
-0.152419 2.275534 0.950769 0.000000 0.000000 0.000000
-0.138467 2.276274 0.952398 0.000000 0.000000 0.000000
-0.133856 2.271755 0.964821 0.000000 0.000000 0.000000
-0.140969 2.276200 0.939921 0.000000 0.000000 0.000000
-0.158385 2.282817 0.924155 0.000000 0.000000 0.000000
-0.146367 2.272381 0.949954 0.000000 0.000000 0.000000
-0.146560 2.277947 0.933167 0.000000 0.000000 0.000000
-0.148942 2.274251 0.947426 0.000000 0.000000 0.000000
-0.160441 2.285443 0.921250 0.000000 0.000000 0.000000
-0.149411 2.271906 0.951601 0.000000 0.000000 0.000000
-0.149975 2.278518 0.932679 0.000000 0.000000 0.000000
-0.129100 2.290282 0.934529 0.000000 0.000000 0.000000
-0.135719 2.292588 0.928148 0.000000 0.000000 0.000000
-0.226826 2.278287 0.963705 0.000000 0.000000 0.000000
-0.162017 2.261850 0.981367 0.000000 0.000000 0.000000
-0.168764 2.286692 0.925222 0.000000 0.000000 0.000000
-0.134871 2.276757 0.955974 0.000000 0.000000 0.000000
-0.149334 2.264400 0.975558 0.000000 0.000000 0.000000
-0.194224 2.279544 0.944868 0.000000 0.000000 0.000000
-0.120788 2.285102 0.949895 0.000000 0.000000 0.000000
-0.149301 2.263871 0.978824 0.000000 0.000000 0.000000
-0.199496 2.271080 0.967040 0.000000 0.000000 0.000000
-0.126532 2.290118 0.944261 0.000000 0.000000 0.000000
-0.201768 2.278741 0.933497 0.000000 0.000000 0.000000
-0.192684 2.278760 0.935404 0.000000 0.000000 0.000000
-0.205938 2.286290 0.929100 0.000000 0.000000 0.000000
-0.130124 2.284962 0.950657 0.000000 0.000000 0.000000
-0.208435 2.277484 0.960175 0.000000 0.000000 0.000000
-0.220712 2.278887 0.948807 0.000000 0.000000 0.000000
-0.188927 2.280046 0.942035 0.000000 0.000000 0.000000
-0.207101 2.280847 0.929021 0.000000 0.000000 0.000000
-0.226766 2.277082 0.953265 0.000000 0.000000 0.000000
-0.219770 2.277465 0.968023 0.000000 0.000000 0.000000
-0.198777 2.273948 0.962169 0.000000 0.000000 0.000000
-0.145163 2.273518 0.961034 0.000000 0.000000 0.000000
-0.216104 2.277363 0.956328 0.000000 0.000000 0.000000
-0.191393 2.273468 0.965765 0.000000 0.000000 0.000000
-0.192699 2.277097 0.963662 0.000000 0.000000 0.000000
-0.202100 2.272630 0.960048 0.000000 0.000000 0.000000
-0.170801 2.266427 0.972348 0.000000 0.000000 0.000000
-0.217995 2.280811 0.958659 0.000000 0.000000 0.000000
-0.214105 2.273640 0.956474 0.000000 0.000000 0.000000
-0.126230 2.294581 0.934826 0.000000 0.000000 0.000000
-0.134021 2.285101 0.940165 0.000000 0.000000 0.000000
-0.159089 2.287258 0.917649 0.000000 0.000000 0.000000
-0.180135 2.277595 0.951588 0.000000 0.000000 0.000000
-0.221213 2.288868 0.937742 0.000000 0.000000 0.000000
-0.159244 2.290297 0.915278 0.000000 0.000000 0.000000
-0.113903 2.282610 0.948274 0.000000 0.000000 0.000000
-0.190852 2.280874 0.939516 0.000000 0.000000 0.000000
-0.128939 2.289523 0.935064 0.000000 0.000000 0.000000
-0.143527 2.285222 0.927610 0.000000 0.000000 0.000000
-0.146748 2.288231 0.921976 0.000000 0.000000 0.000000
-0.150614 2.288061 0.920763 0.000000 0.000000 0.000000
-0.219862 2.275230 0.966738 0.000000 0.000000 0.000000
-0.128859 2.281837 0.951662 0.000000 0.000000 0.000000
-0.129317 2.276195 0.955947 0.000000 0.000000 0.000000
-0.139285 2.279120 0.955040 0.000000 0.000000 0.000000
-0.218699 2.283715 0.957395 0.000000 0.000000 0.000000
-0.111863 2.285878 0.947288 0.000000 0.000000 0.000000
-0.179451 2.279588 0.939536 0.000000 0.000000 0.000000
-0.119002 2.280165 0.952954 0.000000 0.000000 0.000000
-0.220188 2.272114 0.974493 0.000000 0.000000 0.000000
-0.117231 2.285654 0.950658 0.000000 0.000000 0.000000
-0.208928 2.283375 0.945214 0.000000 0.000000 0.000000
-0.216699 2.283345 0.946044 0.000000 0.000000 0.000000
-0.211734 2.285753 0.932800 0.000000 0.000000 0.000000
-0.225328 2.289622 0.955707 0.000000 0.000000 0.000000
-0.118258 2.281321 0.951311 0.000000 0.000000 0.000000
-0.125853 2.279499 0.951083 0.000000 0.000000 0.000000
-0.149412 2.269998 0.967560 0.000000 0.000000 0.000000
-0.158082 2.269477 0.967527 0.000000 0.000000 0.000000
-0.161882 2.270730 0.964849 0.000000 0.000000 0.000000
-0.148609 2.268837 0.969002 0.000000 0.000000 0.000000
-0.168196 2.262954 0.967211 0.000000 0.000000 0.000000
-0.142701 2.261883 0.975253 0.000000 0.000000 0.000000
-0.175577 2.267016 0.968719 0.000000 0.000000 0.000000
-0.164918 2.263652 0.974847 0.000000 0.000000 0.000000
-0.150325 2.290549 0.923458 0.000000 0.000000 0.000000
-0.142614 2.264709 0.975174 0.000000 0.000000 0.000000
-0.145613 2.265360 0.972909 0.000000 0.000000 0.000000
-0.145650 2.276061 0.956575 0.000000 0.000000 0.000000
-0.153748 2.260543 0.984637 0.000000 0.000000 0.000000
-0.148070 2.286542 0.936956 0.000000 0.000000 0.000000
-0.168455 2.261373 0.981339 0.000000 0.000000 0.000000
-0.152265 2.268767 0.968183 0.000000 0.000000 0.000000
-0.144162 2.265026 0.976639 0.000000 0.000000 0.000000
-0.198169 2.284194 0.930931 0.000000 0.000000 0.000000
-0.151896 2.272837 0.960267 0.000000 0.000000 0.000000
-0.130672 2.272139 0.964614 0.000000 0.000000 0.000000
-0.139862 2.266573 0.972557 0.000000 0.000000 0.000000
-0.140171 2.272996 0.962463 0.000000 0.000000 0.000000
-0.144969 2.265908 0.973029 0.000000 0.000000 0.000000
-0.134480 2.266841 0.973059 0.000000 0.000000 0.000000
-0.133185 2.277884 0.958298 0.000000 0.000000 0.000000
-0.139271 2.282675 0.948516 0.000000 0.000000 0.000000
-0.131536 2.276181 0.953781 0.000000 0.000000 0.000000
-0.131722 2.267874 0.970972 0.000000 0.000000 0.000000
-0.138201 2.267545 0.972064 0.000000 0.000000 0.000000
-0.214817 2.287429 0.935015 0.000000 0.000000 0.000000
-0.157942 2.279532 0.942381 0.000000 0.000000 0.000000
-0.171296 2.283075 0.919731 0.000000 0.000000 0.000000
-0.146385 2.290501 0.928301 0.000000 0.000000 0.000000
-0.199499 2.287181 0.921968 0.000000 0.000000 0.000000
-0.200165 2.272689 0.961463 0.000000 0.000000 0.000000
-0.195745 2.270195 0.964608 0.000000 0.000000 0.000000
-0.161760 2.286876 0.928438 0.000000 0.000000 0.000000
-0.169341 2.282483 0.928818 0.000000 0.000000 0.000000
-0.209672 2.277691 0.948455 0.000000 0.000000 0.000000
-0.207397 2.283324 0.941985 0.000000 0.000000 0.000000
-0.195956 2.281512 0.927908 0.000000 0.000000 0.000000
-0.217068 2.284599 0.951213 0.000000 0.000000 0.000000
-0.200153 2.281794 0.942784 0.000000 0.000000 0.000000
-0.202713 2.279278 0.932309 0.000000 0.000000 0.000000
-0.213462 2.283758 0.935020 0.000000 0.000000 0.000000
-0.208064 2.284572 0.928616 0.000000 0.000000 0.000000
-0.127757 2.283677 0.942871 0.000000 0.000000 0.000000
-0.203548 2.282381 0.921621 0.000000 0.000000 0.000000
-0.123461 2.284491 0.944930 0.000000 0.000000 0.000000
-0.125534 2.289328 0.937641 0.000000 0.000000 0.000000
-0.118544 2.286558 0.943615 0.000000 0.000000 0.000000
-0.231141 2.283717 0.949299 0.000000 0.000000 0.000000
-0.156353 2.293968 0.915158 0.000000 0.000000 0.000000
-0.235358 2.284541 0.946952 0.000000 0.000000 0.000000
-0.165566 2.288066 0.915563 0.000000 0.000000 0.000000
-0.195276 2.280875 0.927733 0.000000 0.000000 0.000000
-0.218000 2.286316 0.939765 0.000000 0.000000 0.000000
-0.188438 2.283138 0.928582 0.000000 0.000000 0.000000
-0.188527 2.266688 0.974604 0.000000 0.000000 0.000000
-0.148731 2.286309 0.928003 0.000000 0.000000 0.000000
-0.161661 2.289313 0.918315 0.000000 0.000000 0.000000
-0.223037 2.284268 0.943522 0.000000 0.000000 0.000000
-0.227899 2.284629 0.951263 0.000000 0.000000 0.000000
-0.177751 2.262616 0.980699 0.000000 0.000000 0.000000
-0.183271 2.266323 0.975032 0.000000 0.000000 0.000000
-0.218608 2.279439 0.965967 0.000000 0.000000 0.000000
-0.126092 2.272272 0.964625 0.000000 0.000000 0.000000
-0.123502 2.279191 0.953038 0.000000 0.000000 0.000000
-0.140359 2.270368 0.954101 0.000000 0.000000 0.000000
-0.131460 2.284844 0.944013 0.000000 0.000000 0.000000
-0.123232 2.275394 0.964385 0.000000 0.000000 0.000000
-0.172172 2.269826 0.974827 0.000000 0.000000 0.000000
-0.151034 2.267944 0.974932 0.000000 0.000000 0.000000
-0.165174 2.282896 0.922389 0.000000 0.000000 0.000000
-0.147053 2.286927 0.927576 0.000000 0.000000 0.000000
-0.133045 2.275810 0.955346 0.000000 0.000000 0.000000
-0.181250 2.259727 0.978384 0.000000 0.000000 0.000000
-0.182012 2.262137 0.983382 0.000000 0.000000 0.000000
-0.176665 2.259460 0.983555 0.000000 0.000000 0.000000
-0.198733 2.266781 0.981316 0.000000 0.000000 0.000000
-0.166650 2.256236 0.983600 0.000000 0.000000 0.000000
-0.184809 2.262432 0.982615 0.000000 0.000000 0.000000
-0.187671 2.259686 0.984241 0.000000 0.000000 0.000000
-0.186747 2.269621 0.976619 0.000000 0.000000 0.000000
-0.128028 2.296792 0.929074 0.000000 0.000000 0.000000
-0.229086 2.284772 0.951811 0.000000 0.000000 0.000000
-0.236290 2.282627 0.945080 0.000000 0.000000 0.000000
-0.150340 2.263381 0.977248 0.000000 0.000000 0.000000
-0.161477 2.266856 0.977265 0.000000 0.000000 0.000000
-0.140082 2.266073 0.974851 0.000000 0.000000 0.000000
-0.166990 2.260123 0.985682 0.000000 0.000000 0.000000
-0.139085 2.272923 0.966908 0.000000 0.000000 0.000000
-0.121742 2.276119 0.961550 0.000000 0.000000 0.000000
-0.172396 2.263029 0.978305 0.000000 0.000000 0.000000
-0.157781 2.266018 0.980259 0.000000 0.000000 0.000000
-0.122610 2.278244 0.956042 0.000000 0.000000 0.000000
-0.123380 2.273705 0.964477 0.000000 0.000000 0.000000
-0.131043 2.278026 0.952855 0.000000 0.000000 0.000000
-0.126604 2.286375 0.944278 0.000000 0.000000 0.000000
-0.128557 2.298095 0.927106 0.000000 0.000000 0.000000
-0.138240 2.263834 0.969320 0.000000 0.000000 0.000000
-0.225137 2.274699 0.972772 0.000000 0.000000 0.000000
-0.136645 2.295497 0.924230 0.000000 0.000000 0.000000
-0.180725 2.285263 0.918521 0.000000 0.000000 0.000000
-0.149432 2.290018 0.920439 0.000000 0.000000 0.000000
-0.184408 2.287218 0.918500 0.000000 0.000000 0.000000
-0.140445 2.291826 0.925963 0.000000 0.000000 0.000000
-0.191480 2.286633 0.921643 0.000000 0.000000 0.000000
-0.164584 2.260980 0.983083 0.000000 0.000000 0.000000
-0.142939 2.291342 0.921450 0.000000 0.000000 0.000000
-0.164702 2.290471 0.917451 0.000000 0.000000 0.000000
-0.232166 2.285945 0.947673 0.000000 0.000000 0.000000
-0.197150 2.268766 0.974137 0.000000 0.000000 0.000000
-0.189725 2.268562 0.968127 0.000000 0.000000 0.000000
-0.149125 2.293593 0.920608 0.000000 0.000000 0.000000
-0.142309 2.291412 0.919191 0.000000 0.000000 0.000000
-0.159372 2.289843 0.917617 0.000000 0.000000 0.000000
-0.118690 2.291313 0.938528 0.000000 0.000000 0.000000
-0.114924 2.290701 0.942259 0.000000 0.000000 0.000000
-0.145530 2.263106 0.976720 0.000000 0.000000 0.000000
-0.120457 2.273256 0.958189 0.000000 0.000000 0.000000
-0.125221 2.272719 0.960013 0.000000 0.000000 0.000000
-0.128915 2.276388 0.961032 0.000000 0.000000 0.000000
-0.118259 2.279236 0.954967 0.000000 0.000000 0.000000
-0.128632 2.269895 0.966487 0.000000 0.000000 0.000000
-0.141009 2.270753 0.972664 0.000000 0.000000 0.000000
-0.115140 2.276695 0.953186 0.000000 0.000000 0.000000
-0.232018 2.279929 0.961634 0.000000 0.000000 0.000000
-0.177962 2.282374 0.933701 0.000000 0.000000 0.000000
-0.122054 2.288999 0.939708 0.000000 0.000000 0.000000
-0.130826 2.286345 0.941311 0.000000 0.000000 0.000000
-0.150180 2.292738 0.915421 0.000000 0.000000 0.000000
-0.149536 2.290259 0.916685 0.000000 0.000000 0.000000
-0.144369 2.292997 0.918957 0.000000 0.000000 0.000000
-0.134230 2.290457 0.925958 0.000000 0.000000 0.000000
-0.159110 2.291513 0.916367 0.000000 0.000000 0.000000
-0.168071 2.290365 0.915684 0.000000 0.000000 0.000000
-0.167962 2.288674 0.916328 0.000000 0.000000 0.000000
-0.172804 2.283200 0.925745 0.000000 0.000000 0.000000
-0.181402 2.270400 0.941550 0.000000 0.000000 0.000000
-0.179402 2.275282 0.938019 0.000000 0.000000 0.000000
-0.159924 2.277075 0.934686 0.000000 0.000000 0.000000
-0.173520 2.266028 0.948531 0.000000 0.000000 0.000000
-0.186760 2.272666 0.945413 0.000000 0.000000 0.000000
-0.164988 2.284822 0.921334 0.000000 0.000000 0.000000
-0.177907 2.263505 0.963519 0.000000 0.000000 0.000000
-0.189175 2.281702 0.923191 0.000000 0.000000 0.000000
-0.175362 2.274077 0.935529 0.000000 0.000000 0.000000
-0.169173 2.280336 0.924938 0.000000 0.000000 0.000000
-0.144287 2.278834 0.945838 0.000000 0.000000 0.000000
-0.166394 2.267641 0.960052 0.000000 0.000000 0.000000
-0.190281 2.275813 0.935488 0.000000 0.000000 0.000000
-0.165086 2.274494 0.930199 0.000000 0.000000 0.000000
-0.198906 2.271839 0.953423 0.000000 0.000000 0.000000
-0.187969 2.273615 0.939919 0.000000 0.000000 0.000000
-0.175344 2.272938 0.942459 0.000000 0.000000 0.000000
-0.143723 2.281972 0.935398 0.000000 0.000000 0.000000
-0.187003 2.265439 0.956004 0.000000 0.000000 0.000000
-0.182985 2.279252 0.926231 0.000000 0.000000 0.000000
-0.171725 2.282762 0.923848 0.000000 0.000000 0.000000
-0.178680 2.279342 0.927617 0.000000 0.000000 0.000000
-0.174993 2.277309 0.927743 0.000000 0.000000 0.000000
-0.175414 2.273322 0.945366 0.000000 0.000000 0.000000
-0.180277 2.280279 0.924146 0.000000 0.000000 0.000000
-0.170668 2.281347 0.925897 0.000000 0.000000 0.000000
-0.158005 2.269298 0.949162 0.000000 0.000000 0.000000
-0.181436 2.262968 0.968844 0.000000 0.000000 0.000000
-0.204123 2.271520 0.952075 0.000000 0.000000 0.000000
-0.174761 2.277614 0.928789 0.000000 0.000000 0.000000
-0.180066 2.275690 0.933624 0.000000 0.000000 0.000000
-0.210193 2.283553 0.929466 0.000000 0.000000 0.000000
-0.199902 2.279179 0.936781 0.000000 0.000000 0.000000
-0.171926 2.288084 0.918226 0.000000 0.000000 0.000000
-0.210915 2.278426 0.971073 0.000000 0.000000 0.000000
-0.185176 2.284511 0.923111 0.000000 0.000000 0.000000
-0.163690 2.284809 0.925017 0.000000 0.000000 0.000000
-0.182635 2.284895 0.925963 0.000000 0.000000 0.000000
-0.213679 2.272605 0.974281 0.000000 0.000000 0.000000
-0.189620 2.268077 0.976878 0.000000 0.000000 0.000000
-0.197491 2.265323 0.987237 0.000000 0.000000 0.000000
-0.181029 2.285622 0.916456 0.000000 0.000000 0.000000
-0.173868 2.286632 0.920122 0.000000 0.000000 0.000000
-0.207317 2.281488 0.935407 0.000000 0.000000 0.000000
-0.178864 2.288366 0.918840 0.000000 0.000000 0.000000
-0.208362 2.276338 0.970991 0.000000 0.000000 0.000000
-0.196429 2.268079 0.978820 0.000000 0.000000 0.000000
-0.211560 2.271977 0.981295 0.000000 0.000000 0.000000
-0.187469 2.284176 0.920746 0.000000 0.000000 0.000000
-0.125313 2.292619 0.934094 0.000000 0.000000 0.000000
-0.128875 2.290572 0.935810 0.000000 0.000000 0.000000
-0.130051 2.297388 0.926855 0.000000 0.000000 0.000000
-0.135551 2.292729 0.927685 0.000000 0.000000 0.000000
-0.131241 2.294152 0.928336 0.000000 0.000000 0.000000
-0.135987 2.293931 0.925693 0.000000 0.000000 0.000000
-0.117254 2.278281 0.959114 0.000000 0.000000 0.000000
-0.204375 2.268051 0.979006 0.000000 0.000000 0.000000
-0.194604 2.266769 0.979642 0.000000 0.000000 0.000000
-0.178311 2.264685 0.974871 0.000000 0.000000 0.000000
-0.179821 2.265728 0.980851 0.000000 0.000000 0.000000
-0.209732 2.283494 0.931029 0.000000 0.000000 0.000000
-0.220330 2.275596 0.969810 0.000000 0.000000 0.000000
-0.223484 2.275618 0.972613 0.000000 0.000000 0.000000
-0.213837 2.272449 0.971751 0.000000 0.000000 0.000000
-0.217621 2.272735 0.979616 0.000000 0.000000 0.000000
-0.227239 2.278890 0.964832 0.000000 0.000000 0.000000
-0.224888 2.269421 0.972623 0.000000 0.000000 0.000000
-0.233752 2.279661 0.964804 0.000000 0.000000 0.000000
-0.213238 2.274033 0.976154 0.000000 0.000000 0.000000
-0.224790 2.277030 0.968663 0.000000 0.000000 0.000000
-0.229707 2.276065 0.967824 0.000000 0.000000 0.000000
