ply
format ascii 1.0
comment VCGLIB generated
obj_info Generated by SPFormer!
element vertex 873
property float x
property float y
property float z
property float nx
property float ny
property float nz
end_header
0.964800 0.075758 1.430213 0.000000 0.000000 0.000000
1.047322 -0.086107 1.908414 0.000000 0.000000 0.000000
0.943329 0.088046 1.442717 0.000000 0.000000 0.000000
1.133974 -0.036063 1.590187 0.000000 0.000000 0.000000
0.928611 -0.040331 1.750148 0.000000 0.000000 0.000000
1.149212 -0.043651 1.616106 0.000000 0.000000 0.000000
1.137425 -0.080987 1.751470 0.000000 0.000000 0.000000
0.886896 -0.020417 1.680183 0.000000 0.000000 0.000000
0.902155 -0.026668 1.686201 0.000000 0.000000 0.000000
0.907639 -0.030980 1.697029 0.000000 0.000000 0.000000
0.898080 -0.019910 1.664878 0.000000 0.000000 0.000000
0.973334 0.072868 1.427987 0.000000 0.000000 0.000000
1.156594 -0.047242 1.630582 0.000000 0.000000 0.000000
1.139527 -0.048648 1.654212 0.000000 0.000000 0.000000
1.149890 -0.047025 1.651572 0.000000 0.000000 0.000000
1.049545 -0.087378 1.913075 0.000000 0.000000 0.000000
0.921006 0.096851 1.444684 0.000000 0.000000 0.000000
0.913714 -0.040479 1.748052 0.000000 0.000000 0.000000
1.131361 -0.057698 1.659247 0.000000 0.000000 0.000000
1.149096 -0.045392 1.622320 0.000000 0.000000 0.000000
1.135720 -0.055420 1.647477 0.000000 0.000000 0.000000
0.888112 -0.018476 1.663907 0.000000 0.000000 0.000000
0.885707 -0.022338 1.679433 0.000000 0.000000 0.000000
1.146346 -0.046067 1.640117 0.000000 0.000000 0.000000
0.945946 -0.040851 1.769454 0.000000 0.000000 0.000000
1.135714 -0.059322 1.664965 0.000000 0.000000 0.000000
1.158171 -0.049166 1.640199 0.000000 0.000000 0.000000
1.141166 -0.067210 1.708451 0.000000 0.000000 0.000000
1.153510 -0.045943 1.618955 0.000000 0.000000 0.000000
1.154370 -0.045075 1.623805 0.000000 0.000000 0.000000
1.124112 -0.029388 1.578979 0.000000 0.000000 0.000000
1.151742 -0.062226 1.702772 0.000000 0.000000 0.000000
1.156959 -0.053405 1.656642 0.000000 0.000000 0.000000
1.135692 -0.073752 1.703500 0.000000 0.000000 0.000000
1.119624 -0.002185 1.506855 0.000000 0.000000 0.000000
1.149423 -0.063394 1.710416 0.000000 0.000000 0.000000
1.135752 -0.035192 1.577625 0.000000 0.000000 0.000000
1.137416 -0.027012 1.576408 0.000000 0.000000 0.000000
1.116546 -0.004764 1.513693 0.000000 0.000000 0.000000
1.147228 -0.059843 1.711987 0.000000 0.000000 0.000000
1.053118 -0.082650 1.872535 0.000000 0.000000 0.000000
1.143625 -0.043886 1.620077 0.000000 0.000000 0.000000
1.056792 -0.079965 1.880424 0.000000 0.000000 0.000000
1.042964 -0.086749 1.902873 0.000000 0.000000 0.000000
1.153499 -0.058035 1.658660 0.000000 0.000000 0.000000
1.077554 0.025008 1.458589 0.000000 0.000000 0.000000
0.983993 0.065326 1.429740 0.000000 0.000000 0.000000
1.148771 -0.048181 1.663239 0.000000 0.000000 0.000000
1.051714 -0.080131 1.887998 0.000000 0.000000 0.000000
1.084437 -0.080490 1.851476 0.000000 0.000000 0.000000
1.043368 -0.084601 1.887433 0.000000 0.000000 0.000000
1.036292 -0.087945 1.895788 0.000000 0.000000 0.000000
0.940215 -0.027437 1.787249 0.000000 0.000000 0.000000
1.086751 0.020702 1.463859 0.000000 0.000000 0.000000
0.908629 -0.039647 1.743953 0.000000 0.000000 0.000000
0.883455 0.081293 1.461163 0.000000 0.000000 0.000000
1.059977 -0.079940 1.878102 0.000000 0.000000 0.000000
1.056631 -0.081896 1.897341 0.000000 0.000000 0.000000
0.975501 0.018222 1.564514 0.000000 0.000000 0.000000
0.866515 0.071689 1.489424 0.000000 0.000000 0.000000
1.040118 0.031261 1.467252 0.000000 0.000000 0.000000
1.126735 -0.012008 1.527740 0.000000 0.000000 0.000000
0.987870 0.062684 1.432476 0.000000 0.000000 0.000000
1.001686 0.057466 1.430824 0.000000 0.000000 0.000000
1.158210 -0.059299 1.647666 0.000000 0.000000 0.000000
0.992770 -0.057874 1.845629 0.000000 0.000000 0.000000
0.997897 -0.056809 1.762851 0.000000 0.000000 0.000000
1.114537 -0.004712 1.517663 0.000000 0.000000 0.000000
0.911934 0.084187 1.468498 0.000000 0.000000 0.000000
0.939440 -0.039703 1.759073 0.000000 0.000000 0.000000
0.925983 0.089582 1.458666 0.000000 0.000000 0.000000
0.869902 0.002776 1.630257 0.000000 0.000000 0.000000
1.012998 -0.070036 1.803477 0.000000 0.000000 0.000000
1.002313 0.053912 1.442984 0.000000 0.000000 0.000000
1.009618 -0.076554 1.871280 0.000000 0.000000 0.000000
0.990568 0.057614 1.451384 0.000000 0.000000 0.000000
0.875682 -0.013428 1.663800 0.000000 0.000000 0.000000
1.075288 0.021864 1.473222 0.000000 0.000000 0.000000
1.146504 -0.048931 1.625046 0.000000 0.000000 0.000000
1.119068 -0.009838 1.523475 0.000000 0.000000 0.000000
0.928014 0.092609 1.451082 0.000000 0.000000 0.000000
0.919877 0.079190 1.476194 0.000000 0.000000 0.000000
0.921660 -0.039519 1.749244 0.000000 0.000000 0.000000
0.937826 0.091162 1.444996 0.000000 0.000000 0.000000
1.006776 -0.058822 1.753733 0.000000 0.000000 0.000000
1.064751 -0.077685 1.891289 0.000000 0.000000 0.000000
0.967060 -0.040245 1.810512 0.000000 0.000000 0.000000
0.985971 -0.053083 1.827635 0.000000 0.000000 0.000000
1.079813 0.021446 1.466925 0.000000 0.000000 0.000000
1.021566 0.045697 1.435307 0.000000 0.000000 0.000000
1.015319 0.049956 1.434620 0.000000 0.000000 0.000000
0.920675 0.094556 1.446581 0.000000 0.000000 0.000000
1.020390 0.047687 1.434021 0.000000 0.000000 0.000000
0.877968 -0.004448 1.646944 0.000000 0.000000 0.000000
1.112756 0.002898 1.487139 0.000000 0.000000 0.000000
1.064137 -0.073751 1.881459 0.000000 0.000000 0.000000
1.027832 0.046108 1.433618 0.000000 0.000000 0.000000
1.156138 -0.041599 1.648964 0.000000 0.000000 0.000000
1.034317 0.038359 1.448578 0.000000 0.000000 0.000000
0.988895 -0.056105 1.814089 0.000000 0.000000 0.000000
0.951839 -0.033997 1.795163 0.000000 0.000000 0.000000
0.961981 -0.046276 1.768776 0.000000 0.000000 0.000000
0.916782 -0.035955 1.715414 0.000000 0.000000 0.000000
0.986777 -0.051293 1.740046 0.000000 0.000000 0.000000
1.117730 -0.088562 1.780301 0.000000 0.000000 0.000000
0.964162 -0.047063 1.747294 0.000000 0.000000 0.000000
0.918929 -0.036634 1.759943 0.000000 0.000000 0.000000
0.992881 -0.058673 1.836989 0.000000 0.000000 0.000000
0.936869 -0.035688 1.773711 0.000000 0.000000 0.000000
0.897314 0.085654 1.466153 0.000000 0.000000 0.000000
1.049987 0.028971 1.461213 0.000000 0.000000 0.000000
0.946932 -0.036706 1.774545 0.000000 0.000000 0.000000
1.148725 -0.037852 1.581650 0.000000 0.000000 0.000000
1.101569 0.006047 1.500150 0.000000 0.000000 0.000000
0.989150 -0.055185 1.841668 0.000000 0.000000 0.000000
0.957771 -0.034937 1.794939 0.000000 0.000000 0.000000
0.927610 -0.036531 1.733221 0.000000 0.000000 0.000000
0.946574 -0.037389 1.771714 0.000000 0.000000 0.000000
0.960786 0.077724 1.430127 0.000000 0.000000 0.000000
0.933466 -0.032991 1.775002 0.000000 0.000000 0.000000
0.975847 -0.045891 1.821623 0.000000 0.000000 0.000000
0.950725 -0.037056 1.784426 0.000000 0.000000 0.000000
1.094964 0.014622 1.488279 0.000000 0.000000 0.000000
1.103268 0.011297 1.475688 0.000000 0.000000 0.000000
1.126109 -0.073934 1.764260 0.000000 0.000000 0.000000
1.142709 -0.036418 1.589056 0.000000 0.000000 0.000000
1.111776 -0.087768 1.756014 0.000000 0.000000 0.000000
1.140938 -0.041276 1.603801 0.000000 0.000000 0.000000
1.123351 -0.091510 1.757935 0.000000 0.000000 0.000000
0.988999 -0.055736 1.824418 0.000000 0.000000 0.000000
0.994402 -0.062558 1.850532 0.000000 0.000000 0.000000
1.118453 -0.078631 1.768527 0.000000 0.000000 0.000000
1.112887 -0.079310 1.734185 0.000000 0.000000 0.000000
1.024226 0.048430 1.431960 0.000000 0.000000 0.000000
1.147412 -0.081574 1.741075 0.000000 0.000000 0.000000
1.110643 -0.088615 1.759858 0.000000 0.000000 0.000000
1.134246 -0.078165 1.730364 0.000000 0.000000 0.000000
0.990461 -0.057608 1.832578 0.000000 0.000000 0.000000
1.115191 -0.082828 1.739216 0.000000 0.000000 0.000000
0.979067 -0.047850 1.819144 0.000000 0.000000 0.000000
1.109980 -0.081895 1.740865 0.000000 0.000000 0.000000
1.125703 -0.085732 1.772152 0.000000 0.000000 0.000000
1.114997 0.002547 1.492474 0.000000 0.000000 0.000000
0.888345 -0.029060 1.697739 0.000000 0.000000 0.000000
0.888643 -0.034721 1.712332 0.000000 0.000000 0.000000
1.106536 -0.000142 1.513145 0.000000 0.000000 0.000000
0.939058 0.092843 1.438455 0.000000 0.000000 0.000000
1.040542 0.036286 1.452536 0.000000 0.000000 0.000000
1.112198 0.006329 1.489044 0.000000 0.000000 0.000000
1.106832 0.003481 1.503829 0.000000 0.000000 0.000000
1.114477 0.002202 1.498610 0.000000 0.000000 0.000000
1.045052 0.038747 1.439607 0.000000 0.000000 0.000000
1.026765 0.030228 1.481221 0.000000 0.000000 0.000000
0.969739 -0.042029 1.807764 0.000000 0.000000 0.000000
0.974622 -0.046120 1.814900 0.000000 0.000000 0.000000
1.094980 -0.025150 1.588874 0.000000 0.000000 0.000000
1.123866 -0.040973 1.616049 0.000000 0.000000 0.000000
1.131081 -0.037831 1.612727 0.000000 0.000000 0.000000
0.936941 -0.015806 1.641312 0.000000 0.000000 0.000000
1.015796 -0.041790 1.683748 0.000000 0.000000 0.000000
1.112279 -0.004853 1.514379 0.000000 0.000000 0.000000
0.902142 -0.038103 1.738051 0.000000 0.000000 0.000000
1.005526 -0.041332 1.669712 0.000000 0.000000 0.000000
1.034532 0.041193 1.439511 0.000000 0.000000 0.000000
0.975278 0.066862 1.448593 0.000000 0.000000 0.000000
0.908474 0.001258 1.610446 0.000000 0.000000 0.000000
0.890109 -0.028580 1.696026 0.000000 0.000000 0.000000
0.941518 -0.040869 1.718879 0.000000 0.000000 0.000000
0.985197 -0.055196 1.791671 0.000000 0.000000 0.000000
1.112527 0.001156 1.502087 0.000000 0.000000 0.000000
0.931589 -0.024019 1.664272 0.000000 0.000000 0.000000
1.078247 0.014514 1.485681 0.000000 0.000000 0.000000
1.015045 -0.004043 1.569074 0.000000 0.000000 0.000000
1.114339 -0.024245 1.563688 0.000000 0.000000 0.000000
1.039365 -0.047109 1.649406 0.000000 0.000000 0.000000
1.108301 -0.003218 1.519952 0.000000 0.000000 0.000000
0.899109 -0.037139 1.714919 0.000000 0.000000 0.000000
0.987269 0.058714 1.458823 0.000000 0.000000 0.000000
0.979976 -0.052814 1.801835 0.000000 0.000000 0.000000
0.947481 -0.040121 1.713486 0.000000 0.000000 0.000000
1.111789 0.003420 1.499373 0.000000 0.000000 0.000000
0.885192 -0.024618 1.685068 0.000000 0.000000 0.000000
0.896968 0.074770 1.484582 0.000000 0.000000 0.000000
1.076474 0.006748 1.513015 0.000000 0.000000 0.000000
0.978262 -0.048316 1.812637 0.000000 0.000000 0.000000
1.081879 -0.018705 1.575637 0.000000 0.000000 0.000000
1.107516 -0.028553 1.589696 0.000000 0.000000 0.000000
0.912286 -0.007991 1.636032 0.000000 0.000000 0.000000
0.995336 -0.059983 1.827243 0.000000 0.000000 0.000000
0.921511 -0.040130 1.748823 0.000000 0.000000 0.000000
0.992117 0.011561 1.557499 0.000000 0.000000 0.000000
1.110871 -0.005631 1.525932 0.000000 0.000000 0.000000
0.907495 -0.037132 1.733468 0.000000 0.000000 0.000000
0.953048 -0.043588 1.732750 0.000000 0.000000 0.000000
1.027879 -0.063677 1.731583 0.000000 0.000000 0.000000
0.910953 -0.004071 1.628486 0.000000 0.000000 0.000000
1.134918 -0.029138 1.572550 0.000000 0.000000 0.000000
0.924160 -0.039911 1.747116 0.000000 0.000000 0.000000
1.133259 -0.031145 1.571068 0.000000 0.000000 0.000000
0.959734 -0.040021 1.792593 0.000000 0.000000 0.000000
0.939597 -0.015412 1.639372 0.000000 0.000000 0.000000
0.954216 0.079903 1.441386 0.000000 0.000000 0.000000
1.094661 -0.003430 1.528677 0.000000 0.000000 0.000000
1.074194 -0.021590 1.584536 0.000000 0.000000 0.000000
0.974329 -0.048604 1.793915 0.000000 0.000000 0.000000
1.093980 -0.028422 1.596330 0.000000 0.000000 0.000000
1.116907 -0.008356 1.525027 0.000000 0.000000 0.000000
0.899472 -0.033349 1.707572 0.000000 0.000000 0.000000
1.040609 0.025336 1.485578 0.000000 0.000000 0.000000
1.142418 -0.036591 1.579483 0.000000 0.000000 0.000000
0.980784 -0.051655 1.813712 0.000000 0.000000 0.000000
1.126614 -0.025795 1.581558 0.000000 0.000000 0.000000
0.921148 -0.038599 1.728787 0.000000 0.000000 0.000000
1.112615 0.000556 1.504443 0.000000 0.000000 0.000000
0.896494 -0.026292 1.688066 0.000000 0.000000 0.000000
1.118219 -0.003320 1.515254 0.000000 0.000000 0.000000
0.879140 0.057505 1.528496 0.000000 0.000000 0.000000
0.965776 -0.043512 1.795486 0.000000 0.000000 0.000000
0.929859 -0.033672 1.773036 0.000000 0.000000 0.000000
0.930394 0.092602 1.449475 0.000000 0.000000 0.000000
1.046035 -0.049215 1.661414 0.000000 0.000000 0.000000
1.114987 0.003276 1.495542 0.000000 0.000000 0.000000
0.901683 -0.035004 1.716569 0.000000 0.000000 0.000000
0.920616 -0.038776 1.744572 0.000000 0.000000 0.000000
0.895120 0.088197 1.457371 0.000000 0.000000 0.000000
0.948785 -0.040862 1.769942 0.000000 0.000000 0.000000
1.083117 0.017662 1.477127 0.000000 0.000000 0.000000
1.125294 -0.088515 1.760440 0.000000 0.000000 0.000000
1.010878 0.053144 1.431019 0.000000 0.000000 0.000000
1.009379 0.053984 1.433348 0.000000 0.000000 0.000000
1.152457 -0.055854 1.659213 0.000000 0.000000 0.000000
0.923313 -0.012609 1.641026 0.000000 0.000000 0.000000
1.009631 -0.042470 1.692780 0.000000 0.000000 0.000000
1.119554 -0.090780 1.773822 0.000000 0.000000 0.000000
1.080751 0.013085 1.500418 0.000000 0.000000 0.000000
0.857739 0.049775 1.542694 0.000000 0.000000 0.000000
0.847986 0.026550 1.596063 0.000000 0.000000 0.000000
0.855478 0.020065 1.606315 0.000000 0.000000 0.000000
1.014893 -0.087280 1.891126 0.000000 0.000000 0.000000
1.150017 -0.056593 1.672291 0.000000 0.000000 0.000000
1.063379 0.028683 1.457169 0.000000 0.000000 0.000000
0.975530 0.070217 1.428333 0.000000 0.000000 0.000000
1.150343 -0.058759 1.673509 0.000000 0.000000 0.000000
1.043798 0.019217 1.512915 0.000000 0.000000 0.000000
1.018213 -0.090832 1.888404 0.000000 0.000000 0.000000
1.027239 -0.093690 1.905619 0.000000 0.000000 0.000000
1.129124 -0.089864 1.758276 0.000000 0.000000 0.000000
1.154932 -0.049009 1.647433 0.000000 0.000000 0.000000
0.914571 -0.023945 1.665527 0.000000 0.000000 0.000000
1.148397 -0.063168 1.682861 0.000000 0.000000 0.000000
0.991641 -0.030119 1.653285 0.000000 0.000000 0.000000
1.146800 -0.058703 1.662445 0.000000 0.000000 0.000000
1.126096 -0.090751 1.747948 0.000000 0.000000 0.000000
0.863742 0.027035 1.578020 0.000000 0.000000 0.000000
0.967717 0.072821 1.438415 0.000000 0.000000 0.000000
1.150509 -0.060279 1.665952 0.000000 0.000000 0.000000
0.861075 0.016348 1.607072 0.000000 0.000000 0.000000
0.949717 0.085569 1.433100 0.000000 0.000000 0.000000
1.144704 -0.052193 1.666107 0.000000 0.000000 0.000000
1.148595 -0.062890 1.669804 0.000000 0.000000 0.000000
0.887729 -0.034959 1.716475 0.000000 0.000000 0.000000
1.131312 -0.013666 1.529327 0.000000 0.000000 0.000000
1.016398 -0.037012 1.649549 0.000000 0.000000 0.000000
1.097425 0.013213 1.474136 0.000000 0.000000 0.000000
1.124436 -0.090931 1.775225 0.000000 0.000000 0.000000
0.886482 -0.022037 1.691308 0.000000 0.000000 0.000000
1.123741 -0.087795 1.749542 0.000000 0.000000 0.000000
1.086040 0.012268 1.486126 0.000000 0.000000 0.000000
1.109300 -0.086013 1.771186 0.000000 0.000000 0.000000
0.874130 -0.016964 1.674343 0.000000 0.000000 0.000000
0.854323 0.017390 1.610848 0.000000 0.000000 0.000000
0.889663 -0.005386 1.643283 0.000000 0.000000 0.000000
0.894487 -0.006392 1.640304 0.000000 0.000000 0.000000
1.000364 -0.034948 1.664976 0.000000 0.000000 0.000000
1.104517 0.002955 1.502529 0.000000 0.000000 0.000000
1.099472 0.005797 1.479500 0.000000 0.000000 0.000000
0.879854 -0.006476 1.647913 0.000000 0.000000 0.000000
0.864734 0.062684 1.512358 0.000000 0.000000 0.000000
0.914252 -0.032681 1.711022 0.000000 0.000000 0.000000
1.108010 -0.086362 1.811235 0.000000 0.000000 0.000000
1.127188 -0.032799 1.585236 0.000000 0.000000 0.000000
1.090145 0.015450 1.476092 0.000000 0.000000 0.000000
1.087163 0.017850 1.469552 0.000000 0.000000 0.000000
1.145367 -0.045130 1.617584 0.000000 0.000000 0.000000
0.944922 -0.031660 1.789563 0.000000 0.000000 0.000000
1.132611 -0.082110 1.739702 0.000000 0.000000 0.000000
0.861706 0.018491 1.601047 0.000000 0.000000 0.000000
0.858405 0.013085 1.618921 0.000000 0.000000 0.000000
0.868126 -0.007789 1.662662 0.000000 0.000000 0.000000
0.874440 -0.011211 1.662055 0.000000 0.000000 0.000000
0.998337 -0.021929 1.638658 0.000000 0.000000 0.000000
1.104576 0.003815 1.497252 0.000000 0.000000 0.000000
1.102156 0.009280 1.490736 0.000000 0.000000 0.000000
1.104526 -0.086514 1.819355 0.000000 0.000000 0.000000
0.858594 0.063749 1.508613 0.000000 0.000000 0.000000
1.105413 -0.087420 1.796935 0.000000 0.000000 0.000000
1.089840 0.012521 1.492874 0.000000 0.000000 0.000000
1.099337 0.011084 1.485454 0.000000 0.000000 0.000000
1.126759 -0.011407 1.523366 0.000000 0.000000 0.000000
1.127881 -0.082739 1.739355 0.000000 0.000000 0.000000
1.084004 0.014548 1.478642 0.000000 0.000000 0.000000
1.146978 -0.031512 1.554749 0.000000 0.000000 0.000000
1.100225 0.011775 1.475248 0.000000 0.000000 0.000000
1.084395 0.021627 1.464178 0.000000 0.000000 0.000000
1.075914 0.024253 1.461714 0.000000 0.000000 0.000000
0.990924 0.062262 1.432548 0.000000 0.000000 0.000000
1.129293 -0.019466 1.541713 0.000000 0.000000 0.000000
1.143490 -0.024781 1.544445 0.000000 0.000000 0.000000
1.140739 -0.030106 1.546917 0.000000 0.000000 0.000000
1.137425 -0.020528 1.534555 0.000000 0.000000 0.000000
1.079183 0.027466 1.453412 0.000000 0.000000 0.000000
0.919256 0.093176 1.452072 0.000000 0.000000 0.000000
1.127304 -0.092721 1.768114 0.000000 0.000000 0.000000
1.090932 0.016440 1.471276 0.000000 0.000000 0.000000
0.850518 0.016648 1.617394 0.000000 0.000000 0.000000
0.973817 0.073372 1.458512 0.000000 0.000000 0.000000
1.073737 0.023776 1.465625 0.000000 0.000000 0.000000
1.139518 -0.026720 1.548494 0.000000 0.000000 0.000000
1.140012 -0.080507 1.740357 0.000000 0.000000 0.000000
0.988115 0.063157 1.434296 0.000000 0.000000 0.000000
0.935342 0.084193 1.458602 0.000000 0.000000 0.000000
0.854567 0.010490 1.626672 0.000000 0.000000 0.000000
0.939836 0.091643 1.439695 0.000000 0.000000 0.000000
1.086936 0.019742 1.464859 0.000000 0.000000 0.000000
0.901873 0.091973 1.448059 0.000000 0.000000 0.000000
0.986929 0.059997 1.466135 0.000000 0.000000 0.000000
0.854926 0.017932 1.614704 0.000000 0.000000 0.000000
0.854288 0.013978 1.618993 0.000000 0.000000 0.000000
0.883932 -0.018390 1.672650 0.000000 0.000000 0.000000
1.097162 0.012197 1.475135 0.000000 0.000000 0.000000
1.134338 -0.022907 1.535798 0.000000 0.000000 0.000000
0.873863 -0.015882 1.676582 0.000000 0.000000 0.000000
0.868646 -0.009695 1.659911 0.000000 0.000000 0.000000
0.876493 -0.017546 1.677449 0.000000 0.000000 0.000000
1.076002 -0.073869 1.733093 0.000000 0.000000 0.000000
1.091260 -0.076557 1.745701 0.000000 0.000000 0.000000
1.032148 -0.052953 1.684272 0.000000 0.000000 0.000000
0.876005 -0.012975 1.669666 0.000000 0.000000 0.000000
0.885310 -0.020071 1.673005 0.000000 0.000000 0.000000
1.108543 0.005105 1.489956 0.000000 0.000000 0.000000
1.130449 -0.087062 1.747593 0.000000 0.000000 0.000000
0.910705 -0.023387 1.684230 0.000000 0.000000 0.000000
0.875435 -0.014480 1.663094 0.000000 0.000000 0.000000
1.091948 -0.085209 1.820767 0.000000 0.000000 0.000000
1.120641 -0.002547 1.507647 0.000000 0.000000 0.000000
0.947809 0.086503 1.432190 0.000000 0.000000 0.000000
1.061450 -0.079460 1.898129 0.000000 0.000000 0.000000
1.035899 0.038298 1.445764 0.000000 0.000000 0.000000
0.865936 0.073349 1.485435 0.000000 0.000000 0.000000
0.900661 0.064386 1.503281 0.000000 0.000000 0.000000
0.932003 0.095423 1.442399 0.000000 0.000000 0.000000
0.903090 0.081377 1.476328 0.000000 0.000000 0.000000
1.028245 -0.068019 1.776703 0.000000 0.000000 0.000000
1.118341 -0.008817 1.516770 0.000000 0.000000 0.000000
0.956958 0.075860 1.451787 0.000000 0.000000 0.000000
1.037090 -0.066008 1.755714 0.000000 0.000000 0.000000
0.925235 0.076619 1.480387 0.000000 0.000000 0.000000
1.003765 0.043672 1.482201 0.000000 0.000000 0.000000
1.037927 0.042667 1.435189 0.000000 0.000000 0.000000
0.944667 0.089161 1.436473 0.000000 0.000000 0.000000
1.135951 -0.020492 1.539731 0.000000 0.000000 0.000000
0.901215 0.027961 1.561831 0.000000 0.000000 0.000000
0.893385 0.049682 1.526949 0.000000 0.000000 0.000000
0.930316 0.095243 1.444465 0.000000 0.000000 0.000000
0.948720 0.083332 1.443642 0.000000 0.000000 0.000000
1.059991 -0.079809 1.791701 0.000000 0.000000 0.000000
0.956421 0.075111 1.448972 0.000000 0.000000 0.000000
0.946017 0.079265 1.454916 0.000000 0.000000 0.000000
0.897688 0.049309 1.528039 0.000000 0.000000 0.000000
0.883433 0.037193 1.552664 0.000000 0.000000 0.000000
0.950012 -0.034762 1.789465 0.000000 0.000000 0.000000
1.109846 0.008623 1.479101 0.000000 0.000000 0.000000
1.021791 0.050036 1.430012 0.000000 0.000000 0.000000
0.960776 0.077220 1.434134 0.000000 0.000000 0.000000
1.128713 -0.092228 1.771402 0.000000 0.000000 0.000000
0.968718 0.072946 1.434674 0.000000 0.000000 0.000000
0.964609 0.076268 1.426877 0.000000 0.000000 0.000000
0.988189 0.060053 1.435543 0.000000 0.000000 0.000000
0.866013 0.072957 1.485585 0.000000 0.000000 0.000000
1.125913 -0.093445 1.770782 0.000000 0.000000 0.000000
1.120374 -0.091571 1.761159 0.000000 0.000000 0.000000
0.961723 0.077765 1.429245 0.000000 0.000000 0.000000
1.145652 -0.034174 1.567832 0.000000 0.000000 0.000000
1.115938 -0.002084 1.507960 0.000000 0.000000 0.000000
0.870821 -0.002660 1.642012 0.000000 0.000000 0.000000
0.970840 0.071007 1.436620 0.000000 0.000000 0.000000
0.972700 0.070247 1.435800 0.000000 0.000000 0.000000
1.140748 -0.083665 1.744624 0.000000 0.000000 0.000000
0.982037 0.062922 1.441056 0.000000 0.000000 0.000000
1.133963 -0.029916 1.555112 0.000000 0.000000 0.000000
1.117734 -0.088472 1.820180 0.000000 0.000000 0.000000
1.113733 -0.090669 1.806119 0.000000 0.000000 0.000000
0.944230 -0.032222 1.785696 0.000000 0.000000 0.000000
0.961885 0.077848 1.430233 0.000000 0.000000 0.000000
1.115546 -0.090499 1.769034 0.000000 0.000000 0.000000
1.121484 -0.083665 1.748328 0.000000 0.000000 0.000000
0.982090 -0.046746 1.829457 0.000000 0.000000 0.000000
1.121630 -0.004785 1.514801 0.000000 0.000000 0.000000
0.960349 -0.036342 1.798934 0.000000 0.000000 0.000000
0.874028 0.075794 1.488296 0.000000 0.000000 0.000000
0.865859 0.006128 1.627297 0.000000 0.000000 0.000000
0.870069 -0.004272 1.647517 0.000000 0.000000 0.000000
0.857635 0.008805 1.629681 0.000000 0.000000 0.000000
0.884304 0.062344 1.511476 0.000000 0.000000 0.000000
0.946294 0.086583 1.440275 0.000000 0.000000 0.000000
1.123087 -0.007809 1.521411 0.000000 0.000000 0.000000
0.840798 0.053896 1.550830 0.000000 0.000000 0.000000
0.976612 0.066389 1.433112 0.000000 0.000000 0.000000
1.142513 -0.029599 1.562891 0.000000 0.000000 0.000000
1.127906 -0.008827 1.514278 0.000000 0.000000 0.000000
0.864429 0.002735 1.634168 0.000000 0.000000 0.000000
0.964072 0.076312 1.428226 0.000000 0.000000 0.000000
0.858226 0.024951 1.588041 0.000000 0.000000 0.000000
1.144298 -0.034171 1.564052 0.000000 0.000000 0.000000
1.121988 -0.091594 1.790970 0.000000 0.000000 0.000000
0.967719 0.073334 1.430746 0.000000 0.000000 0.000000
0.914832 -0.040946 1.743301 0.000000 0.000000 0.000000
1.114634 -0.088261 1.751372 0.000000 0.000000 0.000000
0.960166 -0.037177 1.810502 0.000000 0.000000 0.000000
0.968066 0.072565 1.431138 0.000000 0.000000 0.000000
0.861495 0.009356 1.619194 0.000000 0.000000 0.000000
0.891461 0.002736 1.621378 0.000000 0.000000 0.000000
0.876443 0.010981 1.609305 0.000000 0.000000 0.000000
0.886213 0.060735 1.511604 0.000000 0.000000 0.000000
0.870350 0.075440 1.485799 0.000000 0.000000 0.000000
1.126716 -0.008435 1.515733 0.000000 0.000000 0.000000
1.061705 -0.082244 1.897405 0.000000 0.000000 0.000000
1.128453 -0.095706 1.787880 0.000000 0.000000 0.000000
1.144635 -0.067913 1.706655 0.000000 0.000000 0.000000
0.923635 -0.040287 1.753065 0.000000 0.000000 0.000000
0.901822 -0.039136 1.722482 0.000000 0.000000 0.000000
1.134712 -0.024293 1.538846 0.000000 0.000000 0.000000
1.146760 -0.063811 1.684820 0.000000 0.000000 0.000000
1.142938 -0.062436 1.705648 0.000000 0.000000 0.000000
0.959654 -0.042853 1.778047 0.000000 0.000000 0.000000
1.036023 -0.090023 1.905894 0.000000 0.000000 0.000000
0.844238 0.049515 1.551435 0.000000 0.000000 0.000000
0.938938 -0.029274 1.784528 0.000000 0.000000 0.000000
0.946604 0.086877 1.434150 0.000000 0.000000 0.000000
1.092309 -0.085812 1.805161 0.000000 0.000000 0.000000
1.142674 -0.064031 1.702369 0.000000 0.000000 0.000000
1.150743 -0.066060 1.709421 0.000000 0.000000 0.000000
1.027528 -0.093122 1.903467 0.000000 0.000000 0.000000
0.943205 -0.029821 1.790210 0.000000 0.000000 0.000000
1.037328 -0.057097 1.688541 0.000000 0.000000 0.000000
1.146366 -0.064113 1.695575 0.000000 0.000000 0.000000
0.949314 0.085375 1.433888 0.000000 0.000000 0.000000
0.966659 -0.034543 1.820437 0.000000 0.000000 0.000000
1.130775 -0.008092 1.516333 0.000000 0.000000 0.000000
1.123751 -0.001202 1.512799 0.000000 0.000000 0.000000
0.899270 0.088971 1.456003 0.000000 0.000000 0.000000
0.917326 0.090910 1.459784 0.000000 0.000000 0.000000
1.138176 -0.036097 1.589503 0.000000 0.000000 0.000000
0.905722 0.091981 1.452420 0.000000 0.000000 0.000000
0.976374 0.070478 1.426984 0.000000 0.000000 0.000000
0.909589 0.095690 1.446702 0.000000 0.000000 0.000000
1.108938 0.002343 1.484611 0.000000 0.000000 0.000000
1.108701 -0.087868 1.788627 0.000000 0.000000 0.000000
1.133498 -0.087816 1.759673 0.000000 0.000000 0.000000
1.139970 -0.082487 1.747261 0.000000 0.000000 0.000000
1.126718 -0.095484 1.753970 0.000000 0.000000 0.000000
1.138074 -0.079118 1.742585 0.000000 0.000000 0.000000
1.130960 -0.011632 1.517064 0.000000 0.000000 0.000000
0.962241 0.079437 1.426905 0.000000 0.000000 0.000000
1.128040 -0.083375 1.759506 0.000000 0.000000 0.000000
1.135621 -0.088813 1.756021 0.000000 0.000000 0.000000
1.121459 -0.088213 1.747983 0.000000 0.000000 0.000000
1.130373 -0.081027 1.740020 0.000000 0.000000 0.000000
0.854393 0.072287 1.499951 0.000000 0.000000 0.000000
1.118559 0.000387 1.501497 0.000000 0.000000 0.000000
1.135818 -0.061766 1.677476 0.000000 0.000000 0.000000
1.146875 -0.046751 1.608162 0.000000 0.000000 0.000000
1.150058 -0.041204 1.609768 0.000000 0.000000 0.000000
1.127005 -0.093914 1.801806 0.000000 0.000000 0.000000
1.140262 -0.072060 1.706026 0.000000 0.000000 0.000000
1.148573 -0.042226 1.599660 0.000000 0.000000 0.000000
0.988280 -0.056001 1.800246 0.000000 0.000000 0.000000
1.078419 -0.040930 1.631032 0.000000 0.000000 0.000000
1.141797 -0.071635 1.694835 0.000000 0.000000 0.000000
0.977209 0.067034 1.420193 0.000000 0.000000 0.000000
1.137130 -0.046750 1.639152 0.000000 0.000000 0.000000
0.964128 0.076772 1.426397 0.000000 0.000000 0.000000
1.071241 -0.030293 1.627634 0.000000 0.000000 0.000000
1.154035 -0.061496 1.683531 0.000000 0.000000 0.000000
1.126463 -0.090292 1.784198 0.000000 0.000000 0.000000
1.036704 -0.089909 1.911298 0.000000 0.000000 0.000000
0.905732 -0.035949 1.730140 0.000000 0.000000 0.000000
1.089794 0.018116 1.465375 0.000000 0.000000 0.000000
1.123662 -0.089117 1.793904 0.000000 0.000000 0.000000
1.061652 0.024131 1.471418 0.000000 0.000000 0.000000
0.989922 -0.057529 1.796916 0.000000 0.000000 0.000000
0.991822 -0.059411 1.848591 0.000000 0.000000 0.000000
1.075340 0.019411 1.455621 0.000000 0.000000 0.000000
1.057978 0.029562 1.456298 0.000000 0.000000 0.000000
1.111604 -0.092305 1.790755 0.000000 0.000000 0.000000
0.891920 -0.018813 1.667635 0.000000 0.000000 0.000000
1.141394 -0.039404 1.598964 0.000000 0.000000 0.000000
1.128803 -0.091141 1.778152 0.000000 0.000000 0.000000
0.993180 -0.053533 1.846417 0.000000 0.000000 0.000000
0.880150 -0.020487 1.674605 0.000000 0.000000 0.000000
1.080891 0.020785 1.464844 0.000000 0.000000 0.000000
0.972418 -0.045191 1.808236 0.000000 0.000000 0.000000
0.930785 0.096791 1.437983 0.000000 0.000000 0.000000
1.066821 0.023087 1.460965 0.000000 0.000000 0.000000
0.985668 -0.053351 1.835438 0.000000 0.000000 0.000000
1.136858 -0.069024 1.711586 0.000000 0.000000 0.000000
0.995740 -0.062473 1.851973 0.000000 0.000000 0.000000
1.125826 -0.089992 1.764289 0.000000 0.000000 0.000000
1.110975 -0.089667 1.815441 0.000000 0.000000 0.000000
0.894813 -0.013089 1.651815 0.000000 0.000000 0.000000
1.142535 -0.043045 1.608046 0.000000 0.000000 0.000000
1.134182 -0.097123 1.773010 0.000000 0.000000 0.000000
1.001599 -0.066375 1.843041 0.000000 0.000000 0.000000
0.875632 -0.022698 1.684527 0.000000 0.000000 0.000000
1.120777 -0.090610 1.796829 0.000000 0.000000 0.000000
0.977475 0.066256 1.440357 0.000000 0.000000 0.000000
1.083425 0.016243 1.468946 0.000000 0.000000 0.000000
0.982318 -0.050408 1.824443 0.000000 0.000000 0.000000
1.123014 -0.090914 1.801033 0.000000 0.000000 0.000000
1.027170 -0.087374 1.890897 0.000000 0.000000 0.000000
1.023631 -0.091559 1.897372 0.000000 0.000000 0.000000
0.944228 0.084417 1.443410 0.000000 0.000000 0.000000
1.123573 -0.004502 1.509063 0.000000 0.000000 0.000000
1.120546 -0.090678 1.812041 0.000000 0.000000 0.000000
1.040299 -0.083255 1.876241 0.000000 0.000000 0.000000
0.965446 0.075523 1.431317 0.000000 0.000000 0.000000
1.007465 0.051165 1.445353 0.000000 0.000000 0.000000
1.032102 -0.086389 1.889506 0.000000 0.000000 0.000000
1.008797 0.054902 1.430572 0.000000 0.000000 0.000000
0.873251 -0.022925 1.680500 0.000000 0.000000 0.000000
1.006879 0.053353 1.437041 0.000000 0.000000 0.000000
1.018383 0.046266 1.441065 0.000000 0.000000 0.000000
1.038322 -0.083743 1.889563 0.000000 0.000000 0.000000
1.000875 0.056402 1.434319 0.000000 0.000000 0.000000
1.125447 -0.005257 1.509003 0.000000 0.000000 0.000000
0.990220 0.064212 1.428151 0.000000 0.000000 0.000000
1.134385 -0.064427 1.702996 0.000000 0.000000 0.000000
0.998879 0.056701 1.437885 0.000000 0.000000 0.000000
1.043714 -0.089071 1.914772 0.000000 0.000000 0.000000
1.125072 -0.092474 1.798887 0.000000 0.000000 0.000000
1.130470 -0.098543 1.779175 0.000000 0.000000 0.000000
1.034270 -0.085625 1.883367 0.000000 0.000000 0.000000
1.116909 -0.066188 1.692603 0.000000 0.000000 0.000000
1.073096 0.022263 1.463507 0.000000 0.000000 0.000000
0.874831 -0.005722 1.637910 0.000000 0.000000 0.000000
1.073915 0.025161 1.457420 0.000000 0.000000 0.000000
1.118883 -0.089055 1.809036 0.000000 0.000000 0.000000
1.068013 0.024266 1.467669 0.000000 0.000000 0.000000
1.078780 0.026057 1.456769 0.000000 0.000000 0.000000
1.153134 -0.063593 1.688500 0.000000 0.000000 0.000000
1.074798 0.026706 1.455713 0.000000 0.000000 0.000000
0.967983 0.071568 1.436382 0.000000 0.000000 0.000000
0.904017 -0.034415 1.720250 0.000000 0.000000 0.000000
0.912698 -0.036990 1.720744 0.000000 0.000000 0.000000
0.979044 0.068033 1.431009 0.000000 0.000000 0.000000
0.986443 0.064024 1.431153 0.000000 0.000000 0.000000
0.954689 0.082980 1.428817 0.000000 0.000000 0.000000
1.079675 -0.046682 1.656356 0.000000 0.000000 0.000000
0.977609 -0.022991 1.651670 0.000000 0.000000 0.000000
1.132782 -0.025936 1.547563 0.000000 0.000000 0.000000
0.891788 0.086749 1.453582 0.000000 0.000000 0.000000
1.031690 0.044383 1.433585 0.000000 0.000000 0.000000
0.946323 -0.029357 1.793042 0.000000 0.000000 0.000000
0.943233 -0.030581 1.795130 0.000000 0.000000 0.000000
0.990023 0.061200 1.430452 0.000000 0.000000 0.000000
1.143588 -0.032324 1.555875 0.000000 0.000000 0.000000
1.025041 0.049849 1.431062 0.000000 0.000000 0.000000
0.958241 -0.036928 1.796730 0.000000 0.000000 0.000000
0.943216 -0.030279 1.791758 0.000000 0.000000 0.000000
0.999149 -0.071089 1.865685 0.000000 0.000000 0.000000
1.008403 -0.078953 1.879676 0.000000 0.000000 0.000000
1.001909 -0.061420 1.859861 0.000000 0.000000 0.000000
1.051715 0.032186 1.453825 0.000000 0.000000 0.000000
1.000738 -0.063074 1.863344 0.000000 0.000000 0.000000
1.082713 0.014352 1.491725 0.000000 0.000000 0.000000
0.999762 -0.071105 1.868952 0.000000 0.000000 0.000000
0.942843 0.089288 1.433008 0.000000 0.000000 0.000000
0.935593 -0.033065 1.774638 0.000000 0.000000 0.000000
1.023613 -0.090222 1.891665 0.000000 0.000000 0.000000
0.996725 -0.065174 1.861065 0.000000 0.000000 0.000000
1.068120 -0.072773 1.751195 0.000000 0.000000 0.000000
1.014819 -0.077898 1.858665 0.000000 0.000000 0.000000
1.003471 -0.071125 1.862297 0.000000 0.000000 0.000000
1.018179 -0.084719 1.871833 0.000000 0.000000 0.000000
1.121731 -0.090247 1.802390 0.000000 0.000000 0.000000
1.114357 -0.087220 1.820848 0.000000 0.000000 0.000000
1.094373 0.014319 1.477980 0.000000 0.000000 0.000000
1.112248 -0.085017 1.819721 0.000000 0.000000 0.000000
0.955174 -0.033160 1.803724 0.000000 0.000000 0.000000
1.000804 0.057888 1.429335 0.000000 0.000000 0.000000
0.995834 -0.066654 1.859633 0.000000 0.000000 0.000000
1.043377 -0.036785 1.641431 0.000000 0.000000 0.000000
1.115710 -0.080166 1.724450 0.000000 0.000000 0.000000
0.997868 -0.066093 1.856795 0.000000 0.000000 0.000000
1.005204 -0.076498 1.860734 0.000000 0.000000 0.000000
0.999996 -0.081905 1.877959 0.000000 0.000000 0.000000
1.129543 -0.092775 1.751256 0.000000 0.000000 0.000000
1.122926 -0.090317 1.810543 0.000000 0.000000 0.000000
1.114750 -0.084774 1.833891 0.000000 0.000000 0.000000
1.109420 -0.089465 1.798808 0.000000 0.000000 0.000000
1.117432 -0.087668 1.816170 0.000000 0.000000 0.000000
0.965154 -0.044101 1.783231 0.000000 0.000000 0.000000
1.063529 -0.081400 1.880319 0.000000 0.000000 0.000000
1.073619 -0.078619 1.885594 0.000000 0.000000 0.000000
1.124380 -0.091162 1.796942 0.000000 0.000000 0.000000
1.048842 -0.079622 1.897782 0.000000 0.000000 0.000000
1.122237 -0.089597 1.817018 0.000000 0.000000 0.000000
0.888527 0.086001 1.454936 0.000000 0.000000 0.000000
0.905399 -0.038434 1.743367 0.000000 0.000000 0.000000
1.027324 -0.081349 1.873618 0.000000 0.000000 0.000000
0.859633 0.069670 1.490544 0.000000 0.000000 0.000000
0.914847 -0.038959 1.749233 0.000000 0.000000 0.000000
1.134530 -0.095149 1.759301 0.000000 0.000000 0.000000
0.992385 -0.057553 1.818825 0.000000 0.000000 0.000000
1.111108 -0.085185 1.837089 0.000000 0.000000 0.000000
1.032625 0.036224 1.435528 0.000000 0.000000 0.000000
1.004663 -0.081461 1.882658 0.000000 0.000000 0.000000
1.127327 -0.093822 1.763184 0.000000 0.000000 0.000000
0.998464 0.059855 1.428852 0.000000 0.000000 0.000000
1.033671 0.041207 1.442782 0.000000 0.000000 0.000000
1.139653 -0.041192 1.602982 0.000000 0.000000 0.000000
0.888841 0.087320 1.453706 0.000000 0.000000 0.000000
1.127676 -0.091369 1.754697 0.000000 0.000000 0.000000
1.012774 -0.088782 1.882841 0.000000 0.000000 0.000000
1.126820 -0.093996 1.771691 0.000000 0.000000 0.000000
1.124205 -0.092334 1.764042 0.000000 0.000000 0.000000
1.121586 -0.092050 1.786901 0.000000 0.000000 0.000000
0.967450 0.071263 1.430868 0.000000 0.000000 0.000000
1.014030 -0.082978 1.867925 0.000000 0.000000 0.000000
0.931029 -0.040239 1.746538 0.000000 0.000000 0.000000
1.130966 -0.090592 1.766122 0.000000 0.000000 0.000000
1.132662 -0.093914 1.772457 0.000000 0.000000 0.000000
0.906431 0.092238 1.448487 0.000000 0.000000 0.000000
0.893025 0.089551 1.450612 0.000000 0.000000 0.000000
1.067150 -0.080670 1.857960 0.000000 0.000000 0.000000
1.076205 -0.078168 1.875995 0.000000 0.000000 0.000000
1.043341 -0.085890 1.893430 0.000000 0.000000 0.000000
1.033840 0.042675 1.436654 0.000000 0.000000 0.000000
1.130372 -0.007618 1.515169 0.000000 0.000000 0.000000
1.074080 -0.078668 1.890181 0.000000 0.000000 0.000000
0.943768 -0.041813 1.730726 0.000000 0.000000 0.000000
0.946573 -0.044218 1.739763 0.000000 0.000000 0.000000
0.953714 -0.040789 1.715523 0.000000 0.000000 0.000000
0.980598 -0.039909 1.670645 0.000000 0.000000 0.000000
1.067889 -0.077199 1.883609 0.000000 0.000000 0.000000
1.079255 -0.074876 1.871297 0.000000 0.000000 0.000000
1.156655 -0.050767 1.661515 0.000000 0.000000 0.000000
0.946515 -0.034987 1.706678 0.000000 0.000000 0.000000
0.961939 -0.048363 1.734523 0.000000 0.000000 0.000000
1.046231 -0.044068 1.648937 0.000000 0.000000 0.000000
0.920004 0.096629 1.451849 0.000000 0.000000 0.000000
1.137859 -0.026943 1.553223 0.000000 0.000000 0.000000
1.071367 -0.075891 1.890675 0.000000 0.000000 0.000000
0.920435 -0.040581 1.739666 0.000000 0.000000 0.000000
0.917044 -0.040091 1.745998 0.000000 0.000000 0.000000
0.931738 -0.043317 1.741182 0.000000 0.000000 0.000000
0.911260 -0.041354 1.739299 0.000000 0.000000 0.000000
0.958440 -0.039919 1.700732 0.000000 0.000000 0.000000
0.957846 -0.040500 1.701466 0.000000 0.000000 0.000000
1.070461 -0.075833 1.881764 0.000000 0.000000 0.000000
1.068693 -0.079557 1.889517 0.000000 0.000000 0.000000
1.153505 -0.052626 1.661313 0.000000 0.000000 0.000000
0.971466 -0.044821 1.717818 0.000000 0.000000 0.000000
1.055323 -0.042265 1.640741 0.000000 0.000000 0.000000
0.913181 0.096196 1.448683 0.000000 0.000000 0.000000
1.141483 -0.031342 1.556295 0.000000 0.000000 0.000000
0.922904 -0.042166 1.734675 0.000000 0.000000 0.000000
0.912678 -0.039505 1.745565 0.000000 0.000000 0.000000
0.938075 -0.042410 1.740835 0.000000 0.000000 0.000000
1.136864 -0.029869 1.575338 0.000000 0.000000 0.000000
0.970648 0.072163 1.426697 0.000000 0.000000 0.000000
1.141555 -0.062748 1.658274 0.000000 0.000000 0.000000
1.131210 -0.028523 1.574295 0.000000 0.000000 0.000000
1.134407 -0.029956 1.569366 0.000000 0.000000 0.000000
1.119311 -0.088146 1.825942 0.000000 0.000000 0.000000
1.040795 -0.050826 1.663253 0.000000 0.000000 0.000000
0.968127 -0.045174 1.728093 0.000000 0.000000 0.000000
1.075681 -0.054467 1.672452 0.000000 0.000000 0.000000
1.131196 -0.058293 1.667415 0.000000 0.000000 0.000000
1.100807 -0.083611 1.828353 0.000000 0.000000 0.000000
1.022391 -0.049622 1.684476 0.000000 0.000000 0.000000
0.954776 -0.044893 1.725988 0.000000 0.000000 0.000000
1.141682 -0.033035 1.573992 0.000000 0.000000 0.000000
0.968327 -0.047775 1.734555 0.000000 0.000000 0.000000
1.147624 -0.032493 1.575059 0.000000 0.000000 0.000000
0.993722 -0.060394 1.854634 0.000000 0.000000 0.000000
1.018716 -0.044986 1.679417 0.000000 0.000000 0.000000
1.050885 -0.040490 1.644572 0.000000 0.000000 0.000000
1.116465 -0.059433 1.676437 0.000000 0.000000 0.000000
1.009598 -0.053918 1.726908 0.000000 0.000000 0.000000
1.037251 -0.053627 1.712261 0.000000 0.000000 0.000000
0.933479 -0.040169 1.717086 0.000000 0.000000 0.000000
1.134325 -0.027715 1.561898 0.000000 0.000000 0.000000
0.977630 -0.049024 1.737061 0.000000 0.000000 0.000000
0.880762 -0.017368 1.683319 0.000000 0.000000 0.000000
1.121323 -0.088365 1.803557 0.000000 0.000000 0.000000
0.998033 -0.064254 1.848758 0.000000 0.000000 0.000000
1.004863 -0.071750 1.862385 0.000000 0.000000 0.000000
1.126872 -0.003790 1.511259 0.000000 0.000000 0.000000
1.114777 -0.085800 1.832000 0.000000 0.000000 0.000000
0.890935 -0.031859 1.706093 0.000000 0.000000 0.000000
0.939871 0.083010 1.445393 0.000000 0.000000 0.000000
0.980642 0.063797 1.450032 0.000000 0.000000 0.000000
0.977861 0.067380 1.431263 0.000000 0.000000 0.000000
0.964101 0.071524 1.442183 0.000000 0.000000 0.000000
1.117112 -0.002820 1.510104 0.000000 0.000000 0.000000
1.116765 -0.088152 1.837131 0.000000 0.000000 0.000000
1.087991 -0.077244 1.831068 0.000000 0.000000 0.000000
0.865138 0.049803 1.542162 0.000000 0.000000 0.000000
0.847445 0.058611 1.528804 0.000000 0.000000 0.000000
1.102371 -0.086159 1.818391 0.000000 0.000000 0.000000
1.119856 0.000925 1.496840 0.000000 0.000000 0.000000
0.887243 -0.030663 1.705370 0.000000 0.000000 0.000000
0.842954 0.053929 1.538545 0.000000 0.000000 0.000000
1.101300 0.006617 1.493178 0.000000 0.000000 0.000000
1.114535 0.006415 1.486057 0.000000 0.000000 0.000000
0.855224 0.054166 1.521400 0.000000 0.000000 0.000000
1.018175 -0.055388 1.721407 0.000000 0.000000 0.000000
0.988256 0.062790 1.428741 0.000000 0.000000 0.000000
0.876455 -0.020184 1.685547 0.000000 0.000000 0.000000
0.962354 0.077348 1.428043 0.000000 0.000000 0.000000
1.000405 0.058758 1.428662 0.000000 0.000000 0.000000
0.856195 0.050964 1.539691 0.000000 0.000000 0.000000
0.857028 0.057429 1.524764 0.000000 0.000000 0.000000
1.099540 -0.084332 1.836293 0.000000 0.000000 0.000000
1.119633 -0.000215 1.500768 0.000000 0.000000 0.000000
1.092013 0.013527 1.479370 0.000000 0.000000 0.000000
1.023048 -0.057614 1.732469 0.000000 0.000000 0.000000
0.840636 0.055800 1.538592 0.000000 0.000000 0.000000
1.005315 -0.077084 1.877805 0.000000 0.000000 0.000000
0.888298 -0.034084 1.708675 0.000000 0.000000 0.000000
0.972353 0.071194 1.431611 0.000000 0.000000 0.000000
0.982308 0.066663 1.430437 0.000000 0.000000 0.000000
0.954494 0.082972 1.431121 0.000000 0.000000 0.000000
1.093531 -0.076579 1.821193 0.000000 0.000000 0.000000
1.103120 -0.083272 1.838989 0.000000 0.000000 0.000000
1.044099 -0.086950 1.910368 0.000000 0.000000 0.000000
0.887429 -0.033272 1.702693 0.000000 0.000000 0.000000
1.123088 -0.084095 1.740862 0.000000 0.000000 0.000000
1.083656 0.021589 1.462345 0.000000 0.000000 0.000000
1.086243 0.022116 1.462738 0.000000 0.000000 0.000000
1.138657 -0.076594 1.730223 0.000000 0.000000 0.000000
1.047561 -0.083840 1.910646 0.000000 0.000000 0.000000
0.966332 -0.041605 1.802241 0.000000 0.000000 0.000000
0.842096 0.053908 1.538300 0.000000 0.000000 0.000000
0.843559 0.052111 1.538980 0.000000 0.000000 0.000000
1.040837 -0.078959 1.803807 0.000000 0.000000 0.000000
0.914092 -0.038530 1.736863 0.000000 0.000000 0.000000
1.013074 -0.087222 1.891117 0.000000 0.000000 0.000000
1.091427 0.020557 1.461024 0.000000 0.000000 0.000000
0.906823 -0.039402 1.740779 0.000000 0.000000 0.000000
1.122450 -0.011182 1.526355 0.000000 0.000000 0.000000
1.093770 0.015975 1.469491 0.000000 0.000000 0.000000
0.942152 -0.030993 1.787320 0.000000 0.000000 0.000000
1.082289 0.026470 1.455957 0.000000 0.000000 0.000000
1.143699 -0.063589 1.684258 0.000000 0.000000 0.000000
1.122766 -0.024964 1.535233 0.000000 0.000000 0.000000
1.143193 -0.058745 1.685834 0.000000 0.000000 0.000000
1.121547 -0.012491 1.530660 0.000000 0.000000 0.000000
1.142778 -0.068777 1.704558 0.000000 0.000000 0.000000
1.156794 -0.057765 1.673285 0.000000 0.000000 0.000000
1.135558 -0.014667 1.527314 0.000000 0.000000 0.000000
1.153018 -0.067369 1.692997 0.000000 0.000000 0.000000
1.150195 -0.060154 1.680729 0.000000 0.000000 0.000000
1.131435 -0.064088 1.683437 0.000000 0.000000 0.000000
1.134815 -0.025330 1.546503 0.000000 0.000000 0.000000
1.148725 -0.062415 1.686026 0.000000 0.000000 0.000000
1.156011 -0.056965 1.663617 0.000000 0.000000 0.000000
1.130008 -0.018107 1.532246 0.000000 0.000000 0.000000
1.126197 -0.016580 1.534392 0.000000 0.000000 0.000000
1.120012 -0.008753 1.524331 0.000000 0.000000 0.000000
1.139634 -0.024865 1.543516 0.000000 0.000000 0.000000
1.134961 -0.017421 1.530411 0.000000 0.000000 0.000000
0.961248 0.075513 1.426401 0.000000 0.000000 0.000000
1.047432 -0.082342 1.864159 0.000000 0.000000 0.000000
1.080960 -0.075739 1.877967 0.000000 0.000000 0.000000
1.072586 -0.080714 1.864956 0.000000 0.000000 0.000000
1.129099 -0.095005 1.776979 0.000000 0.000000 0.000000
1.127603 -0.025314 1.545077 0.000000 0.000000 0.000000
1.139277 -0.024138 1.536843 0.000000 0.000000 0.000000
0.871374 -0.014041 1.670728 0.000000 0.000000 0.000000
1.138060 -0.021407 1.537619 0.000000 0.000000 0.000000
1.138827 -0.022820 1.538283 0.000000 0.000000 0.000000
0.952938 0.082272 1.432342 0.000000 0.000000 0.000000
0.901802 -0.037610 1.729885 0.000000 0.000000 0.000000
1.144517 -0.032495 1.562440 0.000000 0.000000 0.000000
0.952434 -0.032512 1.795907 0.000000 0.000000 0.000000
1.075806 -0.077157 1.884706 0.000000 0.000000 0.000000
1.058714 -0.082324 1.899052 0.000000 0.000000 0.000000
0.917485 -0.039502 1.755028 0.000000 0.000000 0.000000
1.025240 0.045879 1.434175 0.000000 0.000000 0.000000
0.931637 -0.027660 1.784413 0.000000 0.000000 0.000000
0.909077 0.092519 1.456770 0.000000 0.000000 0.000000
0.883401 -0.027659 1.697866 0.000000 0.000000 0.000000
0.875199 -0.008618 1.657614 0.000000 0.000000 0.000000
0.949715 -0.032228 1.796565 0.000000 0.000000 0.000000
1.138548 -0.025467 1.553253 0.000000 0.000000 0.000000
0.870231 -0.017289 1.674209 0.000000 0.000000 0.000000
0.879520 -0.021733 1.679182 0.000000 0.000000 0.000000
0.873535 -0.022081 1.680108 0.000000 0.000000 0.000000
0.926922 -0.035350 1.766188 0.000000 0.000000 0.000000
0.898472 -0.028893 1.698102 0.000000 0.000000 0.000000
1.030299 0.044453 1.435459 0.000000 0.000000 0.000000
0.882047 -0.025568 1.694210 0.000000 0.000000 0.000000
1.135511 -0.058248 1.662637 0.000000 0.000000 0.000000
1.127950 -0.020726 1.551511 0.000000 0.000000 0.000000
1.092122 -0.080812 1.853798 0.000000 0.000000 0.000000
0.886880 -0.013134 1.652546 0.000000 0.000000 0.000000
0.871924 -0.012516 1.659422 0.000000 0.000000 0.000000
0.926697 -0.038544 1.733266 0.000000 0.000000 0.000000
1.096525 -0.088387 1.804960 0.000000 0.000000 0.000000
1.087091 0.019297 1.465389 0.000000 0.000000 0.000000
0.909151 -0.041432 1.744069 0.000000 0.000000 0.000000
0.899610 -0.030585 1.701116 0.000000 0.000000 0.000000
0.899125 -0.040073 1.728343 0.000000 0.000000 0.000000
1.137945 -0.023980 1.546600 0.000000 0.000000 0.000000
0.844769 0.029860 1.586425 0.000000 0.000000 0.000000
0.867423 -0.006826 1.653701 0.000000 0.000000 0.000000
1.033592 -0.088845 1.903109 0.000000 0.000000 0.000000
0.895056 -0.033880 1.710563 0.000000 0.000000 0.000000
1.137541 -0.023939 1.542055 0.000000 0.000000 0.000000
0.998729 -0.066117 1.855845 0.000000 0.000000 0.000000
0.991019 -0.061622 1.846935 0.000000 0.000000 0.000000
0.909332 -0.038368 1.738113 0.000000 0.000000 0.000000
0.915134 -0.038663 1.730902 0.000000 0.000000 0.000000
1.074340 0.026772 1.456198 0.000000 0.000000 0.000000
0.882325 0.083493 1.459615 0.000000 0.000000 0.000000
0.888451 0.087104 1.453273 0.000000 0.000000 0.000000
1.086107 -0.071717 1.717846 0.000000 0.000000 0.000000
1.061215 -0.073676 1.772440 0.000000 0.000000 0.000000
1.032108 -0.059083 1.719848 0.000000 0.000000 0.000000
1.058567 -0.064836 1.708434 0.000000 0.000000 0.000000
0.952731 0.082825 1.429218 0.000000 0.000000 0.000000
1.086357 -0.060836 1.681466 0.000000 0.000000 0.000000
1.017005 0.049339 1.432186 0.000000 0.000000 0.000000
0.974947 0.069299 1.432472 0.000000 0.000000 0.000000
1.024437 0.046036 1.435155 0.000000 0.000000 0.000000
1.024975 0.046233 1.433819 0.000000 0.000000 0.000000
0.992888 -0.058493 1.850424 0.000000 0.000000 0.000000
1.033353 -0.068347 1.769145 0.000000 0.000000 0.000000
0.851736 0.066507 1.511796 0.000000 0.000000 0.000000
0.992773 0.061106 1.431375 0.000000 0.000000 0.000000
1.105464 -0.076803 1.727053 0.000000 0.000000 0.000000
1.072809 -0.065174 1.704615 0.000000 0.000000 0.000000
1.058181 -0.068128 1.737443 0.000000 0.000000 0.000000
1.070944 -0.065127 1.687916 0.000000 0.000000 0.000000
1.106455 -0.070452 1.705325 0.000000 0.000000 0.000000
0.848920 0.058137 1.521353 0.000000 0.000000 0.000000
0.984303 0.065353 1.428482 0.000000 0.000000 0.000000
1.092866 -0.083440 1.839226 0.000000 0.000000 0.000000
1.097026 -0.077864 1.732069 0.000000 0.000000 0.000000
1.053785 -0.066625 1.735278 0.000000 0.000000 0.000000
1.047740 -0.059947 1.700553 0.000000 0.000000 0.000000
1.037398 -0.056779 1.723084 0.000000 0.000000 0.000000
1.070235 -0.065853 1.707541 0.000000 0.000000 0.000000
1.040218 -0.055146 1.690955 0.000000 0.000000 0.000000
1.019041 0.048367 1.436741 0.000000 0.000000 0.000000
1.026239 0.044132 1.439659 0.000000 0.000000 0.000000
0.955536 0.079883 1.437283 0.000000 0.000000 0.000000
1.020114 0.049781 1.431726 0.000000 0.000000 0.000000
0.988947 -0.053958 1.837237 0.000000 0.000000 0.000000
1.036940 -0.077346 1.818442 0.000000 0.000000 0.000000
0.847026 0.062705 1.522076 0.000000 0.000000 0.000000
0.873969 0.079107 1.481444 0.000000 0.000000 0.000000
0.980527 0.066704 1.434085 0.000000 0.000000 0.000000
1.112817 -0.067794 1.704377 0.000000 0.000000 0.000000
1.068482 -0.067441 1.728389 0.000000 0.000000 0.000000
1.084107 -0.055715 1.674255 0.000000 0.000000 0.000000
1.049730 -0.065108 1.723413 0.000000 0.000000 0.000000
1.063550 -0.061026 1.686794 0.000000 0.000000 0.000000
1.066314 -0.047096 1.658546 0.000000 0.000000 0.000000
0.980635 0.069432 1.427955 0.000000 0.000000 0.000000
1.041186 -0.089527 1.912674 0.000000 0.000000 0.000000
