ply
format ascii 1.0
comment VCGLIB generated
obj_info Generated by SPFormer!
element vertex 871
property float x
property float y
property float z
property float nx
property float ny
property float nz
end_header
2.096184 -0.193244 1.079272 0.000000 0.000000 0.000000
2.052137 -0.219447 1.064668 0.000000 0.000000 0.000000
2.073844 -0.038081 0.849532 0.000000 0.000000 0.000000
2.154729 0.000729 0.779595 0.000000 0.000000 0.000000
2.143787 -0.156645 1.049846 0.000000 0.000000 0.000000
2.052465 -0.106377 0.921181 0.000000 0.000000 0.000000
2.085831 -0.040273 0.860686 0.000000 0.000000 0.000000
2.153620 -0.001355 0.787392 0.000000 0.000000 0.000000
2.253421 -0.190270 1.093398 0.000000 0.000000 0.000000
2.132886 -0.230113 1.134736 0.000000 0.000000 0.000000
2.162984 -0.212763 1.131585 0.000000 0.000000 0.000000
2.052290 -0.041697 0.855727 0.000000 0.000000 0.000000
2.100940 -0.035328 0.854345 0.000000 0.000000 0.000000
2.164931 0.000926 0.771782 0.000000 0.000000 0.000000
2.311161 0.026480 0.707946 0.000000 0.000000 0.000000
2.001383 -0.190396 0.983334 0.000000 0.000000 0.000000
1.998565 -0.171870 0.979873 0.000000 0.000000 0.000000
2.064171 -0.219264 1.061736 0.000000 0.000000 0.000000
2.047646 -0.219381 1.056914 0.000000 0.000000 0.000000
2.052110 -0.219691 1.058641 0.000000 0.000000 0.000000
2.056175 -0.214832 1.054920 0.000000 0.000000 0.000000
2.269071 0.017238 0.727549 0.000000 0.000000 0.000000
2.070935 -0.037427 0.851160 0.000000 0.000000 0.000000
2.015768 -0.196831 1.017244 0.000000 0.000000 0.000000
1.972121 -0.159763 0.959563 0.000000 0.000000 0.000000
2.170216 0.001515 0.767262 0.000000 0.000000 0.000000
2.023555 -0.198256 1.021473 0.000000 0.000000 0.000000
2.145984 -0.010600 0.802807 0.000000 0.000000 0.000000
2.021214 -0.198833 1.016996 0.000000 0.000000 0.000000
2.317687 -0.104704 1.002198 0.000000 0.000000 0.000000
2.317693 -0.095788 0.994569 0.000000 0.000000 0.000000
2.014138 -0.202599 1.019199 0.000000 0.000000 0.000000
2.335581 -0.042682 0.898158 0.000000 0.000000 0.000000
2.088996 -0.031358 0.839246 0.000000 0.000000 0.000000
2.279058 -0.169938 1.064101 0.000000 0.000000 0.000000
2.271129 0.019892 0.724019 0.000000 0.000000 0.000000
2.283337 0.019905 0.721810 0.000000 0.000000 0.000000
2.253384 0.018405 0.728527 0.000000 0.000000 0.000000
2.343201 -0.045064 0.895899 0.000000 0.000000 0.000000
2.257929 0.021777 0.727849 0.000000 0.000000 0.000000
2.343326 -0.052100 0.903744 0.000000 0.000000 0.000000
2.012585 -0.200454 1.017154 0.000000 0.000000 0.000000
2.268998 0.020126 0.725478 0.000000 0.000000 0.000000
2.274606 0.019973 0.720575 0.000000 0.000000 0.000000
2.050463 -0.045354 0.857803 0.000000 0.000000 0.000000
2.022768 -0.191412 1.023515 0.000000 0.000000 0.000000
2.012980 -0.185812 1.005041 0.000000 0.000000 0.000000
2.018906 -0.195857 1.024198 0.000000 0.000000 0.000000
2.031903 -0.182864 1.012357 0.000000 0.000000 0.000000
2.147164 -0.007745 0.796065 0.000000 0.000000 0.000000
2.155681 -0.010415 0.796628 0.000000 0.000000 0.000000
2.316668 -0.087155 0.989476 0.000000 0.000000 0.000000
2.015213 -0.198061 1.020407 0.000000 0.000000 0.000000
2.281500 -0.133402 1.047949 0.000000 0.000000 0.000000
2.308603 -0.102457 1.010730 0.000000 0.000000 0.000000
2.013027 -0.193875 1.015910 0.000000 0.000000 0.000000
2.259735 -0.182640 1.079108 0.000000 0.000000 0.000000
2.141786 -0.210207 1.123945 0.000000 0.000000 0.000000
2.279141 0.020257 0.729960 0.000000 0.000000 0.000000
2.270082 0.021065 0.722789 0.000000 0.000000 0.000000
2.283772 -0.170384 1.064498 0.000000 0.000000 0.000000
2.263033 0.011982 0.728774 0.000000 0.000000 0.000000
2.311017 -0.087177 0.977744 0.000000 0.000000 0.000000
2.262053 0.017805 0.722682 0.000000 0.000000 0.000000
2.007460 -0.181585 1.001019 0.000000 0.000000 0.000000
2.013645 -0.193621 1.017786 0.000000 0.000000 0.000000
2.020074 -0.184864 1.009248 0.000000 0.000000 0.000000
2.018924 -0.180611 1.005450 0.000000 0.000000 0.000000
2.153994 -0.008964 0.806292 0.000000 0.000000 0.000000
2.316514 -0.091746 0.997966 0.000000 0.000000 0.000000
2.013083 -0.200000 1.017402 0.000000 0.000000 0.000000
2.322531 -0.098636 0.992949 0.000000 0.000000 0.000000
2.009935 -0.192308 1.005153 0.000000 0.000000 0.000000
2.261788 -0.186130 1.083017 0.000000 0.000000 0.000000
2.196018 -0.219697 1.125227 0.000000 0.000000 0.000000
2.160369 -0.211071 1.118826 0.000000 0.000000 0.000000
2.266541 0.019791 0.731204 0.000000 0.000000 0.000000
2.267359 0.020681 0.720452 0.000000 0.000000 0.000000
2.290298 -0.164179 1.064755 0.000000 0.000000 0.000000
2.275145 -0.156875 1.063136 0.000000 0.000000 0.000000
2.271426 0.019068 0.723554 0.000000 0.000000 0.000000
2.314597 -0.089452 0.982771 0.000000 0.000000 0.000000
2.265357 0.016967 0.719057 0.000000 0.000000 0.000000
2.099047 -0.229804 1.119146 0.000000 0.000000 0.000000
2.114788 -0.234545 1.134642 0.000000 0.000000 0.000000
2.012018 -0.199125 1.011402 0.000000 0.000000 0.000000
2.085975 -0.227194 1.103704 0.000000 0.000000 0.000000
1.991894 -0.068294 0.878623 0.000000 0.000000 0.000000
2.109232 -0.222532 1.119535 0.000000 0.000000 0.000000
2.118491 -0.229919 1.134792 0.000000 0.000000 0.000000
2.336168 0.030640 0.706542 0.000000 0.000000 0.000000
2.222763 -0.231672 1.120122 0.000000 0.000000 0.000000
2.005325 -0.195908 1.013109 0.000000 0.000000 0.000000
2.231142 0.002744 0.742934 0.000000 0.000000 0.000000
2.097741 -0.227667 1.119609 0.000000 0.000000 0.000000
2.293822 0.026377 0.713754 0.000000 0.000000 0.000000
2.101634 -0.224267 1.109064 0.000000 0.000000 0.000000
2.187885 -0.228053 1.126305 0.000000 0.000000 0.000000
2.107142 -0.232514 1.137608 0.000000 0.000000 0.000000
2.313082 0.022318 0.708232 0.000000 0.000000 0.000000
2.280493 -0.165359 1.062390 0.000000 0.000000 0.000000
2.139205 -0.234308 1.133046 0.000000 0.000000 0.000000
2.168184 0.007697 0.766210 0.000000 0.000000 0.000000
2.219177 0.018530 0.744131 0.000000 0.000000 0.000000
2.276922 -0.167220 1.066236 0.000000 0.000000 0.000000
2.365397 -0.026168 0.847902 0.000000 0.000000 0.000000
2.332063 0.032440 0.704734 0.000000 0.000000 0.000000
2.225600 -0.208877 1.110272 0.000000 0.000000 0.000000
2.295023 0.029134 0.708643 0.000000 0.000000 0.000000
2.093946 -0.215140 1.100708 0.000000 0.000000 0.000000
2.201356 -0.224561 1.131244 0.000000 0.000000 0.000000
2.331945 0.028647 0.705389 0.000000 0.000000 0.000000
2.127732 -0.226159 1.135190 0.000000 0.000000 0.000000
2.158741 0.000232 0.778510 0.000000 0.000000 0.000000
1.972658 -0.134251 0.938798 0.000000 0.000000 0.000000
2.208295 0.012563 0.750283 0.000000 0.000000 0.000000
2.273471 -0.155158 1.059870 0.000000 0.000000 0.000000
2.361756 -0.012517 0.836477 0.000000 0.000000 0.000000
2.337339 0.030821 0.705882 0.000000 0.000000 0.000000
2.230196 -0.208328 1.109107 0.000000 0.000000 0.000000
1.976987 -0.153651 0.956668 0.000000 0.000000 0.000000
2.195981 0.003539 0.776384 0.000000 0.000000 0.000000
1.991656 -0.093166 0.905179 0.000000 0.000000 0.000000
2.276184 0.018132 0.722273 0.000000 0.000000 0.000000
1.991916 -0.082081 0.891410 0.000000 0.000000 0.000000
1.997739 -0.072536 0.874510 0.000000 0.000000 0.000000
1.984923 -0.097691 0.906046 0.000000 0.000000 0.000000
2.184426 0.005959 0.753957 0.000000 0.000000 0.000000
2.186122 0.011144 0.757407 0.000000 0.000000 0.000000
1.977671 -0.152942 0.956624 0.000000 0.000000 0.000000
1.977900 -0.149725 0.955609 0.000000 0.000000 0.000000
2.280771 -0.197078 1.085654 0.000000 0.000000 0.000000
2.194599 0.006555 0.765237 0.000000 0.000000 0.000000
1.989727 -0.175338 0.982291 0.000000 0.000000 0.000000
2.178330 0.003848 0.763409 0.000000 0.000000 0.000000
1.975885 -0.133343 0.938301 0.000000 0.000000 0.000000
2.282690 -0.202870 1.088935 0.000000 0.000000 0.000000
2.297006 -0.109367 1.029581 0.000000 0.000000 0.000000
1.989969 -0.097741 0.903613 0.000000 0.000000 0.000000
1.986006 -0.099014 0.904845 0.000000 0.000000 0.000000
2.232581 -0.203473 1.106003 0.000000 0.000000 0.000000
2.005413 -0.108043 0.918451 0.000000 0.000000 0.000000
2.172103 -0.080200 0.962994 0.000000 0.000000 0.000000
2.289884 -0.108418 1.025781 0.000000 0.000000 0.000000
2.179268 -0.227796 1.137970 0.000000 0.000000 0.000000
2.078501 -0.033641 0.844980 0.000000 0.000000 0.000000
1.982095 -0.140248 0.945335 0.000000 0.000000 0.000000
2.281876 -0.195251 1.081002 0.000000 0.000000 0.000000
2.295414 -0.109387 1.023570 0.000000 0.000000 0.000000
1.992763 -0.089294 0.899656 0.000000 0.000000 0.000000
1.982449 -0.103403 0.912057 0.000000 0.000000 0.000000
2.171191 -0.072019 0.942375 0.000000 0.000000 0.000000
2.293365 -0.117665 1.042871 0.000000 0.000000 0.000000
2.084075 -0.029605 0.841768 0.000000 0.000000 0.000000
1.995791 -0.102420 0.910789 0.000000 0.000000 0.000000
2.277609 0.017660 0.723343 0.000000 0.000000 0.000000
2.075570 -0.035868 0.849263 0.000000 0.000000 0.000000
2.000722 -0.069124 0.875172 0.000000 0.000000 0.000000
2.051418 -0.215279 1.064068 0.000000 0.000000 0.000000
2.074603 -0.035227 0.846809 0.000000 0.000000 0.000000
2.078607 -0.038685 0.838505 0.000000 0.000000 0.000000
2.320852 -0.078488 0.975129 0.000000 0.000000 0.000000
1.973592 -0.153908 0.957715 0.000000 0.000000 0.000000
1.973589 -0.157904 0.963207 0.000000 0.000000 0.000000
1.999043 -0.067520 0.874940 0.000000 0.000000 0.000000
1.990070 -0.091789 0.905419 0.000000 0.000000 0.000000
2.352140 0.038289 0.726027 0.000000 0.000000 0.000000
2.170149 -0.229067 1.130558 0.000000 0.000000 0.000000
2.237241 -0.201942 1.102251 0.000000 0.000000 0.000000
2.243953 -0.201474 1.099352 0.000000 0.000000 0.000000
1.977211 -0.139765 0.944500 0.000000 0.000000 0.000000
1.977997 -0.140047 0.944649 0.000000 0.000000 0.000000
1.969207 -0.142938 0.947438 0.000000 0.000000 0.000000
2.001758 -0.070094 0.876641 0.000000 0.000000 0.000000
2.333750 -0.055036 0.896886 0.000000 0.000000 0.000000
2.243957 -0.196674 1.100648 0.000000 0.000000 0.000000
1.978987 -0.145562 0.947853 0.000000 0.000000 0.000000
2.086392 -0.033417 0.840970 0.000000 0.000000 0.000000
2.082738 -0.035914 0.847886 0.000000 0.000000 0.000000
2.170269 -0.009682 0.801160 0.000000 0.000000 0.000000
2.222405 -0.204776 1.111482 0.000000 0.000000 0.000000
2.068856 -0.038067 0.853476 0.000000 0.000000 0.000000
1.984005 -0.107092 0.914313 0.000000 0.000000 0.000000
2.205856 -0.215756 1.116123 0.000000 0.000000 0.000000
2.200120 -0.215921 1.122110 0.000000 0.000000 0.000000
2.215488 -0.210201 1.114563 0.000000 0.000000 0.000000
2.245821 -0.179959 1.079880 0.000000 0.000000 0.000000
2.227219 -0.199947 1.103473 0.000000 0.000000 0.000000
2.336515 -0.056663 0.908073 0.000000 0.000000 0.000000
2.239066 -0.202450 1.105140 0.000000 0.000000 0.000000
2.221553 -0.197860 1.113181 0.000000 0.000000 0.000000
2.339583 -0.044051 0.892492 0.000000 0.000000 0.000000
2.151455 -0.214845 1.134638 0.000000 0.000000 0.000000
2.236645 -0.203115 1.104309 0.000000 0.000000 0.000000
2.077095 -0.036279 0.841535 0.000000 0.000000 0.000000
2.157460 -0.009663 0.811644 0.000000 0.000000 0.000000
1.988272 -0.088012 0.896687 0.000000 0.000000 0.000000
2.211522 -0.209981 1.117222 0.000000 0.000000 0.000000
2.070090 -0.039016 0.853323 0.000000 0.000000 0.000000
2.072051 -0.037611 0.850395 0.000000 0.000000 0.000000
1.985358 -0.108553 0.917855 0.000000 0.000000 0.000000
2.234251 -0.198840 1.100038 0.000000 0.000000 0.000000
2.182194 -0.221415 1.126533 0.000000 0.000000 0.000000
2.208400 -0.216060 1.118687 0.000000 0.000000 0.000000
2.233974 -0.192362 1.095746 0.000000 0.000000 0.000000
2.212355 -0.201748 1.105926 0.000000 0.000000 0.000000
2.334635 -0.055758 0.913802 0.000000 0.000000 0.000000
2.232586 -0.202435 1.106597 0.000000 0.000000 0.000000
2.337631 -0.046264 0.893782 0.000000 0.000000 0.000000
2.142872 -0.218713 1.133046 0.000000 0.000000 0.000000
2.234869 -0.199691 1.102442 0.000000 0.000000 0.000000
2.256483 -0.196588 1.098956 0.000000 0.000000 0.000000
2.057395 -0.042436 0.856106 0.000000 0.000000 0.000000
2.301797 0.027982 0.720076 0.000000 0.000000 0.000000
2.261775 0.018921 0.736389 0.000000 0.000000 0.000000
2.105465 -0.037404 0.856349 0.000000 0.000000 0.000000
2.021662 -0.054489 0.865768 0.000000 0.000000 0.000000
2.018013 -0.056926 0.867192 0.000000 0.000000 0.000000
2.068607 -0.035975 0.848666 0.000000 0.000000 0.000000
2.068417 -0.037524 0.850099 0.000000 0.000000 0.000000
2.060731 -0.035385 0.846978 0.000000 0.000000 0.000000
1.984594 -0.092295 0.902089 0.000000 0.000000 0.000000
2.012686 -0.057040 0.867002 0.000000 0.000000 0.000000
2.293178 0.026823 0.707570 0.000000 0.000000 0.000000
2.202225 0.011888 0.760840 0.000000 0.000000 0.000000
2.026283 -0.051885 0.863674 0.000000 0.000000 0.000000
2.080356 -0.027717 0.845389 0.000000 0.000000 0.000000
2.061348 -0.038298 0.851214 0.000000 0.000000 0.000000
2.338870 -0.046061 0.895181 0.000000 0.000000 0.000000
2.090639 -0.043088 0.855301 0.000000 0.000000 0.000000
2.211409 0.016594 0.745911 0.000000 0.000000 0.000000
2.194958 0.004673 0.771775 0.000000 0.000000 0.000000
2.200107 0.002903 0.768423 0.000000 0.000000 0.000000
2.327704 0.031298 0.704841 0.000000 0.000000 0.000000
2.185416 0.004312 0.767396 0.000000 0.000000 0.000000
2.356918 -0.104254 0.927407 0.000000 0.000000 0.000000
2.018365 -0.050949 0.862818 0.000000 0.000000 0.000000
2.339553 -0.049153 0.890009 0.000000 0.000000 0.000000
2.204153 0.001519 0.773146 0.000000 0.000000 0.000000
1.975049 -0.090853 0.899498 0.000000 0.000000 0.000000
2.072598 -0.036932 0.848274 0.000000 0.000000 0.000000
2.209777 0.016536 0.743929 0.000000 0.000000 0.000000
2.183650 0.004234 0.763649 0.000000 0.000000 0.000000
1.989961 -0.082403 0.892055 0.000000 0.000000 0.000000
2.205014 -0.004179 0.772973 0.000000 0.000000 0.000000
2.322239 0.035257 0.699201 0.000000 0.000000 0.000000
2.187338 0.005870 0.762574 0.000000 0.000000 0.000000
2.335686 -0.003196 0.818586 0.000000 0.000000 0.000000
2.182896 0.006564 0.762990 0.000000 0.000000 0.000000
2.354205 -0.108047 0.944872 0.000000 0.000000 0.000000
2.026728 -0.053114 0.865106 0.000000 0.000000 0.000000
2.340273 -0.050123 0.888887 0.000000 0.000000 0.000000
1.974668 -0.131538 0.936965 0.000000 0.000000 0.000000
2.188383 0.003829 0.759129 0.000000 0.000000 0.000000
1.988207 -0.097122 0.906723 0.000000 0.000000 0.000000
2.023993 -0.158089 1.035397 0.000000 0.000000 0.000000
2.294128 -0.109004 1.025268 0.000000 0.000000 0.000000
1.977419 -0.133019 0.938007 0.000000 0.000000 0.000000
1.993375 -0.084299 0.888517 0.000000 0.000000 0.000000
1.996471 -0.079656 0.891940 0.000000 0.000000 0.000000
2.027938 -0.194101 1.016756 0.000000 0.000000 0.000000
2.294164 -0.128704 1.049745 0.000000 0.000000 0.000000
2.323457 -0.096705 0.989514 0.000000 0.000000 0.000000
2.053407 -0.220432 1.042402 0.000000 0.000000 0.000000
2.063057 -0.034673 0.847118 0.000000 0.000000 0.000000
2.016358 -0.197930 1.021954 0.000000 0.000000 0.000000
1.996643 -0.081235 0.884187 0.000000 0.000000 0.000000
2.011083 -0.199091 1.016747 0.000000 0.000000 0.000000
1.979281 -0.133409 0.938528 0.000000 0.000000 0.000000
2.015252 -0.202870 1.022022 0.000000 0.000000 0.000000
2.294829 -0.112956 1.034078 0.000000 0.000000 0.000000
2.051171 -0.220492 1.051363 0.000000 0.000000 0.000000
2.175309 -0.229566 1.129608 0.000000 0.000000 0.000000
2.305130 -0.104717 1.018459 0.000000 0.000000 0.000000
2.037050 -0.210666 1.039660 0.000000 0.000000 0.000000
2.044712 -0.042405 0.854750 0.000000 0.000000 0.000000
2.292416 -0.128047 1.047055 0.000000 0.000000 0.000000
1.983726 -0.165199 0.970141 0.000000 0.000000 0.000000
1.997198 -0.073932 0.880389 0.000000 0.000000 0.000000
1.983492 -0.169624 0.973588 0.000000 0.000000 0.000000
1.994069 -0.174792 0.979662 0.000000 0.000000 0.000000
1.987882 -0.174040 0.976805 0.000000 0.000000 0.000000
1.995065 -0.180608 0.981805 0.000000 0.000000 0.000000
2.007714 -0.196300 1.019965 0.000000 0.000000 0.000000
2.040123 -0.219059 1.046520 0.000000 0.000000 0.000000
1.994047 -0.174732 0.982178 0.000000 0.000000 0.000000
2.294258 -0.111275 1.033109 0.000000 0.000000 0.000000
2.290387 -0.121540 1.041608 0.000000 0.000000 0.000000
2.085478 -0.031623 0.841951 0.000000 0.000000 0.000000
2.073849 -0.037565 0.853153 0.000000 0.000000 0.000000
1.969814 -0.139110 0.943464 0.000000 0.000000 0.000000
1.978256 -0.129091 0.933064 0.000000 0.000000 0.000000
2.059501 -0.212593 1.069466 0.000000 0.000000 0.000000
1.982767 -0.123568 0.929558 0.000000 0.000000 0.000000
1.975494 -0.126799 0.937904 0.000000 0.000000 0.000000
2.009232 -0.188969 1.014143 0.000000 0.000000 0.000000
1.978344 -0.125522 0.933016 0.000000 0.000000 0.000000
1.990967 -0.142688 0.955043 0.000000 0.000000 0.000000
2.070702 -0.221805 1.074827 0.000000 0.000000 0.000000
2.288598 -0.119838 1.041119 0.000000 0.000000 0.000000
2.062820 -0.226505 1.075323 0.000000 0.000000 0.000000
2.053663 -0.220479 1.061977 0.000000 0.000000 0.000000
2.273739 -0.142006 1.051829 0.000000 0.000000 0.000000
2.265515 0.001548 0.733850 0.000000 0.000000 0.000000
2.177475 -0.227847 1.124345 0.000000 0.000000 0.000000
2.061199 -0.229721 1.073866 0.000000 0.000000 0.000000
1.986133 -0.167858 0.972306 0.000000 0.000000 0.000000
2.014085 -0.201433 1.019342 0.000000 0.000000 0.000000
2.004248 -0.180751 0.992143 0.000000 0.000000 0.000000
2.129790 -0.219327 1.139708 0.000000 0.000000 0.000000
2.279173 -0.142476 1.054617 0.000000 0.000000 0.000000
2.183952 -0.229522 1.130413 0.000000 0.000000 0.000000
1.997641 -0.132567 0.936877 0.000000 0.000000 0.000000
2.051613 -0.215732 1.062771 0.000000 0.000000 0.000000
1.988035 -0.125121 0.929043 0.000000 0.000000 0.000000
1.979636 -0.129473 0.938269 0.000000 0.000000 0.000000
2.016539 -0.191505 1.020702 0.000000 0.000000 0.000000
1.980314 -0.120013 0.930789 0.000000 0.000000 0.000000
1.985448 -0.148235 0.955936 0.000000 0.000000 0.000000
2.059628 -0.224632 1.072800 0.000000 0.000000 0.000000
2.292580 -0.108080 1.026738 0.000000 0.000000 0.000000
2.059926 -0.229047 1.075955 0.000000 0.000000 0.000000
2.066473 -0.225699 1.076374 0.000000 0.000000 0.000000
2.285178 -0.134142 1.052339 0.000000 0.000000 0.000000
1.983128 -0.138556 0.944322 0.000000 0.000000 0.000000
2.178499 -0.227991 1.127218 0.000000 0.000000 0.000000
2.308254 -0.103177 1.018867 0.000000 0.000000 0.000000
2.071590 -0.229332 1.091843 0.000000 0.000000 0.000000
2.012719 -0.200392 1.016562 0.000000 0.000000 0.000000
2.333470 -0.079949 0.982867 0.000000 0.000000 0.000000
1.993140 -0.175009 0.978569 0.000000 0.000000 0.000000
2.296073 -0.096563 1.021327 0.000000 0.000000 0.000000
2.191897 -0.229005 1.127700 0.000000 0.000000 0.000000
2.357587 0.033014 0.756623 0.000000 0.000000 0.000000
1.989402 -0.094245 0.900676 0.000000 0.000000 0.000000
2.353358 0.024339 0.765564 0.000000 0.000000 0.000000
1.997808 -0.078178 0.883566 0.000000 0.000000 0.000000
2.279515 -0.202764 1.090745 0.000000 0.000000 0.000000
1.993226 -0.109034 0.917346 0.000000 0.000000 0.000000
1.985492 -0.110437 0.916364 0.000000 0.000000 0.000000
2.019649 -0.199271 1.016544 0.000000 0.000000 0.000000
2.271951 -0.199465 1.078133 0.000000 0.000000 0.000000
2.015905 -0.197582 1.019958 0.000000 0.000000 0.000000
2.351238 0.040965 0.716663 0.000000 0.000000 0.000000
2.221058 0.012022 0.732803 0.000000 0.000000 0.000000
2.343713 -0.071393 0.926493 0.000000 0.000000 0.000000
2.255258 -0.197196 1.090673 0.000000 0.000000 0.000000
2.016474 -0.051986 0.861421 0.000000 0.000000 0.000000
2.011778 -0.204509 1.021444 0.000000 0.000000 0.000000
2.017907 -0.194019 1.017335 0.000000 0.000000 0.000000
2.011149 -0.195596 1.017228 0.000000 0.000000 0.000000
2.063796 -0.158488 1.023097 0.000000 0.000000 0.000000
2.087432 -0.150828 1.036459 0.000000 0.000000 0.000000
1.998059 -0.100601 0.909332 0.000000 0.000000 0.000000
2.348365 0.027397 0.743520 0.000000 0.000000 0.000000
2.242109 0.021542 0.738906 0.000000 0.000000 0.000000
2.280794 -0.132074 1.048083 0.000000 0.000000 0.000000
2.347431 0.022650 0.760185 0.000000 0.000000 0.000000
2.322708 -0.066555 0.922470 0.000000 0.000000 0.000000
2.352310 0.030925 0.736847 0.000000 0.000000 0.000000
1.978528 -0.110353 0.920698 0.000000 0.000000 0.000000
2.341730 -0.066372 0.926889 0.000000 0.000000 0.000000
2.332822 -0.086013 0.927738 0.000000 0.000000 0.000000
2.251138 -0.200803 1.093693 0.000000 0.000000 0.000000
1.989957 -0.107825 0.917033 0.000000 0.000000 0.000000
2.274851 -0.160900 1.060550 0.000000 0.000000 0.000000
2.290122 -0.136543 1.057853 0.000000 0.000000 0.000000
2.341635 -0.076463 0.921736 0.000000 0.000000 0.000000
2.155002 0.000433 0.782292 0.000000 0.000000 0.000000
2.274078 -0.137644 1.051394 0.000000 0.000000 0.000000
2.277909 -0.142019 1.058391 0.000000 0.000000 0.000000
2.274521 -0.148751 1.056744 0.000000 0.000000 0.000000
2.271679 -0.157460 1.058849 0.000000 0.000000 0.000000
2.271580 -0.151529 1.057691 0.000000 0.000000 0.000000
2.244738 -0.201949 1.097457 0.000000 0.000000 0.000000
2.097338 -0.157232 1.043381 0.000000 0.000000 0.000000
2.348708 0.030227 0.742457 0.000000 0.000000 0.000000
2.236880 0.021893 0.741021 0.000000 0.000000 0.000000
2.260358 -0.152022 1.057430 0.000000 0.000000 0.000000
2.282332 -0.136137 1.050346 0.000000 0.000000 0.000000
2.331670 -0.072576 0.922765 0.000000 0.000000 0.000000
2.350883 0.024805 0.747724 0.000000 0.000000 0.000000
1.975464 -0.112103 0.921960 0.000000 0.000000 0.000000
2.341175 -0.070726 0.925594 0.000000 0.000000 0.000000
2.249445 -0.201171 1.093799 0.000000 0.000000 0.000000
2.270195 -0.188270 1.073592 0.000000 0.000000 0.000000
2.272517 -0.156496 1.061003 0.000000 0.000000 0.000000
2.007240 -0.068232 0.879694 0.000000 0.000000 0.000000
2.138460 -0.006356 0.795000 0.000000 0.000000 0.000000
2.272419 -0.153773 1.056958 0.000000 0.000000 0.000000
2.276944 -0.162058 1.061894 0.000000 0.000000 0.000000
2.278439 -0.139752 1.052087 0.000000 0.000000 0.000000
2.268925 -0.159530 1.062315 0.000000 0.000000 0.000000
2.280475 -0.143678 1.055451 0.000000 0.000000 0.000000
2.249319 -0.197888 1.094697 0.000000 0.000000 0.000000
1.990170 -0.099333 0.905666 0.000000 0.000000 0.000000
2.010055 -0.061111 0.870052 0.000000 0.000000 0.000000
2.045949 -0.209246 1.032434 0.000000 0.000000 0.000000
2.117893 -0.232481 1.140560 0.000000 0.000000 0.000000
2.023492 -0.205922 1.022809 0.000000 0.000000 0.000000
2.350701 -0.012968 0.853352 0.000000 0.000000 0.000000
2.000474 -0.191329 1.005294 0.000000 0.000000 0.000000
2.020437 -0.205859 1.021950 0.000000 0.000000 0.000000
2.003536 -0.064324 0.870836 0.000000 0.000000 0.000000
2.015816 -0.059184 0.872316 0.000000 0.000000 0.000000
2.031407 -0.205018 1.025643 0.000000 0.000000 0.000000
2.009404 -0.056777 0.864184 0.000000 0.000000 0.000000
2.009030 -0.067849 0.877307 0.000000 0.000000 0.000000
1.996900 -0.185748 0.993957 0.000000 0.000000 0.000000
2.128848 -0.237966 1.135893 0.000000 0.000000 0.000000
2.303166 -0.098249 1.020855 0.000000 0.000000 0.000000
2.115114 -0.231465 1.133664 0.000000 0.000000 0.000000
2.014258 -0.201992 1.017934 0.000000 0.000000 0.000000
2.328170 -0.083408 0.984742 0.000000 0.000000 0.000000
2.130717 -0.212032 1.130072 0.000000 0.000000 0.000000
2.154470 -0.226026 1.130458 0.000000 0.000000 0.000000
2.083349 -0.228778 1.092868 0.000000 0.000000 0.000000
2.348274 -0.005334 0.837330 0.000000 0.000000 0.000000
2.160574 -0.227312 1.138875 0.000000 0.000000 0.000000
2.009607 -0.070702 0.883978 0.000000 0.000000 0.000000
2.356419 -0.014405 0.850778 0.000000 0.000000 0.000000
2.137835 -0.004896 0.793037 0.000000 0.000000 0.000000
2.126907 -0.246184 1.138214 0.000000 0.000000 0.000000
2.011334 -0.059817 0.871261 0.000000 0.000000 0.000000
2.161721 -0.226291 1.129573 0.000000 0.000000 0.000000
2.089614 -0.224716 1.101550 0.000000 0.000000 0.000000
2.353054 -0.005006 0.843180 0.000000 0.000000 0.000000
2.358106 -0.014951 0.839217 0.000000 0.000000 0.000000
2.147771 -0.002167 0.792493 0.000000 0.000000 0.000000
2.128870 -0.241104 1.137590 0.000000 0.000000 0.000000
1.985296 -0.101406 0.905374 0.000000 0.000000 0.000000
2.289896 -0.199465 1.077934 0.000000 0.000000 0.000000
2.258983 -0.001436 0.751870 0.000000 0.000000 0.000000
2.344168 0.015913 0.809947 0.000000 0.000000 0.000000
1.982544 -0.112564 0.919724 0.000000 0.000000 0.000000
2.078788 -0.032602 0.837596 0.000000 0.000000 0.000000
2.264563 0.005124 0.738871 0.000000 0.000000 0.000000
2.074450 -0.042007 0.855877 0.000000 0.000000 0.000000
2.169344 -0.000617 0.769168 0.000000 0.000000 0.000000
2.281989 -0.192467 1.075402 0.000000 0.000000 0.000000
2.277452 -0.194508 1.081213 0.000000 0.000000 0.000000
2.284407 -0.203068 1.075543 0.000000 0.000000 0.000000
2.252155 0.015957 0.730535 0.000000 0.000000 0.000000
2.302218 0.028563 0.709919 0.000000 0.000000 0.000000
2.285408 -0.195172 1.083032 0.000000 0.000000 0.000000
2.245528 0.017735 0.733797 0.000000 0.000000 0.000000
2.284056 -0.195872 1.086538 0.000000 0.000000 0.000000
2.288666 -0.201962 1.071254 0.000000 0.000000 0.000000
2.064378 -0.045155 0.859111 0.000000 0.000000 0.000000
2.183589 0.004282 0.758643 0.000000 0.000000 0.000000
2.279482 -0.197291 1.086808 0.000000 0.000000 0.000000
2.294032 -0.108445 1.026285 0.000000 0.000000 0.000000
2.090733 -0.028730 0.836274 0.000000 0.000000 0.000000
1.997125 -0.070492 0.875971 0.000000 0.000000 0.000000
1.976649 -0.128736 0.937183 0.000000 0.000000 0.000000
2.291506 -0.108708 1.025165 0.000000 0.000000 0.000000
2.284034 -0.198339 1.082385 0.000000 0.000000 0.000000
2.142762 -0.004544 0.788572 0.000000 0.000000 0.000000
2.305394 -0.002547 0.768587 0.000000 0.000000 0.000000
2.075588 -0.042883 0.858633 0.000000 0.000000 0.000000
2.181882 0.003501 0.758493 0.000000 0.000000 0.000000
2.329394 -0.067924 0.934022 0.000000 0.000000 0.000000
2.292100 -0.103698 1.013154 0.000000 0.000000 0.000000
2.099204 -0.172549 1.048945 0.000000 0.000000 0.000000
2.180846 0.005199 0.758684 0.000000 0.000000 0.000000
1.979906 -0.096496 0.901530 0.000000 0.000000 0.000000
2.302516 -0.102491 1.018691 0.000000 0.000000 0.000000
2.313609 -0.009978 0.809689 0.000000 0.000000 0.000000
2.070870 -0.043850 0.860655 0.000000 0.000000 0.000000
2.184430 0.004545 0.759252 0.000000 0.000000 0.000000
2.042228 -0.039973 0.852249 0.000000 0.000000 0.000000
2.100792 -0.038586 0.827828 0.000000 0.000000 0.000000
2.318222 -0.087084 0.966987 0.000000 0.000000 0.000000
2.089057 -0.171348 1.056002 0.000000 0.000000 0.000000
2.182752 0.010303 0.753171 0.000000 0.000000 0.000000
1.983697 -0.095998 0.902650 0.000000 0.000000 0.000000
2.303050 -0.102272 1.021968 0.000000 0.000000 0.000000
2.222372 0.012043 0.769243 0.000000 0.000000 0.000000
2.098075 -0.226583 1.110943 0.000000 0.000000 0.000000
2.325471 -0.101115 0.998106 0.000000 0.000000 0.000000
2.164349 0.000194 0.772833 0.000000 0.000000 0.000000
2.092853 -0.226794 1.114877 0.000000 0.000000 0.000000
1.999596 -0.070471 0.878264 0.000000 0.000000 0.000000
2.152722 -0.232328 1.132863 0.000000 0.000000 0.000000
2.262843 -0.209266 1.090346 0.000000 0.000000 0.000000
2.225347 0.022064 0.734551 0.000000 0.000000 0.000000
2.074419 -0.229716 1.086449 0.000000 0.000000 0.000000
2.329874 -0.094175 0.985285 0.000000 0.000000 0.000000
2.298715 -0.097373 1.019383 0.000000 0.000000 0.000000
2.232241 -0.210453 1.111820 0.000000 0.000000 0.000000
2.198308 -0.222335 1.126087 0.000000 0.000000 0.000000
2.266781 -0.210464 1.098487 0.000000 0.000000 0.000000
2.213422 0.017179 0.739881 0.000000 0.000000 0.000000
2.320643 -0.098787 1.000399 0.000000 0.000000 0.000000
2.295615 -0.110387 1.040547 0.000000 0.000000 0.000000
2.227873 -0.215869 1.114812 0.000000 0.000000 0.000000
2.144191 -0.223705 1.133899 0.000000 0.000000 0.000000
2.136254 -0.217604 1.130988 0.000000 0.000000 0.000000
2.116010 -0.232775 1.135860 0.000000 0.000000 0.000000
2.140401 -0.214359 1.126725 0.000000 0.000000 0.000000
2.058115 -0.038619 0.852270 0.000000 0.000000 0.000000
2.035482 -0.057016 0.869007 0.000000 0.000000 0.000000
2.261564 0.017932 0.737558 0.000000 0.000000 0.000000
2.269090 0.021792 0.735367 0.000000 0.000000 0.000000
2.040377 -0.048585 0.859955 0.000000 0.000000 0.000000
2.259799 0.018764 0.732808 0.000000 0.000000 0.000000
2.031029 -0.050376 0.863451 0.000000 0.000000 0.000000
2.026152 -0.050891 0.862451 0.000000 0.000000 0.000000
2.025130 -0.057003 0.869414 0.000000 0.000000 0.000000
2.341267 0.037702 0.701971 0.000000 0.000000 0.000000
2.164365 0.000712 0.780284 0.000000 0.000000 0.000000
2.265991 0.022080 0.724447 0.000000 0.000000 0.000000
2.252585 0.017730 0.731987 0.000000 0.000000 0.000000
2.222316 0.015771 0.745500 0.000000 0.000000 0.000000
2.022269 -0.049097 0.862410 0.000000 0.000000 0.000000
2.021148 -0.049081 0.859925 0.000000 0.000000 0.000000
2.307117 -0.106189 1.022282 0.000000 0.000000 0.000000
2.100191 -0.217424 1.087433 0.000000 0.000000 0.000000
2.049712 -0.215552 1.059676 0.000000 0.000000 0.000000
2.109257 -0.024597 0.828974 0.000000 0.000000 0.000000
2.139095 -0.218963 1.131573 0.000000 0.000000 0.000000
2.229691 0.014725 0.745869 0.000000 0.000000 0.000000
2.102476 -0.222180 1.095443 0.000000 0.000000 0.000000
2.055155 -0.117132 0.934449 0.000000 0.000000 0.000000
2.001774 -0.076822 0.891418 0.000000 0.000000 0.000000
2.189564 -0.174411 1.070357 0.000000 0.000000 0.000000
2.217514 0.020641 0.738322 0.000000 0.000000 0.000000
2.027055 -0.056085 0.870576 0.000000 0.000000 0.000000
2.132334 -0.219229 1.134909 0.000000 0.000000 0.000000
2.154499 -0.206420 1.116178 0.000000 0.000000 0.000000
2.089664 -0.214019 1.084397 0.000000 0.000000 0.000000
2.099863 -0.226524 1.099697 0.000000 0.000000 0.000000
2.261738 -0.180735 1.089722 0.000000 0.000000 0.000000
2.064266 -0.140049 0.965653 0.000000 0.000000 0.000000
2.338845 -0.088988 0.967609 0.000000 0.000000 0.000000
2.069185 -0.228638 1.084182 0.000000 0.000000 0.000000
2.008606 -0.074087 0.881721 0.000000 0.000000 0.000000
2.037246 -0.047060 0.859239 0.000000 0.000000 0.000000
2.101999 -0.225236 1.096913 0.000000 0.000000 0.000000
2.059400 -0.221495 1.064876 0.000000 0.000000 0.000000
2.106612 -0.024555 0.819501 0.000000 0.000000 0.000000
2.138326 -0.222617 1.132306 0.000000 0.000000 0.000000
2.218419 0.017277 0.754274 0.000000 0.000000 0.000000
2.103114 -0.221162 1.094337 0.000000 0.000000 0.000000
2.017864 -0.141223 0.950714 0.000000 0.000000 0.000000
2.192152 -0.166609 1.064173 0.000000 0.000000 0.000000
2.223722 0.019321 0.739114 0.000000 0.000000 0.000000
2.135007 -0.218499 1.131892 0.000000 0.000000 0.000000
2.136541 -0.218013 1.133413 0.000000 0.000000 0.000000
2.110059 -0.223948 1.107616 0.000000 0.000000 0.000000
2.103257 -0.227015 1.101600 0.000000 0.000000 0.000000
2.272023 -0.171209 1.073462 0.000000 0.000000 0.000000
2.050946 -0.135326 0.970157 0.000000 0.000000 0.000000
2.339407 -0.084683 0.965013 0.000000 0.000000 0.000000
2.070190 -0.227782 1.084620 0.000000 0.000000 0.000000
2.015470 -0.075036 0.885371 0.000000 0.000000 0.000000
2.017927 -0.057104 0.869749 0.000000 0.000000 0.000000
2.046804 -0.037601 0.847053 0.000000 0.000000 0.000000
2.352680 0.027566 0.740734 0.000000 0.000000 0.000000
2.352901 -0.050375 0.879365 0.000000 0.000000 0.000000
2.112062 -0.233056 1.133473 0.000000 0.000000 0.000000
2.103055 -0.024060 0.819750 0.000000 0.000000 0.000000
2.350262 -0.081784 0.939253 0.000000 0.000000 0.000000
1.998913 -0.074825 0.878766 0.000000 0.000000 0.000000
2.070584 -0.228102 1.079975 0.000000 0.000000 0.000000
2.013098 -0.076933 0.886210 0.000000 0.000000 0.000000
2.057570 -0.210492 1.040506 0.000000 0.000000 0.000000
2.003502 -0.077889 0.885634 0.000000 0.000000 0.000000
2.280340 -0.165161 1.053221 0.000000 0.000000 0.000000
2.069894 -0.221578 1.058114 0.000000 0.000000 0.000000
2.096822 -0.229739 1.111949 0.000000 0.000000 0.000000
2.340708 -0.078225 0.927409 0.000000 0.000000 0.000000
2.077866 -0.229793 1.083199 0.000000 0.000000 0.000000
2.105228 -0.225189 1.116858 0.000000 0.000000 0.000000
2.066029 -0.039862 0.852300 0.000000 0.000000 0.000000
2.284052 -0.163843 1.058054 0.000000 0.000000 0.000000
2.269444 -0.172850 1.072650 0.000000 0.000000 0.000000
1.998879 -0.072691 0.880617 0.000000 0.000000 0.000000
2.007212 -0.063393 0.871192 0.000000 0.000000 0.000000
2.070118 -0.036870 0.848099 0.000000 0.000000 0.000000
2.069447 -0.038910 0.850358 0.000000 0.000000 0.000000
2.057104 -0.226631 1.070563 0.000000 0.000000 0.000000
2.033488 -0.044033 0.854159 0.000000 0.000000 0.000000
2.057127 -0.207842 1.035507 0.000000 0.000000 0.000000
2.070950 -0.208308 1.044623 0.000000 0.000000 0.000000
2.328678 -0.074914 0.942179 0.000000 0.000000 0.000000
2.319782 -0.068032 0.934480 0.000000 0.000000 0.000000
2.066384 -0.203425 1.037220 0.000000 0.000000 0.000000
2.348918 0.032379 0.727360 0.000000 0.000000 0.000000
2.323714 -0.072865 0.936714 0.000000 0.000000 0.000000
2.325336 -0.078718 0.930918 0.000000 0.000000 0.000000
2.323532 -0.079051 0.938748 0.000000 0.000000 0.000000
2.058333 -0.216138 1.039981 0.000000 0.000000 0.000000
2.336225 -0.068082 0.921955 0.000000 0.000000 0.000000
2.062776 -0.209741 1.035611 0.000000 0.000000 0.000000
2.106993 -0.022142 0.807773 0.000000 0.000000 0.000000
2.318265 -0.084785 0.980523 0.000000 0.000000 0.000000
2.334442 -0.074521 0.939502 0.000000 0.000000 0.000000
2.327801 -0.087522 0.965232 0.000000 0.000000 0.000000
2.319400 -0.080318 0.954098 0.000000 0.000000 0.000000
2.331995 -0.072967 0.929732 0.000000 0.000000 0.000000
2.347536 -0.041822 0.881680 0.000000 0.000000 0.000000
1.996812 -0.072208 0.877931 0.000000 0.000000 0.000000
2.027837 -0.042748 0.853540 0.000000 0.000000 0.000000
2.273816 -0.165499 1.062918 0.000000 0.000000 0.000000
2.210459 -0.216699 1.119163 0.000000 0.000000 0.000000
2.213043 -0.213973 1.119447 0.000000 0.000000 0.000000
2.294103 -0.114112 1.030928 0.000000 0.000000 0.000000
2.304924 -0.107258 1.032939 0.000000 0.000000 0.000000
2.335214 -0.064785 0.916435 0.000000 0.000000 0.000000
2.302428 -0.114212 1.036745 0.000000 0.000000 0.000000
2.049988 -0.211714 1.041898 0.000000 0.000000 0.000000
2.066612 -0.215585 1.056583 0.000000 0.000000 0.000000
2.326064 -0.059146 0.906920 0.000000 0.000000 0.000000
2.073814 -0.199099 1.038521 0.000000 0.000000 0.000000
2.351198 0.035081 0.723981 0.000000 0.000000 0.000000
2.324375 -0.077943 0.949286 0.000000 0.000000 0.000000
2.328655 -0.076025 0.928022 0.000000 0.000000 0.000000
2.300267 -0.121300 1.038716 0.000000 0.000000 0.000000
2.299999 -0.113367 1.035455 0.000000 0.000000 0.000000
2.330316 -0.077206 0.951637 0.000000 0.000000 0.000000
2.049415 -0.204616 1.028113 0.000000 0.000000 0.000000
2.101860 -0.023512 0.813568 0.000000 0.000000 0.000000
2.331398 -0.079299 0.942660 0.000000 0.000000 0.000000
2.330338 -0.085431 0.957031 0.000000 0.000000 0.000000
2.323238 -0.068489 0.929558 0.000000 0.000000 0.000000
2.334559 -0.069653 0.932195 0.000000 0.000000 0.000000
2.356365 -0.032572 0.867019 0.000000 0.000000 0.000000
2.001715 -0.069163 0.874601 0.000000 0.000000 0.000000
2.041287 -0.038979 0.848984 0.000000 0.000000 0.000000
2.276101 -0.166088 1.062983 0.000000 0.000000 0.000000
2.238837 -0.217408 1.116345 0.000000 0.000000 0.000000
2.222940 -0.210857 1.110446 0.000000 0.000000 0.000000
2.294944 -0.111727 1.029174 0.000000 0.000000 0.000000
2.309385 -0.106885 1.031073 0.000000 0.000000 0.000000
2.333629 -0.068676 0.921089 0.000000 0.000000 0.000000
2.305640 -0.106940 1.033264 0.000000 0.000000 0.000000
2.058338 -0.040634 0.844860 0.000000 0.000000 0.000000
2.342660 -0.073015 0.944213 0.000000 0.000000 0.000000
2.322583 -0.102555 0.998783 0.000000 0.000000 0.000000
2.200018 -0.225346 1.123975 0.000000 0.000000 0.000000
2.209080 -0.231767 1.121935 0.000000 0.000000 0.000000
2.264986 -0.214140 1.096436 0.000000 0.000000 0.000000
2.213187 -0.210317 1.115661 0.000000 0.000000 0.000000
2.044613 -0.221899 1.054423 0.000000 0.000000 0.000000
2.309614 -0.098540 0.998415 0.000000 0.000000 0.000000
1.973806 -0.128242 0.929743 0.000000 0.000000 0.000000
2.268246 -0.206452 1.094495 0.000000 0.000000 0.000000
2.206765 -0.215263 1.119585 0.000000 0.000000 0.000000
2.230595 -0.217622 1.115272 0.000000 0.000000 0.000000
2.218505 -0.210129 1.116265 0.000000 0.000000 0.000000
2.123443 -0.220502 1.140056 0.000000 0.000000 0.000000
2.042964 -0.043837 0.856103 0.000000 0.000000 0.000000
2.243255 -0.214240 1.108899 0.000000 0.000000 0.000000
2.344238 -0.082552 0.956083 0.000000 0.000000 0.000000
2.123166 -0.228032 1.144769 0.000000 0.000000 0.000000
2.110131 -0.024638 0.807393 0.000000 0.000000 0.000000
2.018134 -0.057315 0.871049 0.000000 0.000000 0.000000
2.145952 -0.234774 1.133869 0.000000 0.000000 0.000000
2.314190 -0.103661 1.008886 0.000000 0.000000 0.000000
2.315356 -0.101391 1.016176 0.000000 0.000000 0.000000
2.179320 0.005237 0.766796 0.000000 0.000000 0.000000
1.979958 -0.136178 0.937406 0.000000 0.000000 0.000000
1.976527 -0.121594 0.929359 0.000000 0.000000 0.000000
2.004044 -0.071883 0.880991 0.000000 0.000000 0.000000
2.209450 -0.220572 1.121356 0.000000 0.000000 0.000000
2.205858 -0.205503 1.121606 0.000000 0.000000 0.000000
2.265117 -0.217051 1.102026 0.000000 0.000000 0.000000
2.013306 -0.057256 0.867282 0.000000 0.000000 0.000000
2.027530 -0.052432 0.865760 0.000000 0.000000 0.000000
2.122676 -0.225151 1.142992 0.000000 0.000000 0.000000
2.036701 -0.047759 0.859905 0.000000 0.000000 0.000000
2.234571 -0.216532 1.118700 0.000000 0.000000 0.000000
2.343723 -0.096555 0.958938 0.000000 0.000000 0.000000
2.121627 -0.229088 1.142273 0.000000 0.000000 0.000000
2.114101 -0.022176 0.805567 0.000000 0.000000 0.000000
2.010972 -0.064066 0.877830 0.000000 0.000000 0.000000
2.136274 -0.235709 1.134434 0.000000 0.000000 0.000000
2.319027 -0.105090 1.001168 0.000000 0.000000 0.000000
2.168774 0.002744 0.772310 0.000000 0.000000 0.000000
1.975777 -0.132292 0.940682 0.000000 0.000000 0.000000
1.978085 -0.122664 0.928685 0.000000 0.000000 0.000000
2.015195 -0.058334 0.870045 0.000000 0.000000 0.000000
2.217451 -0.220013 1.123193 0.000000 0.000000 0.000000
2.211482 -0.202999 1.119195 0.000000 0.000000 0.000000
2.263421 -0.220080 1.101877 0.000000 0.000000 0.000000
2.025906 -0.054223 0.866658 0.000000 0.000000 0.000000
2.019731 -0.055541 0.870049 0.000000 0.000000 0.000000
2.121434 -0.240317 1.135834 0.000000 0.000000 0.000000
2.056843 -0.038246 0.853800 0.000000 0.000000 0.000000
2.295527 -0.136474 1.049193 0.000000 0.000000 0.000000
2.064528 -0.229621 1.077722 0.000000 0.000000 0.000000
2.070716 -0.226435 1.079479 0.000000 0.000000 0.000000
2.061670 -0.218186 1.078547 0.000000 0.000000 0.000000
2.115713 -0.230076 1.135176 0.000000 0.000000 0.000000
2.066481 -0.229616 1.077678 0.000000 0.000000 0.000000
2.113726 -0.234179 1.134148 0.000000 0.000000 0.000000
1.991905 -0.179494 0.980704 0.000000 0.000000 0.000000
2.097842 -0.026073 0.828273 0.000000 0.000000 0.000000
2.114270 -0.233400 1.137471 0.000000 0.000000 0.000000
1.975040 -0.152226 0.954597 0.000000 0.000000 0.000000
2.180924 0.004283 0.761421 0.000000 0.000000 0.000000
1.977385 -0.149533 0.954339 0.000000 0.000000 0.000000
1.977854 -0.146757 0.952919 0.000000 0.000000 0.000000
2.082578 -0.032322 0.844721 0.000000 0.000000 0.000000
1.974984 -0.146574 0.948605 0.000000 0.000000 0.000000
1.972839 -0.133274 0.937425 0.000000 0.000000 0.000000
2.065697 -0.231853 1.083154 0.000000 0.000000 0.000000
2.289164 -0.127057 1.048591 0.000000 0.000000 0.000000
2.131242 -0.214052 1.134935 0.000000 0.000000 0.000000
2.187514 0.005727 0.757739 0.000000 0.000000 0.000000
2.100799 -0.229121 1.113919 0.000000 0.000000 0.000000
1.979490 -0.124385 0.932191 0.000000 0.000000 0.000000
2.141958 -0.013200 0.787366 0.000000 0.000000 0.000000
2.179484 0.001902 0.752023 0.000000 0.000000 0.000000
1.978807 -0.150632 0.957938 0.000000 0.000000 0.000000
1.983473 -0.149825 0.954826 0.000000 0.000000 0.000000
2.060624 -0.227970 1.069139 0.000000 0.000000 0.000000
2.061654 -0.226939 1.065275 0.000000 0.000000 0.000000
2.136733 -0.015368 0.788826 0.000000 0.000000 0.000000
2.175591 0.003157 0.762006 0.000000 0.000000 0.000000
1.974042 -0.149767 0.957792 0.000000 0.000000 0.000000
1.986711 -0.157241 0.964337 0.000000 0.000000 0.000000
2.056031 -0.224772 1.063035 0.000000 0.000000 0.000000
2.062562 -0.232379 1.080161 0.000000 0.000000 0.000000
2.053507 -0.041701 0.856840 0.000000 0.000000 0.000000
2.240733 -0.198840 1.099344 0.000000 0.000000 0.000000
2.284290 0.028131 0.711260 0.000000 0.000000 0.000000
2.288151 0.020333 0.724136 0.000000 0.000000 0.000000
2.261291 -0.191468 1.086358 0.000000 0.000000 0.000000
2.114862 -0.234334 1.140513 0.000000 0.000000 0.000000
1.974796 -0.133061 0.938982 0.000000 0.000000 0.000000
2.130925 -0.216215 1.129243 0.000000 0.000000 0.000000
1.978417 -0.106113 0.912688 0.000000 0.000000 0.000000
2.259802 -0.203559 1.094920 0.000000 0.000000 0.000000
2.236485 -0.199617 1.101714 0.000000 0.000000 0.000000
2.247216 -0.200544 1.099456 0.000000 0.000000 0.000000
2.250809 -0.198534 1.091027 0.000000 0.000000 0.000000
2.181549 0.003643 0.760339 0.000000 0.000000 0.000000
2.264127 -0.205762 1.093857 0.000000 0.000000 0.000000
2.278114 0.025426 0.738479 0.000000 0.000000 0.000000
2.350610 -0.099672 0.947747 0.000000 0.000000 0.000000
1.984665 -0.162024 0.967506 0.000000 0.000000 0.000000
2.249261 0.000187 0.732076 0.000000 0.000000 0.000000
2.345054 -0.083475 0.937604 0.000000 0.000000 0.000000
2.241820 0.005659 0.730748 0.000000 0.000000 0.000000
1.984569 -0.154091 0.959264 0.000000 0.000000 0.000000
2.040058 -0.200693 1.022051 0.000000 0.000000 0.000000
2.018392 -0.201617 1.021885 0.000000 0.000000 0.000000
2.026698 -0.209667 1.031068 0.000000 0.000000 0.000000
2.056143 -0.036475 0.850740 0.000000 0.000000 0.000000
2.028400 -0.197922 1.013801 0.000000 0.000000 0.000000
2.025276 -0.206908 1.029467 0.000000 0.000000 0.000000
2.253023 0.006144 0.736374 0.000000 0.000000 0.000000
2.025087 -0.209596 1.029291 0.000000 0.000000 0.000000
2.023609 -0.210321 1.033752 0.000000 0.000000 0.000000
2.313966 -0.104710 1.009808 0.000000 0.000000 0.000000
2.264037 0.014733 0.728275 0.000000 0.000000 0.000000
2.322421 -0.110146 1.014574 0.000000 0.000000 0.000000
2.001478 -0.070111 0.877401 0.000000 0.000000 0.000000
2.275373 0.021234 0.717145 0.000000 0.000000 0.000000
2.260505 0.020603 0.719892 0.000000 0.000000 0.000000
2.254316 0.016230 0.723004 0.000000 0.000000 0.000000
2.257477 0.010051 0.727616 0.000000 0.000000 0.000000
2.002698 -0.068502 0.875221 0.000000 0.000000 0.000000
1.999575 -0.088287 0.901678 0.000000 0.000000 0.000000
1.975264 -0.139113 0.945979 0.000000 0.000000 0.000000
2.277725 -0.208419 1.092366 0.000000 0.000000 0.000000
2.278368 -0.194842 1.085549 0.000000 0.000000 0.000000
2.269429 -0.206349 1.094910 0.000000 0.000000 0.000000
2.331334 -0.074750 0.932642 0.000000 0.000000 0.000000
2.316005 -0.101000 1.013503 0.000000 0.000000 0.000000
2.142715 -0.237305 1.135265 0.000000 0.000000 0.000000
2.289450 -0.113798 1.033172 0.000000 0.000000 0.000000
2.286419 -0.132439 1.050702 0.000000 0.000000 0.000000
2.039819 -0.209373 1.027211 0.000000 0.000000 0.000000
2.023102 -0.204952 1.024536 0.000000 0.000000 0.000000
2.026993 -0.200738 1.033859 0.000000 0.000000 0.000000
2.287983 -0.115731 1.033323 0.000000 0.000000 0.000000
2.013787 -0.199240 1.013819 0.000000 0.000000 0.000000
2.263474 -0.128220 1.045378 0.000000 0.000000 0.000000
2.030817 -0.192916 1.014913 0.000000 0.000000 0.000000
2.316320 -0.106357 1.009767 0.000000 0.000000 0.000000
2.309997 -0.102544 1.021009 0.000000 0.000000 0.000000
2.003443 -0.062285 0.868248 0.000000 0.000000 0.000000
2.341123 -0.072180 0.938643 0.000000 0.000000 0.000000
2.312005 -0.091379 0.931004 0.000000 0.000000 0.000000
2.302027 -0.081465 0.979447 0.000000 0.000000 0.000000
2.301880 -0.082960 1.002914 0.000000 0.000000 0.000000
2.004738 -0.198106 1.008650 0.000000 0.000000 0.000000
2.016872 -0.198742 1.017543 0.000000 0.000000 0.000000
2.340699 -0.077603 0.952009 0.000000 0.000000 0.000000
2.153787 -0.234718 1.134620 0.000000 0.000000 0.000000
2.296865 -0.109008 1.027886 0.000000 0.000000 0.000000
2.306784 -0.104494 1.021765 0.000000 0.000000 0.000000
2.349699 0.023707 0.765841 0.000000 0.000000 0.000000
2.288172 -0.116411 1.035305 0.000000 0.000000 0.000000
2.280735 -0.132277 1.049238 0.000000 0.000000 0.000000
2.024743 -0.203363 1.024209 0.000000 0.000000 0.000000
2.023511 -0.197906 1.022944 0.000000 0.000000 0.000000
2.019029 -0.197196 1.022962 0.000000 0.000000 0.000000
2.272975 -0.121194 1.040905 0.000000 0.000000 0.000000
2.019600 -0.206476 1.022135 0.000000 0.000000 0.000000
2.257383 -0.128206 1.048673 0.000000 0.000000 0.000000
2.024467 -0.194066 1.014371 0.000000 0.000000 0.000000
2.305331 -0.122181 1.041823 0.000000 0.000000 0.000000
2.312530 -0.103222 1.018865 0.000000 0.000000 0.000000
2.314579 -0.102577 1.013460 0.000000 0.000000 0.000000
2.013430 -0.058552 0.863951 0.000000 0.000000 0.000000
2.337114 -0.064235 0.932325 0.000000 0.000000 0.000000
2.332712 -0.077406 0.930545 0.000000 0.000000 0.000000
2.308910 -0.080713 0.991730 0.000000 0.000000 0.000000
2.310061 -0.078173 0.984572 0.000000 0.000000 0.000000
2.018776 -0.206128 1.023079 0.000000 0.000000 0.000000
2.023947 -0.202295 1.021571 0.000000 0.000000 0.000000
2.337568 -0.075202 0.939312 0.000000 0.000000 0.000000
2.151017 -0.225910 1.129006 0.000000 0.000000 0.000000
2.298672 -0.107815 1.029760 0.000000 0.000000 0.000000
2.311565 -0.103862 1.016808 0.000000 0.000000 0.000000
2.346003 0.020477 0.789050 0.000000 0.000000 0.000000
2.046952 -0.048178 0.851176 0.000000 0.000000 0.000000
1.986375 -0.088961 0.895362 0.000000 0.000000 0.000000
1.984226 -0.096811 0.903838 0.000000 0.000000 0.000000
2.053840 -0.036496 0.848668 0.000000 0.000000 0.000000
2.331412 0.045641 0.713033 0.000000 0.000000 0.000000
2.000511 -0.090854 0.900133 0.000000 0.000000 0.000000
1.972350 -0.151505 0.957982 0.000000 0.000000 0.000000
2.138148 -0.005002 0.799988 0.000000 0.000000 0.000000
2.272220 -0.176517 1.070374 0.000000 0.000000 0.000000
2.033893 -0.212778 1.035895 0.000000 0.000000 0.000000
2.338634 -0.078655 0.952318 0.000000 0.000000 0.000000
1.996817 -0.073807 0.880558 0.000000 0.000000 0.000000
2.074302 -0.233805 1.074705 0.000000 0.000000 0.000000
2.132859 -0.249304 1.138664 0.000000 0.000000 0.000000
2.180852 0.004665 0.761086 0.000000 0.000000 0.000000
2.195920 0.010775 0.760546 0.000000 0.000000 0.000000
1.980598 -0.149541 0.954876 0.000000 0.000000 0.000000
1.980956 -0.153621 0.957583 0.000000 0.000000 0.000000
1.993392 -0.097328 0.906529 0.000000 0.000000 0.000000
1.983808 -0.102063 0.910212 0.000000 0.000000 0.000000
1.984623 -0.084593 0.893713 0.000000 0.000000 0.000000
2.292781 -0.124016 1.047597 0.000000 0.000000 0.000000
2.268599 -0.002293 0.745370 0.000000 0.000000 0.000000
2.283969 -0.140828 1.057631 0.000000 0.000000 0.000000
2.135398 -0.007644 0.794975 0.000000 0.000000 0.000000
2.142944 -0.004132 0.790627 0.000000 0.000000 0.000000
2.170444 0.000841 0.776358 0.000000 0.000000 0.000000
1.985184 -0.088229 0.893958 0.000000 0.000000 0.000000
2.167794 0.001569 0.770595 0.000000 0.000000 0.000000
2.046732 -0.039821 0.848129 0.000000 0.000000 0.000000
2.028320 -0.045127 0.856845 0.000000 0.000000 0.000000
1.976845 -0.146168 0.947393 0.000000 0.000000 0.000000
2.286571 -0.132777 1.050576 0.000000 0.000000 0.000000
1.980223 -0.155662 0.962168 0.000000 0.000000 0.000000
2.063339 -0.228554 1.074271 0.000000 0.000000 0.000000
2.283526 -0.133468 1.049200 0.000000 0.000000 0.000000
2.143000 -0.006582 0.801723 0.000000 0.000000 0.000000
2.326945 0.031537 0.706374 0.000000 0.000000 0.000000
1.993159 -0.089629 0.899447 0.000000 0.000000 0.000000
1.992547 -0.090481 0.896338 0.000000 0.000000 0.000000
2.122761 -0.019391 0.822153 0.000000 0.000000 0.000000
2.220477 0.024260 0.734490 0.000000 0.000000 0.000000
2.148078 -0.007563 0.795667 0.000000 0.000000 0.000000
2.135889 -0.010985 0.805191 0.000000 0.000000 0.000000
2.122113 -0.014751 0.804004 0.000000 0.000000 0.000000
2.146147 0.000341 0.788860 0.000000 0.000000 0.000000
2.161748 0.000667 0.775930 0.000000 0.000000 0.000000
2.136686 -0.005988 0.790943 0.000000 0.000000 0.000000
2.134199 -0.006249 0.792255 0.000000 0.000000 0.000000
2.127406 -0.014305 0.795394 0.000000 0.000000 0.000000
1.981901 -0.103053 0.905586 0.000000 0.000000 0.000000
