ply
format ascii 1.0
comment VCGLIB generated
obj_info Generated by SPFormer!
element vertex 884
property float x
property float y
property float z
property float nx
property float ny
property float nz
end_header
1.170230 0.703379 0.335019 0.000000 0.000000 0.000000
1.036505 0.868309 0.237091 0.000000 0.000000 0.000000
0.799878 0.750943 0.352909 0.000000 0.000000 0.000000
1.002335 0.914405 0.229797 0.000000 0.000000 0.000000
0.752728 0.741160 0.366443 0.000000 0.000000 0.000000
1.097613 0.836120 0.246742 0.000000 0.000000 0.000000
0.735540 0.745028 0.358812 0.000000 0.000000 0.000000
0.867760 0.825721 0.315026 0.000000 0.000000 0.000000
0.979657 0.620268 0.394683 0.000000 0.000000 0.000000
0.759527 0.809558 0.331256 0.000000 0.000000 0.000000
0.838369 0.862106 0.303730 0.000000 0.000000 0.000000
1.109251 0.740644 0.333183 0.000000 0.000000 0.000000
1.166813 0.750921 0.299649 0.000000 0.000000 0.000000
1.113302 0.788209 0.296722 0.000000 0.000000 0.000000
1.082806 0.835758 0.222229 0.000000 0.000000 0.000000
0.855942 0.859154 0.300901 0.000000 0.000000 0.000000
1.069846 0.864857 0.229803 0.000000 0.000000 0.000000
0.973159 0.799061 0.312636 0.000000 0.000000 0.000000
1.009143 0.848818 0.272457 0.000000 0.000000 0.000000
0.896350 0.617537 0.414410 0.000000 0.000000 0.000000
1.112400 0.794462 0.293957 0.000000 0.000000 0.000000
0.840358 0.869335 0.296661 0.000000 0.000000 0.000000
1.115664 0.793196 0.296377 0.000000 0.000000 0.000000
0.718667 0.712398 0.382603 0.000000 0.000000 0.000000
1.096766 0.767014 0.305331 0.000000 0.000000 0.000000
1.067489 0.882213 0.223556 0.000000 0.000000 0.000000
0.964723 0.766589 0.342294 0.000000 0.000000 0.000000
1.178535 0.721361 0.317068 0.000000 0.000000 0.000000
0.661061 0.738580 0.425083 0.000000 0.000000 0.000000
1.006870 0.903283 0.228019 0.000000 0.000000 0.000000
1.161605 0.754142 0.288054 0.000000 0.000000 0.000000
1.069382 0.879852 0.228647 0.000000 0.000000 0.000000
0.816523 0.854963 0.312585 0.000000 0.000000 0.000000
0.798196 0.829725 0.317372 0.000000 0.000000 0.000000
0.882720 0.862182 0.281920 0.000000 0.000000 0.000000
0.895338 0.653954 0.407310 0.000000 0.000000 0.000000
0.792208 0.838926 0.319901 0.000000 0.000000 0.000000
0.953884 0.743855 0.357504 0.000000 0.000000 0.000000
0.889804 0.886341 0.277150 0.000000 0.000000 0.000000
0.855691 0.654010 0.412003 0.000000 0.000000 0.000000
0.834836 0.810053 0.321940 0.000000 0.000000 0.000000
0.759494 0.727004 0.363040 0.000000 0.000000 0.000000
0.753484 0.843565 0.323597 0.000000 0.000000 0.000000
0.711217 0.700314 0.414375 0.000000 0.000000 0.000000
0.958312 0.616338 0.400259 0.000000 0.000000 0.000000
0.841072 0.801606 0.330732 0.000000 0.000000 0.000000
0.815725 0.783333 0.332922 0.000000 0.000000 0.000000
1.119226 0.620913 0.366533 0.000000 0.000000 0.000000
1.033659 0.879185 0.229408 0.000000 0.000000 0.000000
0.726828 0.781862 0.353233 0.000000 0.000000 0.000000
1.183104 0.753316 0.281237 0.000000 0.000000 0.000000
0.979099 0.623860 0.401267 0.000000 0.000000 0.000000
1.107385 0.621899 0.378534 0.000000 0.000000 0.000000
0.764185 0.651846 0.419475 0.000000 0.000000 0.000000
1.188362 0.666561 0.320923 0.000000 0.000000 0.000000
0.893121 0.636497 0.410910 0.000000 0.000000 0.000000
0.834462 0.801503 0.333760 0.000000 0.000000 0.000000
1.180664 0.671922 0.335521 0.000000 0.000000 0.000000
1.078383 0.604395 0.390329 0.000000 0.000000 0.000000
0.719028 0.684202 0.418645 0.000000 0.000000 0.000000
0.848075 0.799452 0.328896 0.000000 0.000000 0.000000
1.038210 0.620971 0.381581 0.000000 0.000000 0.000000
1.140741 0.733150 0.299628 0.000000 0.000000 0.000000
0.792621 0.861059 0.307107 0.000000 0.000000 0.000000
1.179153 0.765058 0.278491 0.000000 0.000000 0.000000
1.005924 0.907802 0.231890 0.000000 0.000000 0.000000
1.027695 0.872127 0.245238 0.000000 0.000000 0.000000
0.996735 0.890866 0.241069 0.000000 0.000000 0.000000
0.814639 0.864058 0.299679 0.000000 0.000000 0.000000
1.047691 0.867496 0.232430 0.000000 0.000000 0.000000
0.743196 0.838636 0.322586 0.000000 0.000000 0.000000
0.917647 0.699553 0.385407 0.000000 0.000000 0.000000
1.037830 0.611504 0.391205 0.000000 0.000000 0.000000
0.657751 0.767932 0.406851 0.000000 0.000000 0.000000
0.986980 0.908320 0.234223 0.000000 0.000000 0.000000
1.034328 0.835820 0.279020 0.000000 0.000000 0.000000
0.768364 0.652789 0.416639 0.000000 0.000000 0.000000
0.886173 0.881485 0.278826 0.000000 0.000000 0.000000
1.092764 0.625537 0.376476 0.000000 0.000000 0.000000
1.031097 0.873421 0.247469 0.000000 0.000000 0.000000
0.745578 0.720601 0.370449 0.000000 0.000000 0.000000
0.823448 0.850498 0.311153 0.000000 0.000000 0.000000
1.138475 0.761471 0.308105 0.000000 0.000000 0.000000
0.959429 0.615139 0.400474 0.000000 0.000000 0.000000
0.897821 0.617478 0.414438 0.000000 0.000000 0.000000
1.169602 0.649237 0.339277 0.000000 0.000000 0.000000
1.166208 0.750486 0.306370 0.000000 0.000000 0.000000
0.764670 0.843662 0.314469 0.000000 0.000000 0.000000
0.995791 0.906953 0.230398 0.000000 0.000000 0.000000
0.761294 0.838804 0.321912 0.000000 0.000000 0.000000
1.061706 0.739972 0.350395 0.000000 0.000000 0.000000
1.156220 0.768248 0.276922 0.000000 0.000000 0.000000
0.853620 0.870327 0.289815 0.000000 0.000000 0.000000
0.994010 0.896476 0.238898 0.000000 0.000000 0.000000
1.077351 0.624758 0.378149 0.000000 0.000000 0.000000
1.129300 0.766150 0.307525 0.000000 0.000000 0.000000
1.022098 0.914952 0.227480 0.000000 0.000000 0.000000
0.815851 0.855692 0.309447 0.000000 0.000000 0.000000
1.125545 0.753023 0.318766 0.000000 0.000000 0.000000
1.178133 0.723698 0.313842 0.000000 0.000000 0.000000
1.156302 0.782796 0.271584 0.000000 0.000000 0.000000
0.779423 0.853617 0.311645 0.000000 0.000000 0.000000
1.167459 0.635444 0.348103 0.000000 0.000000 0.000000
1.105054 0.837386 0.231739 0.000000 0.000000 0.000000
1.224846 0.683148 0.317812 0.000000 0.000000 0.000000
1.116865 0.821984 0.240748 0.000000 0.000000 0.000000
0.774331 0.839522 0.320910 0.000000 0.000000 0.000000
1.137647 0.799375 0.256867 0.000000 0.000000 0.000000
1.073209 0.839343 0.233209 0.000000 0.000000 0.000000
0.732107 0.776455 0.355102 0.000000 0.000000 0.000000
0.731930 0.710599 0.384340 0.000000 0.000000 0.000000
1.071241 0.862747 0.239443 0.000000 0.000000 0.000000
1.071319 0.800555 0.290768 0.000000 0.000000 0.000000
1.100202 0.782038 0.310466 0.000000 0.000000 0.000000
1.080948 0.858515 0.232152 0.000000 0.000000 0.000000
0.940625 0.889870 0.259824 0.000000 0.000000 0.000000
1.085319 0.766243 0.327627 0.000000 0.000000 0.000000
0.791165 0.692089 0.378964 0.000000 0.000000 0.000000
1.104598 0.783413 0.308664 0.000000 0.000000 0.000000
1.105774 0.777435 0.310789 0.000000 0.000000 0.000000
1.149899 0.772649 0.293003 0.000000 0.000000 0.000000
1.190593 0.714767 0.320769 0.000000 0.000000 0.000000
0.801758 0.850636 0.309809 0.000000 0.000000 0.000000
1.078327 0.851603 0.226567 0.000000 0.000000 0.000000
0.725387 0.717683 0.383185 0.000000 0.000000 0.000000
1.072356 0.857984 0.236218 0.000000 0.000000 0.000000
1.123560 0.807996 0.249335 0.000000 0.000000 0.000000
1.099634 0.790029 0.304094 0.000000 0.000000 0.000000
1.082378 0.839684 0.236870 0.000000 0.000000 0.000000
1.108379 0.782162 0.306549 0.000000 0.000000 0.000000
1.089049 0.794520 0.304761 0.000000 0.000000 0.000000
0.959417 0.613745 0.401640 0.000000 0.000000 0.000000
1.099880 0.789074 0.292491 0.000000 0.000000 0.000000
1.084947 0.609958 0.385485 0.000000 0.000000 0.000000
1.100787 0.798823 0.297029 0.000000 0.000000 0.000000
0.912544 0.624061 0.409296 0.000000 0.000000 0.000000
1.142883 0.775258 0.286900 0.000000 0.000000 0.000000
1.189915 0.718313 0.305953 0.000000 0.000000 0.000000
0.795450 0.841616 0.310677 0.000000 0.000000 0.000000
0.780344 0.833042 0.320719 0.000000 0.000000 0.000000
1.023980 0.599518 0.403052 0.000000 0.000000 0.000000
1.160361 0.780922 0.275944 0.000000 0.000000 0.000000
0.841950 0.761139 0.341722 0.000000 0.000000 0.000000
0.806646 0.861136 0.304403 0.000000 0.000000 0.000000
0.713476 0.811116 0.349265 0.000000 0.000000 0.000000
1.147893 0.772534 0.271625 0.000000 0.000000 0.000000
0.824068 0.857273 0.306837 0.000000 0.000000 0.000000
0.832494 0.775768 0.344448 0.000000 0.000000 0.000000
0.723822 0.795044 0.352090 0.000000 0.000000 0.000000
0.817786 0.859427 0.303813 0.000000 0.000000 0.000000
0.713759 0.794216 0.353452 0.000000 0.000000 0.000000
0.880022 0.837303 0.311150 0.000000 0.000000 0.000000
0.813119 0.860757 0.305074 0.000000 0.000000 0.000000
0.678486 0.719255 0.427141 0.000000 0.000000 0.000000
0.763262 0.654342 0.417277 0.000000 0.000000 0.000000
0.917366 0.902505 0.257301 0.000000 0.000000 0.000000
1.012296 0.606128 0.390552 0.000000 0.000000 0.000000
1.146919 0.766918 0.278824 0.000000 0.000000 0.000000
0.791800 0.844818 0.316818 0.000000 0.000000 0.000000
1.058987 0.871381 0.231324 0.000000 0.000000 0.000000
1.193964 0.708800 0.312262 0.000000 0.000000 0.000000
0.881662 0.880480 0.283515 0.000000 0.000000 0.000000
0.987672 0.913815 0.235400 0.000000 0.000000 0.000000
1.116389 0.612080 0.377035 0.000000 0.000000 0.000000
0.662262 0.751162 0.410158 0.000000 0.000000 0.000000
1.142846 0.780362 0.263002 0.000000 0.000000 0.000000
1.160638 0.718054 0.323180 0.000000 0.000000 0.000000
1.072819 0.611419 0.393339 0.000000 0.000000 0.000000
0.652480 0.772169 0.414291 0.000000 0.000000 0.000000
0.653291 0.772965 0.411644 0.000000 0.000000 0.000000
0.654781 0.768270 0.418676 0.000000 0.000000 0.000000
0.690789 0.701737 0.421653 0.000000 0.000000 0.000000
0.667634 0.746883 0.411627 0.000000 0.000000 0.000000
0.913356 0.733495 0.375659 0.000000 0.000000 0.000000
0.872490 0.820959 0.314634 0.000000 0.000000 0.000000
1.164647 0.709536 0.328659 0.000000 0.000000 0.000000
1.169103 0.760277 0.280148 0.000000 0.000000 0.000000
0.762951 0.676739 0.403597 0.000000 0.000000 0.000000
0.890743 0.624017 0.413715 0.000000 0.000000 0.000000
1.017974 0.623253 0.397479 0.000000 0.000000 0.000000
1.153667 0.769767 0.288432 0.000000 0.000000 0.000000
1.158165 0.767192 0.294909 0.000000 0.000000 0.000000
0.693519 0.700442 0.422173 0.000000 0.000000 0.000000
0.749354 0.826251 0.327415 0.000000 0.000000 0.000000
0.661511 0.757346 0.420433 0.000000 0.000000 0.000000
0.946353 0.610088 0.409526 0.000000 0.000000 0.000000
0.720123 0.809525 0.342681 0.000000 0.000000 0.000000
0.658839 0.771069 0.412989 0.000000 0.000000 0.000000
0.861981 0.810773 0.325983 0.000000 0.000000 0.000000
1.142551 0.721188 0.321388 0.000000 0.000000 0.000000
1.133042 0.738397 0.322102 0.000000 0.000000 0.000000
0.904103 0.624332 0.412518 0.000000 0.000000 0.000000
1.047619 0.825387 0.278242 0.000000 0.000000 0.000000
0.893638 0.620529 0.410509 0.000000 0.000000 0.000000
0.933341 0.607944 0.412224 0.000000 0.000000 0.000000
1.175688 0.768671 0.279084 0.000000 0.000000 0.000000
1.135651 0.625724 0.362607 0.000000 0.000000 0.000000
0.784824 0.847026 0.304979 0.000000 0.000000 0.000000
0.675256 0.756269 0.395853 0.000000 0.000000 0.000000
1.144053 0.779277 0.273166 0.000000 0.000000 0.000000
1.049083 0.883069 0.233769 0.000000 0.000000 0.000000
0.696719 0.775410 0.367377 0.000000 0.000000 0.000000
0.653412 0.757827 0.421012 0.000000 0.000000 0.000000
1.031368 0.851290 0.265406 0.000000 0.000000 0.000000
0.896977 0.621327 0.412678 0.000000 0.000000 0.000000
1.050439 0.602517 0.398668 0.000000 0.000000 0.000000
1.027596 0.893623 0.224424 0.000000 0.000000 0.000000
0.775803 0.698671 0.387430 0.000000 0.000000 0.000000
0.902305 0.887215 0.273464 0.000000 0.000000 0.000000
0.864552 0.861624 0.290761 0.000000 0.000000 0.000000
0.844791 0.867875 0.298799 0.000000 0.000000 0.000000
0.768509 0.832572 0.320363 0.000000 0.000000 0.000000
0.777695 0.748849 0.349837 0.000000 0.000000 0.000000
0.871468 0.885584 0.277859 0.000000 0.000000 0.000000
0.905755 0.889167 0.268557 0.000000 0.000000 0.000000
0.694836 0.764080 0.373076 0.000000 0.000000 0.000000
1.028177 0.867738 0.256871 0.000000 0.000000 0.000000
0.971106 0.901576 0.242460 0.000000 0.000000 0.000000
0.745694 0.831444 0.321762 0.000000 0.000000 0.000000
0.935175 0.611353 0.412525 0.000000 0.000000 0.000000
1.158364 0.777733 0.270773 0.000000 0.000000 0.000000
0.780259 0.848213 0.313676 0.000000 0.000000 0.000000
1.173869 0.691020 0.334985 0.000000 0.000000 0.000000
1.083636 0.613396 0.389255 0.000000 0.000000 0.000000
1.129259 0.669255 0.361839 0.000000 0.000000 0.000000
1.060089 0.888171 0.223461 0.000000 0.000000 0.000000
1.022969 0.755031 0.346977 0.000000 0.000000 0.000000
0.965449 0.793216 0.325941 0.000000 0.000000 0.000000
1.103869 0.651058 0.352033 0.000000 0.000000 0.000000
1.141081 0.661165 0.359628 0.000000 0.000000 0.000000
0.669688 0.780735 0.397357 0.000000 0.000000 0.000000
0.795515 0.694280 0.382836 0.000000 0.000000 0.000000
0.673516 0.734056 0.419047 0.000000 0.000000 0.000000
0.964848 0.604179 0.412935 0.000000 0.000000 0.000000
1.020772 0.594839 0.404250 0.000000 0.000000 0.000000
0.957734 0.750445 0.349593 0.000000 0.000000 0.000000
1.125978 0.681892 0.342810 0.000000 0.000000 0.000000
1.023988 0.906237 0.225942 0.000000 0.000000 0.000000
1.064375 0.704802 0.346847 0.000000 0.000000 0.000000
0.795389 0.731984 0.363250 0.000000 0.000000 0.000000
0.951817 0.610308 0.408957 0.000000 0.000000 0.000000
0.905045 0.627769 0.406941 0.000000 0.000000 0.000000
1.070354 0.868050 0.228454 0.000000 0.000000 0.000000
0.766419 0.830119 0.317842 0.000000 0.000000 0.000000
0.955898 0.603921 0.411550 0.000000 0.000000 0.000000
0.789444 0.849961 0.312661 0.000000 0.000000 0.000000
1.127483 0.762040 0.310727 0.000000 0.000000 0.000000
1.112693 0.781871 0.309950 0.000000 0.000000 0.000000
0.783104 0.840001 0.320209 0.000000 0.000000 0.000000
0.722675 0.819915 0.338792 0.000000 0.000000 0.000000
1.102709 0.769614 0.320225 0.000000 0.000000 0.000000
0.769136 0.833335 0.324972 0.000000 0.000000 0.000000
0.783022 0.829979 0.327134 0.000000 0.000000 0.000000
0.778902 0.837496 0.321441 0.000000 0.000000 0.000000
1.125669 0.632943 0.369516 0.000000 0.000000 0.000000
1.053292 0.859173 0.240242 0.000000 0.000000 0.000000
0.858126 0.822755 0.313907 0.000000 0.000000 0.000000
0.850230 0.876126 0.300765 0.000000 0.000000 0.000000
1.087126 0.762457 0.327822 0.000000 0.000000 0.000000
1.098462 0.760986 0.325557 0.000000 0.000000 0.000000
1.102939 0.811254 0.284622 0.000000 0.000000 0.000000
0.723755 0.823913 0.334299 0.000000 0.000000 0.000000
1.110871 0.727999 0.330781 0.000000 0.000000 0.000000
1.035575 0.620780 0.382058 0.000000 0.000000 0.000000
0.885436 0.642628 0.408501 0.000000 0.000000 0.000000
0.774434 0.848394 0.315641 0.000000 0.000000 0.000000
0.905898 0.882741 0.270571 0.000000 0.000000 0.000000
0.794330 0.826896 0.326532 0.000000 0.000000 0.000000
0.773535 0.828660 0.324606 0.000000 0.000000 0.000000
0.858204 0.828481 0.307751 0.000000 0.000000 0.000000
1.016700 0.636838 0.388534 0.000000 0.000000 0.000000
0.945672 0.837841 0.296595 0.000000 0.000000 0.000000
1.176675 0.642068 0.350450 0.000000 0.000000 0.000000
0.972215 0.813543 0.314075 0.000000 0.000000 0.000000
0.975413 0.783623 0.317999 0.000000 0.000000 0.000000
0.935590 0.882857 0.270467 0.000000 0.000000 0.000000
0.973521 0.778945 0.331071 0.000000 0.000000 0.000000
0.950642 0.812791 0.312769 0.000000 0.000000 0.000000
0.943556 0.897029 0.254157 0.000000 0.000000 0.000000
1.002100 0.623404 0.398351 0.000000 0.000000 0.000000
0.996446 0.627246 0.390737 0.000000 0.000000 0.000000
1.090217 0.786398 0.307614 0.000000 0.000000 0.000000
1.166785 0.714107 0.328115 0.000000 0.000000 0.000000
0.775426 0.697821 0.375601 0.000000 0.000000 0.000000
1.172059 0.674440 0.334040 0.000000 0.000000 0.000000
0.979533 0.844831 0.283542 0.000000 0.000000 0.000000
0.965423 0.790136 0.315137 0.000000 0.000000 0.000000
0.949552 0.857764 0.286497 0.000000 0.000000 0.000000
0.920391 0.880517 0.275315 0.000000 0.000000 0.000000
1.037010 0.805304 0.298551 0.000000 0.000000 0.000000
0.915296 0.855415 0.285326 0.000000 0.000000 0.000000
1.147682 0.780718 0.287761 0.000000 0.000000 0.000000
1.024594 0.602377 0.400787 0.000000 0.000000 0.000000
0.987628 0.611796 0.405242 0.000000 0.000000 0.000000
1.147808 0.748597 0.302561 0.000000 0.000000 0.000000
1.124186 0.791422 0.312271 0.000000 0.000000 0.000000
0.991603 0.602861 0.405377 0.000000 0.000000 0.000000
0.770887 0.843261 0.317580 0.000000 0.000000 0.000000
1.083932 0.855784 0.222646 0.000000 0.000000 0.000000
0.691470 0.695897 0.424894 0.000000 0.000000 0.000000
1.171744 0.656618 0.342889 0.000000 0.000000 0.000000
0.980382 0.605719 0.404276 0.000000 0.000000 0.000000
0.665568 0.740345 0.419669 0.000000 0.000000 0.000000
0.674145 0.750470 0.409337 0.000000 0.000000 0.000000
0.652469 0.776734 0.409236 0.000000 0.000000 0.000000
0.652610 0.775061 0.410757 0.000000 0.000000 0.000000
1.014810 0.858598 0.262386 0.000000 0.000000 0.000000
1.021371 0.828250 0.288732 0.000000 0.000000 0.000000
1.046379 0.845442 0.264324 0.000000 0.000000 0.000000
1.049931 0.681250 0.358169 0.000000 0.000000 0.000000
1.052426 0.835349 0.275069 0.000000 0.000000 0.000000
0.988573 0.862840 0.258809 0.000000 0.000000 0.000000
1.172453 0.659868 0.328632 0.000000 0.000000 0.000000
0.867988 0.635602 0.404461 0.000000 0.000000 0.000000
1.174593 0.763118 0.275584 0.000000 0.000000 0.000000
0.765827 0.827054 0.326451 0.000000 0.000000 0.000000
1.167305 0.665583 0.348727 0.000000 0.000000 0.000000
0.822575 0.755185 0.346245 0.000000 0.000000 0.000000
0.935078 0.815224 0.318025 0.000000 0.000000 0.000000
0.666871 0.745953 0.421797 0.000000 0.000000 0.000000
0.655015 0.771701 0.416233 0.000000 0.000000 0.000000
1.018691 0.836156 0.282951 0.000000 0.000000 0.000000
1.015042 0.844019 0.272268 0.000000 0.000000 0.000000
1.053409 0.817940 0.288873 0.000000 0.000000 0.000000
1.040130 0.855898 0.257634 0.000000 0.000000 0.000000
0.810453 0.759965 0.338784 0.000000 0.000000 0.000000
1.001506 0.816744 0.308337 0.000000 0.000000 0.000000
0.795942 0.837349 0.311966 0.000000 0.000000 0.000000
0.740485 0.828622 0.328691 0.000000 0.000000 0.000000
1.022318 0.897093 0.236150 0.000000 0.000000 0.000000
1.030584 0.910232 0.220012 0.000000 0.000000 0.000000
1.079944 0.779633 0.318449 0.000000 0.000000 0.000000
0.878589 0.668087 0.374404 0.000000 0.000000 0.000000
1.145763 0.644035 0.349174 0.000000 0.000000 0.000000
0.835943 0.700643 0.375131 0.000000 0.000000 0.000000
0.660636 0.778003 0.399334 0.000000 0.000000 0.000000
0.666906 0.777170 0.388495 0.000000 0.000000 0.000000
1.059852 0.888183 0.235197 0.000000 0.000000 0.000000
0.655124 0.780566 0.407381 0.000000 0.000000 0.000000
0.672819 0.778274 0.388532 0.000000 0.000000 0.000000
0.665971 0.768902 0.396467 0.000000 0.000000 0.000000
0.713183 0.679997 0.417229 0.000000 0.000000 0.000000
1.024388 0.803960 0.307885 0.000000 0.000000 0.000000
1.137093 0.631118 0.351637 0.000000 0.000000 0.000000
1.151857 0.639324 0.348761 0.000000 0.000000 0.000000
1.105345 0.683183 0.329878 0.000000 0.000000 0.000000
0.842372 0.704213 0.373357 0.000000 0.000000 0.000000
0.672596 0.772926 0.384120 0.000000 0.000000 0.000000
0.904068 0.752062 0.358182 0.000000 0.000000 0.000000
0.957592 0.603551 0.407318 0.000000 0.000000 0.000000
0.946110 0.898525 0.251670 0.000000 0.000000 0.000000
0.663047 0.779324 0.397522 0.000000 0.000000 0.000000
0.652433 0.775484 0.414356 0.000000 0.000000 0.000000
0.951268 0.796713 0.325085 0.000000 0.000000 0.000000
0.671626 0.773458 0.411037 0.000000 0.000000 0.000000
0.948224 0.894179 0.257811 0.000000 0.000000 0.000000
0.931586 0.810309 0.316053 0.000000 0.000000 0.000000
1.140764 0.628074 0.357733 0.000000 0.000000 0.000000
0.834177 0.741204 0.357391 0.000000 0.000000 0.000000
1.092474 0.710457 0.345439 0.000000 0.000000 0.000000
1.105468 0.818929 0.255053 0.000000 0.000000 0.000000
1.119924 0.599864 0.378071 0.000000 0.000000 0.000000
0.959868 0.611433 0.409469 0.000000 0.000000 0.000000
0.775447 0.825726 0.318191 0.000000 0.000000 0.000000
0.753783 0.657437 0.417269 0.000000 0.000000 0.000000
0.782916 0.664608 0.398469 0.000000 0.000000 0.000000
0.758070 0.663986 0.408692 0.000000 0.000000 0.000000
1.148492 0.639275 0.355113 0.000000 0.000000 0.000000
0.808321 0.842438 0.313670 0.000000 0.000000 0.000000
0.810379 0.854954 0.309941 0.000000 0.000000 0.000000
0.799744 0.835603 0.320864 0.000000 0.000000 0.000000
0.758833 0.674551 0.405919 0.000000 0.000000 0.000000
0.954874 0.611289 0.400524 0.000000 0.000000 0.000000
0.820884 0.753735 0.352961 0.000000 0.000000 0.000000
0.861115 0.666034 0.397254 0.000000 0.000000 0.000000
0.715440 0.687036 0.415578 0.000000 0.000000 0.000000
1.065559 0.816634 0.288604 0.000000 0.000000 0.000000
0.791991 0.833480 0.317869 0.000000 0.000000 0.000000
0.768396 0.661994 0.415350 0.000000 0.000000 0.000000
0.761883 0.672796 0.397968 0.000000 0.000000 0.000000
1.020764 0.825376 0.285338 0.000000 0.000000 0.000000
0.717676 0.679335 0.411496 0.000000 0.000000 0.000000
1.015389 0.610873 0.389927 0.000000 0.000000 0.000000
0.798619 0.859299 0.318422 0.000000 0.000000 0.000000
0.740667 0.668161 0.415832 0.000000 0.000000 0.000000
0.777475 0.686674 0.389424 0.000000 0.000000 0.000000
0.824350 0.670553 0.399866 0.000000 0.000000 0.000000
1.123209 0.812534 0.250461 0.000000 0.000000 0.000000
1.122100 0.761229 0.316321 0.000000 0.000000 0.000000
0.710761 0.685126 0.419851 0.000000 0.000000 0.000000
0.960717 0.670630 0.388124 0.000000 0.000000 0.000000
0.833843 0.655272 0.410762 0.000000 0.000000 0.000000
1.157903 0.666295 0.348577 0.000000 0.000000 0.000000
1.047248 0.621670 0.385817 0.000000 0.000000 0.000000
0.918310 0.662222 0.375566 0.000000 0.000000 0.000000
1.062342 0.619410 0.382669 0.000000 0.000000 0.000000
0.864125 0.660324 0.401524 0.000000 0.000000 0.000000
0.871101 0.760547 0.365713 0.000000 0.000000 0.000000
1.015427 0.712944 0.359290 0.000000 0.000000 0.000000
0.874697 0.649481 0.409847 0.000000 0.000000 0.000000
0.846672 0.641624 0.404340 0.000000 0.000000 0.000000
0.969446 0.840715 0.277206 0.000000 0.000000 0.000000
0.893197 0.723586 0.372894 0.000000 0.000000 0.000000
0.966644 0.735098 0.361414 0.000000 0.000000 0.000000
0.797826 0.657102 0.404831 0.000000 0.000000 0.000000
0.913213 0.788395 0.333283 0.000000 0.000000 0.000000
0.979329 0.858202 0.275243 0.000000 0.000000 0.000000
0.973720 0.788292 0.325584 0.000000 0.000000 0.000000
0.954165 0.704381 0.375335 0.000000 0.000000 0.000000
1.013141 0.703575 0.375185 0.000000 0.000000 0.000000
0.783321 0.819674 0.330416 0.000000 0.000000 0.000000
1.040684 0.654819 0.366138 0.000000 0.000000 0.000000
1.152971 0.750756 0.312142 0.000000 0.000000 0.000000
1.047649 0.785498 0.314091 0.000000 0.000000 0.000000
0.896619 0.751176 0.361854 0.000000 0.000000 0.000000
0.850077 0.719003 0.366766 0.000000 0.000000 0.000000
0.911844 0.707268 0.371790 0.000000 0.000000 0.000000
0.857297 0.739137 0.363411 0.000000 0.000000 0.000000
0.848770 0.751797 0.358817 0.000000 0.000000 0.000000
0.875395 0.703659 0.388811 0.000000 0.000000 0.000000
1.051145 0.675182 0.374603 0.000000 0.000000 0.000000
1.143828 0.696943 0.336753 0.000000 0.000000 0.000000
1.064336 0.803344 0.276025 0.000000 0.000000 0.000000
1.048182 0.637419 0.377383 0.000000 0.000000 0.000000
0.822575 0.645509 0.415419 0.000000 0.000000 0.000000
0.981688 0.685669 0.379149 0.000000 0.000000 0.000000
0.888546 0.708504 0.373231 0.000000 0.000000 0.000000
0.853939 0.733136 0.362610 0.000000 0.000000 0.000000
0.898634 0.723864 0.377472 0.000000 0.000000 0.000000
1.087652 0.734374 0.341251 0.000000 0.000000 0.000000
0.844505 0.663773 0.395551 0.000000 0.000000 0.000000
0.970453 0.737869 0.334403 0.000000 0.000000 0.000000
1.073657 0.777246 0.316164 0.000000 0.000000 0.000000
0.957686 0.719389 0.360909 0.000000 0.000000 0.000000
0.850855 0.719107 0.379435 0.000000 0.000000 0.000000
1.126018 0.816308 0.245890 0.000000 0.000000 0.000000
1.022102 0.715716 0.346981 0.000000 0.000000 0.000000
0.752720 0.808582 0.346122 0.000000 0.000000 0.000000
1.136779 0.695130 0.337690 0.000000 0.000000 0.000000
1.179695 0.707222 0.329147 0.000000 0.000000 0.000000
0.831168 0.782467 0.345054 0.000000 0.000000 0.000000
1.207452 0.693401 0.319208 0.000000 0.000000 0.000000
0.946013 0.765946 0.325721 0.000000 0.000000 0.000000
1.004125 0.872806 0.250742 0.000000 0.000000 0.000000
0.832060 0.642251 0.404632 0.000000 0.000000 0.000000
0.752469 0.712423 0.369369 0.000000 0.000000 0.000000
0.955881 0.906882 0.248742 0.000000 0.000000 0.000000
1.142599 0.739487 0.323770 0.000000 0.000000 0.000000
0.934210 0.895273 0.260484 0.000000 0.000000 0.000000
0.783863 0.804261 0.335725 0.000000 0.000000 0.000000
1.119980 0.779771 0.303308 0.000000 0.000000 0.000000
0.758114 0.754879 0.344656 0.000000 0.000000 0.000000
0.816347 0.817807 0.322941 0.000000 0.000000 0.000000
0.776078 0.739747 0.347079 0.000000 0.000000 0.000000
1.146916 0.778580 0.260597 0.000000 0.000000 0.000000
1.044609 0.826113 0.250225 0.000000 0.000000 0.000000
0.983703 0.850304 0.270804 0.000000 0.000000 0.000000
0.925980 0.781470 0.317736 0.000000 0.000000 0.000000
1.091752 0.798859 0.282324 0.000000 0.000000 0.000000
1.107912 0.812347 0.258790 0.000000 0.000000 0.000000
1.110272 0.679558 0.335710 0.000000 0.000000 0.000000
0.991781 0.698341 0.359218 0.000000 0.000000 0.000000
0.770973 0.724703 0.372692 0.000000 0.000000 0.000000
1.118050 0.681400 0.335329 0.000000 0.000000 0.000000
1.002712 0.717417 0.361581 0.000000 0.000000 0.000000
0.888747 0.668661 0.388453 0.000000 0.000000 0.000000
1.141885 0.793085 0.263307 0.000000 0.000000 0.000000
0.800967 0.845334 0.316346 0.000000 0.000000 0.000000
0.882326 0.885221 0.279451 0.000000 0.000000 0.000000
1.174438 0.748622 0.294138 0.000000 0.000000 0.000000
1.106529 0.734889 0.328159 0.000000 0.000000 0.000000
1.059945 0.872462 0.236459 0.000000 0.000000 0.000000
1.091244 0.779176 0.314914 0.000000 0.000000 0.000000
1.069681 0.803233 0.296684 0.000000 0.000000 0.000000
1.095847 0.694126 0.346062 0.000000 0.000000 0.000000
1.140291 0.639705 0.362714 0.000000 0.000000 0.000000
1.127967 0.605945 0.369309 0.000000 0.000000 0.000000
0.756039 0.798984 0.335204 0.000000 0.000000 0.000000
1.019494 0.913673 0.222198 0.000000 0.000000 0.000000
1.183668 0.716482 0.321078 0.000000 0.000000 0.000000
0.897135 0.718656 0.357811 0.000000 0.000000 0.000000
0.939441 0.910326 0.259458 0.000000 0.000000 0.000000
1.144598 0.795763 0.267026 0.000000 0.000000 0.000000
0.938686 0.749379 0.335317 0.000000 0.000000 0.000000
0.952990 0.761854 0.346388 0.000000 0.000000 0.000000
1.117522 0.688689 0.339922 0.000000 0.000000 0.000000
1.053799 0.809456 0.294991 0.000000 0.000000 0.000000
1.162493 0.686642 0.332273 0.000000 0.000000 0.000000
0.961018 0.608100 0.407616 0.000000 0.000000 0.000000
0.833132 0.768356 0.347246 0.000000 0.000000 0.000000
1.176092 0.658459 0.338070 0.000000 0.000000 0.000000
0.983225 0.766299 0.336075 0.000000 0.000000 0.000000
1.152309 0.735389 0.307155 0.000000 0.000000 0.000000
0.983773 0.707146 0.369301 0.000000 0.000000 0.000000
0.865571 0.746821 0.361637 0.000000 0.000000 0.000000
0.904307 0.878180 0.271971 0.000000 0.000000 0.000000
1.198192 0.708580 0.313082 0.000000 0.000000 0.000000
0.998087 0.674622 0.371366 0.000000 0.000000 0.000000
0.985924 0.804723 0.313487 0.000000 0.000000 0.000000
1.008201 0.831176 0.289340 0.000000 0.000000 0.000000
1.147407 0.758190 0.309973 0.000000 0.000000 0.000000
0.842587 0.669059 0.387159 0.000000 0.000000 0.000000
0.953177 0.743970 0.359876 0.000000 0.000000 0.000000
1.190960 0.758556 0.284342 0.000000 0.000000 0.000000
0.825383 0.645672 0.416501 0.000000 0.000000 0.000000
0.885756 0.709886 0.379490 0.000000 0.000000 0.000000
0.676214 0.770139 0.411503 0.000000 0.000000 0.000000
0.881882 0.701830 0.388610 0.000000 0.000000 0.000000
1.166662 0.677632 0.333377 0.000000 0.000000 0.000000
1.066997 0.632943 0.385564 0.000000 0.000000 0.000000
1.107935 0.722303 0.308699 0.000000 0.000000 0.000000
0.715215 0.795489 0.351629 0.000000 0.000000 0.000000
0.783606 0.695749 0.406927 0.000000 0.000000 0.000000
0.832556 0.643777 0.412283 0.000000 0.000000 0.000000
0.701117 0.794077 0.351303 0.000000 0.000000 0.000000
1.024037 0.719325 0.354359 0.000000 0.000000 0.000000
0.830009 0.654544 0.414826 0.000000 0.000000 0.000000
0.791346 0.684896 0.401452 0.000000 0.000000 0.000000
1.001212 0.733227 0.366210 0.000000 0.000000 0.000000
0.898384 0.645598 0.406612 0.000000 0.000000 0.000000
0.782016 0.648075 0.416578 0.000000 0.000000 0.000000
0.888048 0.722107 0.369817 0.000000 0.000000 0.000000
0.914778 0.689403 0.384219 0.000000 0.000000 0.000000
0.913784 0.809357 0.321269 0.000000 0.000000 0.000000
0.926355 0.762236 0.350061 0.000000 0.000000 0.000000
0.905002 0.696036 0.382648 0.000000 0.000000 0.000000
0.989552 0.772706 0.335439 0.000000 0.000000 0.000000
1.043680 0.823146 0.287062 0.000000 0.000000 0.000000
0.894407 0.674076 0.396060 0.000000 0.000000 0.000000
0.768218 0.820938 0.332651 0.000000 0.000000 0.000000
1.110876 0.815809 0.273814 0.000000 0.000000 0.000000
1.155607 0.707326 0.337027 0.000000 0.000000 0.000000
1.179621 0.716163 0.318215 0.000000 0.000000 0.000000
1.138278 0.791239 0.266590 0.000000 0.000000 0.000000
0.993398 0.843383 0.274130 0.000000 0.000000 0.000000
0.859248 0.765258 0.347710 0.000000 0.000000 0.000000
1.027469 0.854228 0.261628 0.000000 0.000000 0.000000
0.975878 0.759900 0.352183 0.000000 0.000000 0.000000
0.950731 0.882583 0.262697 0.000000 0.000000 0.000000
1.088350 0.803287 0.296846 0.000000 0.000000 0.000000
0.864054 0.725261 0.364221 0.000000 0.000000 0.000000
0.900901 0.706486 0.378148 0.000000 0.000000 0.000000
0.858339 0.743032 0.375294 0.000000 0.000000 0.000000
0.851521 0.778214 0.343885 0.000000 0.000000 0.000000
0.924734 0.710767 0.368013 0.000000 0.000000 0.000000
0.853762 0.789764 0.335111 0.000000 0.000000 0.000000
1.002075 0.717239 0.337078 0.000000 0.000000 0.000000
1.074658 0.826568 0.263125 0.000000 0.000000 0.000000
0.812581 0.647639 0.405178 0.000000 0.000000 0.000000
1.075530 0.644679 0.377591 0.000000 0.000000 0.000000
1.002496 0.777278 0.336814 0.000000 0.000000 0.000000
1.070994 0.606259 0.391793 0.000000 0.000000 0.000000
0.792510 0.657696 0.413412 0.000000 0.000000 0.000000
0.891481 0.685139 0.373953 0.000000 0.000000 0.000000
0.964101 0.682008 0.382098 0.000000 0.000000 0.000000
0.799728 0.659266 0.400894 0.000000 0.000000 0.000000
0.815239 0.801453 0.344526 0.000000 0.000000 0.000000
1.174565 0.687675 0.331649 0.000000 0.000000 0.000000
0.933836 0.762194 0.350887 0.000000 0.000000 0.000000
0.920678 0.848430 0.296515 0.000000 0.000000 0.000000
0.775857 0.784131 0.337033 0.000000 0.000000 0.000000
1.072622 0.616242 0.384851 0.000000 0.000000 0.000000
0.874220 0.680292 0.386988 0.000000 0.000000 0.000000
0.920895 0.684538 0.390905 0.000000 0.000000 0.000000
0.986029 0.731315 0.354267 0.000000 0.000000 0.000000
0.732180 0.806535 0.350489 0.000000 0.000000 0.000000
1.061674 0.748519 0.338803 0.000000 0.000000 0.000000
0.852741 0.810024 0.335849 0.000000 0.000000 0.000000
1.145036 0.777433 0.290836 0.000000 0.000000 0.000000
0.872712 0.630201 0.412593 0.000000 0.000000 0.000000
1.156602 0.743153 0.314902 0.000000 0.000000 0.000000
0.815358 0.781241 0.334705 0.000000 0.000000 0.000000
1.132380 0.634274 0.363080 0.000000 0.000000 0.000000
0.800031 0.844116 0.309041 0.000000 0.000000 0.000000
1.106392 0.775214 0.312913 0.000000 0.000000 0.000000
1.146258 0.698666 0.308483 0.000000 0.000000 0.000000
1.142449 0.786718 0.277035 0.000000 0.000000 0.000000
0.762825 0.749487 0.344235 0.000000 0.000000 0.000000
1.046379 0.791289 0.264731 0.000000 0.000000 0.000000
0.793095 0.820131 0.328173 0.000000 0.000000 0.000000
0.955111 0.894110 0.255961 0.000000 0.000000 0.000000
0.711748 0.687683 0.417039 0.000000 0.000000 0.000000
1.078676 0.828459 0.241677 0.000000 0.000000 0.000000
0.963258 0.728595 0.354366 0.000000 0.000000 0.000000
1.068782 0.821102 0.267924 0.000000 0.000000 0.000000
0.814941 0.775494 0.328402 0.000000 0.000000 0.000000
0.909278 0.888647 0.266960 0.000000 0.000000 0.000000
1.175566 0.764356 0.266466 0.000000 0.000000 0.000000
0.792749 0.834669 0.324142 0.000000 0.000000 0.000000
0.817162 0.758110 0.342272 0.000000 0.000000 0.000000
1.067953 0.743559 0.343722 0.000000 0.000000 0.000000
1.097705 0.783819 0.309120 0.000000 0.000000 0.000000
1.048404 0.785684 0.313951 0.000000 0.000000 0.000000
1.162062 0.762730 0.289741 0.000000 0.000000 0.000000
1.105335 0.702921 0.341061 0.000000 0.000000 0.000000
0.695238 0.775274 0.371920 0.000000 0.000000 0.000000
1.176450 0.714299 0.324244 0.000000 0.000000 0.000000
0.900174 0.738568 0.345197 0.000000 0.000000 0.000000
0.959407 0.771534 0.323598 0.000000 0.000000 0.000000
1.119084 0.697129 0.338646 0.000000 0.000000 0.000000
1.101924 0.774772 0.316106 0.000000 0.000000 0.000000
1.132171 0.692133 0.336744 0.000000 0.000000 0.000000
1.031846 0.595612 0.409294 0.000000 0.000000 0.000000
0.845835 0.760098 0.340320 0.000000 0.000000 0.000000
0.971930 0.746573 0.347196 0.000000 0.000000 0.000000
1.145023 0.719348 0.305283 0.000000 0.000000 0.000000
0.997333 0.665165 0.371422 0.000000 0.000000 0.000000
1.015232 0.827048 0.289336 0.000000 0.000000 0.000000
1.162178 0.741470 0.306648 0.000000 0.000000 0.000000
1.183623 0.743763 0.297581 0.000000 0.000000 0.000000
0.733568 0.668709 0.419332 0.000000 0.000000 0.000000
1.136262 0.733135 0.311708 0.000000 0.000000 0.000000
0.987926 0.920563 0.226728 0.000000 0.000000 0.000000
0.756823 0.838270 0.315993 0.000000 0.000000 0.000000
1.056376 0.613689 0.392448 0.000000 0.000000 0.000000
0.910632 0.906911 0.259171 0.000000 0.000000 0.000000
0.720942 0.822961 0.337480 0.000000 0.000000 0.000000
0.851641 0.701638 0.376425 0.000000 0.000000 0.000000
0.786382 0.709137 0.384168 0.000000 0.000000 0.000000
0.671034 0.787097 0.385776 0.000000 0.000000 0.000000
0.982282 0.621970 0.389731 0.000000 0.000000 0.000000
0.941402 0.858123 0.276627 0.000000 0.000000 0.000000
0.724778 0.674911 0.416120 0.000000 0.000000 0.000000
0.948524 0.833174 0.286632 0.000000 0.000000 0.000000
1.189620 0.697821 0.322025 0.000000 0.000000 0.000000
0.749870 0.739099 0.379561 0.000000 0.000000 0.000000
0.747913 0.681331 0.404028 0.000000 0.000000 0.000000
0.744507 0.687409 0.412040 0.000000 0.000000 0.000000
0.759512 0.657210 0.414882 0.000000 0.000000 0.000000
1.181616 0.722415 0.315567 0.000000 0.000000 0.000000
0.925603 0.838130 0.298023 0.000000 0.000000 0.000000
0.997224 0.656803 0.360031 0.000000 0.000000 0.000000
0.686771 0.783913 0.380760 0.000000 0.000000 0.000000
1.111892 0.606628 0.385466 0.000000 0.000000 0.000000
0.989284 0.600528 0.405148 0.000000 0.000000 0.000000
0.846117 0.859197 0.300921 0.000000 0.000000 0.000000
0.930359 0.750499 0.355610 0.000000 0.000000 0.000000
1.135609 0.754698 0.315396 0.000000 0.000000 0.000000
0.964956 0.906662 0.240305 0.000000 0.000000 0.000000
1.138347 0.757705 0.311753 0.000000 0.000000 0.000000
0.713565 0.807322 0.347620 0.000000 0.000000 0.000000
0.659490 0.781613 0.403017 0.000000 0.000000 0.000000
1.013297 0.782030 0.326149 0.000000 0.000000 0.000000
0.765272 0.687733 0.385762 0.000000 0.000000 0.000000
0.944506 0.850495 0.276306 0.000000 0.000000 0.000000
0.968913 0.603015 0.410962 0.000000 0.000000 0.000000
0.960558 0.909035 0.248719 0.000000 0.000000 0.000000
0.748549 0.675665 0.410109 0.000000 0.000000 0.000000
0.724391 0.683914 0.409084 0.000000 0.000000 0.000000
1.111067 0.600168 0.377538 0.000000 0.000000 0.000000
1.143662 0.731780 0.318716 0.000000 0.000000 0.000000
1.055023 0.781488 0.320261 0.000000 0.000000 0.000000
1.023530 0.755272 0.346097 0.000000 0.000000 0.000000
1.141731 0.697285 0.331635 0.000000 0.000000 0.000000
1.029676 0.601582 0.400438 0.000000 0.000000 0.000000
0.823513 0.759470 0.339422 0.000000 0.000000 0.000000
1.141100 0.662584 0.344761 0.000000 0.000000 0.000000
1.118251 0.680336 0.336378 0.000000 0.000000 0.000000
0.846605 0.735574 0.367903 0.000000 0.000000 0.000000
0.983542 0.608979 0.405435 0.000000 0.000000 0.000000
0.981535 0.757864 0.346194 0.000000 0.000000 0.000000
0.915714 0.708464 0.383074 0.000000 0.000000 0.000000
0.894112 0.741452 0.375071 0.000000 0.000000 0.000000
0.804685 0.798987 0.332714 0.000000 0.000000 0.000000
0.897139 0.753215 0.355776 0.000000 0.000000 0.000000
0.861796 0.710462 0.367703 0.000000 0.000000 0.000000
0.831342 0.685860 0.403999 0.000000 0.000000 0.000000
0.911037 0.859141 0.282070 0.000000 0.000000 0.000000
0.681155 0.720973 0.421759 0.000000 0.000000 0.000000
0.981598 0.609525 0.403325 0.000000 0.000000 0.000000
0.700820 0.805292 0.353098 0.000000 0.000000 0.000000
0.731820 0.680124 0.410669 0.000000 0.000000 0.000000
0.932802 0.790917 0.322439 0.000000 0.000000 0.000000
1.175581 0.701542 0.323505 0.000000 0.000000 0.000000
0.740413 0.679882 0.406731 0.000000 0.000000 0.000000
0.950444 0.853121 0.278389 0.000000 0.000000 0.000000
0.945421 0.849724 0.281724 0.000000 0.000000 0.000000
0.748433 0.699834 0.402918 0.000000 0.000000 0.000000
1.131874 0.706179 0.342002 0.000000 0.000000 0.000000
0.678766 0.732736 0.414915 0.000000 0.000000 0.000000
1.119817 0.607397 0.373959 0.000000 0.000000 0.000000
0.951417 0.657762 0.388435 0.000000 0.000000 0.000000
0.846945 0.640948 0.414208 0.000000 0.000000 0.000000
0.832844 0.872262 0.295729 0.000000 0.000000 0.000000
1.081542 0.860776 0.229558 0.000000 0.000000 0.000000
1.064633 0.878792 0.234579 0.000000 0.000000 0.000000
1.151991 0.758335 0.307420 0.000000 0.000000 0.000000
1.044846 0.652464 0.371798 0.000000 0.000000 0.000000
0.706574 0.701835 0.413947 0.000000 0.000000 0.000000
0.772806 0.769767 0.330985 0.000000 0.000000 0.000000
0.745614 0.834514 0.324353 0.000000 0.000000 0.000000
0.693542 0.706949 0.421462 0.000000 0.000000 0.000000
0.658329 0.777136 0.407232 0.000000 0.000000 0.000000
0.758119 0.671443 0.405365 0.000000 0.000000 0.000000
1.179918 0.693033 0.331425 0.000000 0.000000 0.000000
0.742793 0.664965 0.417049 0.000000 0.000000 0.000000
0.817403 0.705887 0.359500 0.000000 0.000000 0.000000
0.707702 0.696879 0.414936 0.000000 0.000000 0.000000
1.098110 0.614007 0.382174 0.000000 0.000000 0.000000
0.948487 0.905098 0.247761 0.000000 0.000000 0.000000
1.082696 0.813389 0.289653 0.000000 0.000000 0.000000
1.017288 0.735238 0.328729 0.000000 0.000000 0.000000
1.103798 0.817474 0.269593 0.000000 0.000000 0.000000
0.966682 0.887857 0.252897 0.000000 0.000000 0.000000
1.097424 0.751033 0.336162 0.000000 0.000000 0.000000
1.042681 0.683405 0.351730 0.000000 0.000000 0.000000
0.862137 0.727823 0.372295 0.000000 0.000000 0.000000
0.991295 0.604963 0.406155 0.000000 0.000000 0.000000
1.007485 0.685653 0.371509 0.000000 0.000000 0.000000
1.012344 0.747458 0.351995 0.000000 0.000000 0.000000
1.057305 0.625897 0.376126 0.000000 0.000000 0.000000
0.902493 0.701380 0.377399 0.000000 0.000000 0.000000
0.913214 0.706670 0.382618 0.000000 0.000000 0.000000
0.694546 0.707882 0.412222 0.000000 0.000000 0.000000
0.688536 0.700814 0.424259 0.000000 0.000000 0.000000
0.728426 0.713711 0.403742 0.000000 0.000000 0.000000
1.026809 0.904574 0.223550 0.000000 0.000000 0.000000
1.054903 0.881331 0.220095 0.000000 0.000000 0.000000
0.660061 0.784333 0.402222 0.000000 0.000000 0.000000
1.169423 0.770286 0.269956 0.000000 0.000000 0.000000
1.020375 0.598432 0.402002 0.000000 0.000000 0.000000
0.912112 0.892522 0.259812 0.000000 0.000000 0.000000
1.048298 0.603600 0.398847 0.000000 0.000000 0.000000
0.664682 0.775179 0.407513 0.000000 0.000000 0.000000
0.874258 0.726540 0.373030 0.000000 0.000000 0.000000
0.759514 0.672452 0.415519 0.000000 0.000000 0.000000
1.048937 0.693974 0.361591 0.000000 0.000000 0.000000
1.108018 0.834864 0.237013 0.000000 0.000000 0.000000
1.055326 0.755366 0.340497 0.000000 0.000000 0.000000
0.778574 0.672734 0.411563 0.000000 0.000000 0.000000
1.145189 0.632106 0.361244 0.000000 0.000000 0.000000
1.119751 0.717336 0.336719 0.000000 0.000000 0.000000
1.168238 0.633393 0.347744 0.000000 0.000000 0.000000
0.855778 0.670909 0.406634 0.000000 0.000000 0.000000
0.930844 0.613837 0.403550 0.000000 0.000000 0.000000
0.694354 0.705611 0.417957 0.000000 0.000000 0.000000
1.019164 0.770904 0.338641 0.000000 0.000000 0.000000
0.703006 0.710187 0.404266 0.000000 0.000000 0.000000
0.761196 0.841330 0.309261 0.000000 0.000000 0.000000
1.107078 0.674568 0.339727 0.000000 0.000000 0.000000
1.149927 0.723477 0.309909 0.000000 0.000000 0.000000
1.107326 0.760464 0.321180 0.000000 0.000000 0.000000
0.776798 0.836740 0.319634 0.000000 0.000000 0.000000
0.698339 0.728485 0.409960 0.000000 0.000000 0.000000
0.731233 0.740362 0.365130 0.000000 0.000000 0.000000
1.150712 0.624146 0.357207 0.000000 0.000000 0.000000
1.090036 0.845748 0.239550 0.000000 0.000000 0.000000
0.707701 0.688202 0.419296 0.000000 0.000000 0.000000
1.093708 0.832792 0.237919 0.000000 0.000000 0.000000
0.745448 0.663469 0.418738 0.000000 0.000000 0.000000
0.757076 0.661182 0.410363 0.000000 0.000000 0.000000
1.117126 0.820756 0.245151 0.000000 0.000000 0.000000
0.694638 0.704829 0.405345 0.000000 0.000000 0.000000
1.167934 0.730896 0.313959 0.000000 0.000000 0.000000
1.085979 0.844882 0.251490 0.000000 0.000000 0.000000
1.023649 0.621906 0.390120 0.000000 0.000000 0.000000
1.040839 0.727024 0.354946 0.000000 0.000000 0.000000
0.842378 0.748880 0.355344 0.000000 0.000000 0.000000
0.696314 0.722091 0.393749 0.000000 0.000000 0.000000
0.696070 0.719804 0.409522 0.000000 0.000000 0.000000
0.675080 0.762451 0.404206 0.000000 0.000000 0.000000
0.825627 0.711580 0.391070 0.000000 0.000000 0.000000
0.816872 0.631679 0.415421 0.000000 0.000000 0.000000
0.777417 0.666431 0.408677 0.000000 0.000000 0.000000
1.047265 0.856823 0.244808 0.000000 0.000000 0.000000
1.105584 0.824527 0.237758 0.000000 0.000000 0.000000
1.061322 0.740158 0.340961 0.000000 0.000000 0.000000
0.743050 0.673135 0.416973 0.000000 0.000000 0.000000
0.843424 0.669445 0.407419 0.000000 0.000000 0.000000
0.809153 0.636384 0.416433 0.000000 0.000000 0.000000
0.922086 0.614068 0.407497 0.000000 0.000000 0.000000
1.037106 0.781665 0.323219 0.000000 0.000000 0.000000
1.066314 0.752461 0.336205 0.000000 0.000000 0.000000
1.168106 0.696480 0.329636 0.000000 0.000000 0.000000
0.750591 0.837309 0.315811 0.000000 0.000000 0.000000
1.055851 0.756344 0.332906 0.000000 0.000000 0.000000
1.090648 0.768175 0.321887 0.000000 0.000000 0.000000
0.766192 0.842706 0.316723 0.000000 0.000000 0.000000
0.688186 0.698483 0.426917 0.000000 0.000000 0.000000
1.142630 0.623478 0.351724 0.000000 0.000000 0.000000
0.759873 0.658223 0.414220 0.000000 0.000000 0.000000
0.921144 0.624237 0.407176 0.000000 0.000000 0.000000
1.056597 0.770115 0.331231 0.000000 0.000000 0.000000
1.034858 0.653571 0.357263 0.000000 0.000000 0.000000
0.719058 0.695892 0.407309 0.000000 0.000000 0.000000
1.096908 0.827087 0.243462 0.000000 0.000000 0.000000
1.108037 0.830187 0.235873 0.000000 0.000000 0.000000
0.697171 0.695385 0.414796 0.000000 0.000000 0.000000
1.121004 0.822290 0.245413 0.000000 0.000000 0.000000
0.998203 0.636874 0.377006 0.000000 0.000000 0.000000
1.074661 0.774883 0.322676 0.000000 0.000000 0.000000
0.703266 0.697525 0.419122 0.000000 0.000000 0.000000
1.109351 0.837801 0.237617 0.000000 0.000000 0.000000
0.987880 0.912237 0.230698 0.000000 0.000000 0.000000
0.685661 0.702563 0.425640 0.000000 0.000000 0.000000
1.176182 0.658058 0.344259 0.000000 0.000000 0.000000
0.814584 0.644364 0.411108 0.000000 0.000000 0.000000
1.204718 0.713925 0.310327 0.000000 0.000000 0.000000
0.670758 0.734789 0.414605 0.000000 0.000000 0.000000
0.799343 0.854442 0.309537 0.000000 0.000000 0.000000
1.043668 0.901179 0.230045 0.000000 0.000000 0.000000
1.189691 0.730156 0.300949 0.000000 0.000000 0.000000
1.138386 0.652988 0.353484 0.000000 0.000000 0.000000
1.186184 0.728139 0.294437 0.000000 0.000000 0.000000
1.153961 0.638059 0.348619 0.000000 0.000000 0.000000
0.825565 0.868586 0.299954 0.000000 0.000000 0.000000
1.132944 0.662342 0.344804 0.000000 0.000000 0.000000
0.722603 0.689484 0.415818 0.000000 0.000000 0.000000
1.157077 0.638798 0.347274 0.000000 0.000000 0.000000
0.840230 0.624873 0.416784 0.000000 0.000000 0.000000
0.946870 0.663510 0.384037 0.000000 0.000000 0.000000
1.200483 0.726920 0.300611 0.000000 0.000000 0.000000
1.066648 0.599758 0.393800 0.000000 0.000000 0.000000
1.107247 0.711395 0.342315 0.000000 0.000000 0.000000
0.843624 0.627776 0.413494 0.000000 0.000000 0.000000
0.668952 0.728871 0.425211 0.000000 0.000000 0.000000
1.186251 0.734202 0.304406 0.000000 0.000000 0.000000
0.739536 0.748312 0.362095 0.000000 0.000000 0.000000
0.955962 0.910674 0.242011 0.000000 0.000000 0.000000
1.065083 0.627374 0.380689 0.000000 0.000000 0.000000
0.827487 0.865300 0.305644 0.000000 0.000000 0.000000
1.139186 0.681274 0.332971 0.000000 0.000000 0.000000
0.808971 0.745483 0.360502 0.000000 0.000000 0.000000
0.688282 0.714871 0.413800 0.000000 0.000000 0.000000
1.100173 0.617212 0.378285 0.000000 0.000000 0.000000
1.093173 0.626477 0.397253 0.000000 0.000000 0.000000
0.782524 0.806102 0.330132 0.000000 0.000000 0.000000
1.043763 0.669363 0.363310 0.000000 0.000000 0.000000
0.908603 0.746741 0.363563 0.000000 0.000000 0.000000
0.702756 0.689371 0.425383 0.000000 0.000000 0.000000
1.035017 0.897558 0.235413 0.000000 0.000000 0.000000
0.802858 0.853242 0.310036 0.000000 0.000000 0.000000
0.797307 0.862316 0.302737 0.000000 0.000000 0.000000
0.792422 0.843334 0.311235 0.000000 0.000000 0.000000
0.684137 0.717666 0.423182 0.000000 0.000000 0.000000
0.667780 0.734347 0.423489 0.000000 0.000000 0.000000
0.784561 0.855626 0.312110 0.000000 0.000000 0.000000
0.720527 0.682393 0.420248 0.000000 0.000000 0.000000
0.671481 0.781791 0.387477 0.000000 0.000000 0.000000
0.846109 0.869023 0.296414 0.000000 0.000000 0.000000
0.670745 0.729313 0.421275 0.000000 0.000000 0.000000
0.816775 0.811804 0.316104 0.000000 0.000000 0.000000
0.821253 0.862378 0.303928 0.000000 0.000000 0.000000
1.086713 0.708382 0.338673 0.000000 0.000000 0.000000
0.860302 0.861168 0.293325 0.000000 0.000000 0.000000
0.885157 0.876757 0.284382 0.000000 0.000000 0.000000
0.880269 0.855566 0.293774 0.000000 0.000000 0.000000
0.826014 0.855918 0.291942 0.000000 0.000000 0.000000
0.980355 0.601948 0.408032 0.000000 0.000000 0.000000
0.877285 0.883692 0.277971 0.000000 0.000000 0.000000
0.714203 0.682851 0.418452 0.000000 0.000000 0.000000
0.809887 0.733595 0.364720 0.000000 0.000000 0.000000
0.836090 0.861995 0.295058 0.000000 0.000000 0.000000
1.072020 0.632539 0.368859 0.000000 0.000000 0.000000
0.985291 0.786916 0.322646 0.000000 0.000000 0.000000
1.006609 0.757114 0.344805 0.000000 0.000000 0.000000
1.017537 0.915795 0.223669 0.000000 0.000000 0.000000
0.779435 0.645505 0.419234 0.000000 0.000000 0.000000
0.950603 0.749735 0.360637 0.000000 0.000000 0.000000
1.132025 0.704378 0.336880 0.000000 0.000000 0.000000
0.840581 0.817096 0.312119 0.000000 0.000000 0.000000
0.713275 0.740404 0.391867 0.000000 0.000000 0.000000
0.812645 0.810403 0.327063 0.000000 0.000000 0.000000
1.086969 0.840319 0.255042 0.000000 0.000000 0.000000
0.794314 0.739779 0.362036 0.000000 0.000000 0.000000
1.055765 0.685936 0.353736 0.000000 0.000000 0.000000
0.871076 0.864441 0.293133 0.000000 0.000000 0.000000
1.102775 0.844849 0.230823 0.000000 0.000000 0.000000
0.808539 0.848106 0.304223 0.000000 0.000000 0.000000
1.027254 0.897969 0.231376 0.000000 0.000000 0.000000
0.779878 0.851243 0.313299 0.000000 0.000000 0.000000
0.969182 0.609391 0.401926 0.000000 0.000000 0.000000
0.705666 0.792051 0.355571 0.000000 0.000000 0.000000
0.732018 0.685072 0.404656 0.000000 0.000000 0.000000
1.046470 0.742185 0.345394 0.000000 0.000000 0.000000
1.015391 0.689087 0.360814 0.000000 0.000000 0.000000
0.980337 0.780848 0.329484 0.000000 0.000000 0.000000
0.834179 0.865533 0.300780 0.000000 0.000000 0.000000
1.083580 0.851533 0.225089 0.000000 0.000000 0.000000
1.086226 0.857753 0.228447 0.000000 0.000000 0.000000
0.750297 0.832616 0.322033 0.000000 0.000000 0.000000
1.136192 0.812593 0.246847 0.000000 0.000000 0.000000
0.911684 0.878583 0.279134 0.000000 0.000000 0.000000
0.817079 0.653828 0.404114 0.000000 0.000000 0.000000
