ply
format ascii 1.0
comment VCGLIB generated
obj_info Generated by SPFormer!
element vertex 883
property float x
property float y
property float z
property float nx
property float ny
property float nz
end_header
0.153892 1.426189 0.954909 0.000000 0.000000 0.000000
0.137844 1.596892 0.980954 0.000000 0.000000 0.000000
0.050144 1.720669 1.042831 0.000000 0.000000 0.000000
0.010727 1.735879 1.073969 0.000000 0.000000 0.000000
-0.010022 1.663607 1.055829 0.000000 0.000000 0.000000
0.312071 1.444845 0.950706 0.000000 0.000000 0.000000
0.121711 1.548893 0.979424 0.000000 0.000000 0.000000
0.032387 1.712443 1.044286 0.000000 0.000000 0.000000
0.203120 1.434616 0.953163 0.000000 0.000000 0.000000
0.225392 1.639976 0.952160 0.000000 0.000000 0.000000
0.252858 1.454550 0.938146 0.000000 0.000000 0.000000
0.050597 1.689104 1.024151 0.000000 0.000000 0.000000
0.066335 1.726758 1.038779 0.000000 0.000000 0.000000
0.021945 1.613813 1.037919 0.000000 0.000000 0.000000
0.405169 1.466848 0.958702 0.000000 0.000000 0.000000
0.234250 1.707921 0.947575 0.000000 0.000000 0.000000
-0.003643 1.675294 1.045584 0.000000 0.000000 0.000000
0.266837 1.472146 0.941795 0.000000 0.000000 0.000000
0.065996 1.742713 1.043827 0.000000 0.000000 0.000000
0.149879 1.747163 1.011769 0.000000 0.000000 0.000000
0.250706 1.479180 0.942699 0.000000 0.000000 0.000000
0.112815 1.735320 1.010001 0.000000 0.000000 0.000000
0.056519 1.721144 1.035352 0.000000 0.000000 0.000000
0.097080 1.737184 1.025850 0.000000 0.000000 0.000000
0.006096 1.706579 1.053196 0.000000 0.000000 0.000000
0.020405 1.601115 1.051822 0.000000 0.000000 0.000000
0.176446 1.590556 0.963113 0.000000 0.000000 0.000000
0.229967 1.706595 0.951206 0.000000 0.000000 0.000000
0.008727 1.619257 1.051570 0.000000 0.000000 0.000000
0.159708 1.511456 0.964343 0.000000 0.000000 0.000000
0.043712 1.554711 1.033055 0.000000 0.000000 0.000000
0.076177 1.736341 1.032800 0.000000 0.000000 0.000000
0.104495 1.515055 0.993741 0.000000 0.000000 0.000000
0.345404 1.658894 0.907128 0.000000 0.000000 0.000000
0.064583 1.508397 1.015432 0.000000 0.000000 0.000000
0.141711 1.466123 0.965502 0.000000 0.000000 0.000000
0.124916 1.496158 0.975787 0.000000 0.000000 0.000000
0.152062 1.479926 0.962298 0.000000 0.000000 0.000000
0.041198 1.660471 1.022141 0.000000 0.000000 0.000000
0.261492 1.661091 0.937445 0.000000 0.000000 0.000000
0.032188 1.682504 1.051090 0.000000 0.000000 0.000000
0.259190 1.702719 0.940432 0.000000 0.000000 0.000000
0.106142 1.442632 0.975446 0.000000 0.000000 0.000000
0.065332 1.676405 1.013149 0.000000 0.000000 0.000000
0.145428 1.517824 0.963167 0.000000 0.000000 0.000000
0.220532 1.482888 0.948940 0.000000 0.000000 0.000000
0.132860 1.425522 0.957572 0.000000 0.000000 0.000000
0.117243 1.756956 1.009477 0.000000 0.000000 0.000000
0.287889 1.660417 0.926555 0.000000 0.000000 0.000000
0.023992 1.696515 1.038816 0.000000 0.000000 0.000000
0.357820 1.639720 0.909618 0.000000 0.000000 0.000000
0.314084 1.399220 0.945079 0.000000 0.000000 0.000000
0.093040 1.511947 0.994827 0.000000 0.000000 0.000000
-0.005783 1.724790 1.077180 0.000000 0.000000 0.000000
0.150216 1.627613 0.971699 0.000000 0.000000 0.000000
-0.008989 1.720055 1.067290 0.000000 0.000000 0.000000
0.118470 1.715639 1.003574 0.000000 0.000000 0.000000
-0.010783 1.724309 1.076764 0.000000 0.000000 0.000000
0.138463 1.750498 1.004556 0.000000 0.000000 0.000000
0.321208 1.418150 0.949305 0.000000 0.000000 0.000000
0.106092 1.511756 0.984190 0.000000 0.000000 0.000000
0.062908 1.526633 1.015003 0.000000 0.000000 0.000000
0.059652 1.561380 1.019972 0.000000 0.000000 0.000000
0.188287 1.690489 0.966078 0.000000 0.000000 0.000000
0.131628 1.437184 0.959797 0.000000 0.000000 0.000000
0.263938 1.462903 0.948051 0.000000 0.000000 0.000000
0.005793 1.626310 1.047929 0.000000 0.000000 0.000000
0.113929 1.562777 0.980496 0.000000 0.000000 0.000000
0.095808 1.748238 1.033116 0.000000 0.000000 0.000000
0.143271 1.450803 0.965526 0.000000 0.000000 0.000000
-0.003354 1.719808 1.066828 0.000000 0.000000 0.000000
0.395094 1.464995 0.962563 0.000000 0.000000 0.000000
0.378617 1.412740 0.957662 0.000000 0.000000 0.000000
0.154135 1.723240 0.988330 0.000000 0.000000 0.000000
-0.022291 1.718512 1.072528 0.000000 0.000000 0.000000
0.053183 1.534264 1.027247 0.000000 0.000000 0.000000
0.389898 1.590202 0.914198 0.000000 0.000000 0.000000
0.323124 1.678732 0.913023 0.000000 0.000000 0.000000
0.163250 1.433029 0.955074 0.000000 0.000000 0.000000
0.019993 1.712993 1.045531 0.000000 0.000000 0.000000
-0.016895 1.724149 1.080551 0.000000 0.000000 0.000000
0.153450 1.461957 0.958600 0.000000 0.000000 0.000000
0.397836 1.427483 0.962678 0.000000 0.000000 0.000000
0.100287 1.689789 1.005777 0.000000 0.000000 0.000000
0.093669 1.573646 0.990740 0.000000 0.000000 0.000000
0.114885 1.556688 0.979137 0.000000 0.000000 0.000000
0.122756 1.431888 0.963752 0.000000 0.000000 0.000000
0.001417 1.717409 1.061518 0.000000 0.000000 0.000000
0.109135 1.756929 1.015778 0.000000 0.000000 0.000000
0.111584 1.752260 1.018516 0.000000 0.000000 0.000000
-0.008080 1.731576 1.085238 0.000000 0.000000 0.000000
0.359885 1.561371 0.933954 0.000000 0.000000 0.000000
0.096087 1.478818 0.995543 0.000000 0.000000 0.000000
0.007633 1.731717 1.068416 0.000000 0.000000 0.000000
0.218471 1.742919 0.962751 0.000000 0.000000 0.000000
0.220747 1.735138 0.957665 0.000000 0.000000 0.000000
0.175327 1.519777 0.951818 0.000000 0.000000 0.000000
0.182730 1.539877 0.958649 0.000000 0.000000 0.000000
0.244476 1.740042 0.950029 0.000000 0.000000 0.000000
0.081264 1.524454 1.006375 0.000000 0.000000 0.000000
0.384288 1.567002 0.927320 0.000000 0.000000 0.000000
0.097022 1.516936 0.990406 0.000000 0.000000 0.000000
0.208086 1.589675 0.955898 0.000000 0.000000 0.000000
0.073217 1.503786 1.009412 0.000000 0.000000 0.000000
0.082725 1.542558 0.992721 0.000000 0.000000 0.000000
0.078894 1.708619 1.019781 0.000000 0.000000 0.000000
0.232197 1.740036 0.952182 0.000000 0.000000 0.000000
0.238863 1.731704 0.949504 0.000000 0.000000 0.000000
0.360222 1.586514 0.929920 0.000000 0.000000 0.000000
0.239797 1.718664 0.945615 0.000000 0.000000 0.000000
0.173904 1.498140 0.953669 0.000000 0.000000 0.000000
0.270633 1.721911 0.947085 0.000000 0.000000 0.000000
0.400019 1.590744 0.920375 0.000000 0.000000 0.000000
0.375051 1.563440 0.928598 0.000000 0.000000 0.000000
0.180421 1.676574 0.965561 0.000000 0.000000 0.000000
0.268297 1.692958 0.936865 0.000000 0.000000 0.000000
0.233344 1.733935 0.952996 0.000000 0.000000 0.000000
0.245353 1.438635 0.938997 0.000000 0.000000 0.000000
0.068199 1.510796 1.012246 0.000000 0.000000 0.000000
0.035189 1.741858 1.060991 0.000000 0.000000 0.000000
-0.011483 1.730663 1.082101 0.000000 0.000000 0.000000
0.226988 1.728095 0.951232 0.000000 0.000000 0.000000
0.274402 1.723605 0.943622 0.000000 0.000000 0.000000
0.091092 1.461902 0.996328 0.000000 0.000000 0.000000
0.025446 1.732300 1.058833 0.000000 0.000000 0.000000
-0.025096 1.674892 1.061548 0.000000 0.000000 0.000000
0.098168 1.472548 0.988155 0.000000 0.000000 0.000000
0.026832 1.707529 1.039747 0.000000 0.000000 0.000000
0.183485 1.415628 0.950761 0.000000 0.000000 0.000000
0.151160 1.488300 0.962691 0.000000 0.000000 0.000000
0.189159 1.740252 0.977726 0.000000 0.000000 0.000000
0.131457 1.520002 0.977202 0.000000 0.000000 0.000000
0.122708 1.500117 0.981215 0.000000 0.000000 0.000000
0.417651 1.433952 0.956622 0.000000 0.000000 0.000000
0.130655 1.743125 1.010741 0.000000 0.000000 0.000000
0.040674 1.708601 1.036616 0.000000 0.000000 0.000000
0.341075 1.558783 0.930716 0.000000 0.000000 0.000000
0.119435 1.519710 0.985583 0.000000 0.000000 0.000000
0.264568 1.706465 0.935779 0.000000 0.000000 0.000000
0.090270 1.510971 1.004474 0.000000 0.000000 0.000000
0.108003 1.466524 0.979151 0.000000 0.000000 0.000000
-0.018842 1.714821 1.071350 0.000000 0.000000 0.000000
0.044963 1.660265 1.024955 0.000000 0.000000 0.000000
0.097968 1.626415 0.994509 0.000000 0.000000 0.000000
0.113329 1.749729 1.023488 0.000000 0.000000 0.000000
0.130072 1.750233 1.015528 0.000000 0.000000 0.000000
-0.005460 1.681796 1.050751 0.000000 0.000000 0.000000
0.190741 1.447615 0.953386 0.000000 0.000000 0.000000
0.007444 1.683649 1.051477 0.000000 0.000000 0.000000
0.001042 1.682357 1.058916 0.000000 0.000000 0.000000
0.132526 1.752231 1.008633 0.000000 0.000000 0.000000
-0.016311 1.672884 1.064196 0.000000 0.000000 0.000000
0.022842 1.585187 1.055044 0.000000 0.000000 0.000000
0.131790 1.446984 0.965688 0.000000 0.000000 0.000000
0.054668 1.510037 1.025432 0.000000 0.000000 0.000000
0.035044 1.716774 1.045529 0.000000 0.000000 0.000000
0.160497 1.430746 0.955079 0.000000 0.000000 0.000000
0.044063 1.719150 1.041454 0.000000 0.000000 0.000000
0.016925 1.676084 1.035940 0.000000 0.000000 0.000000
-0.001445 1.650803 1.047373 0.000000 0.000000 0.000000
-0.000021 1.694424 1.060172 0.000000 0.000000 0.000000
0.139932 1.745187 1.005154 0.000000 0.000000 0.000000
-0.010496 1.662296 1.057735 0.000000 0.000000 0.000000
-0.003201 1.715029 1.061632 0.000000 0.000000 0.000000
-0.011438 1.704702 1.061461 0.000000 0.000000 0.000000
0.117552 1.450254 0.975348 0.000000 0.000000 0.000000
0.002046 1.675785 1.045986 0.000000 0.000000 0.000000
0.405525 1.475591 0.957451 0.000000 0.000000 0.000000
0.066343 1.672371 1.013156 0.000000 0.000000 0.000000
-0.019708 1.675066 1.060966 0.000000 0.000000 0.000000
0.117684 1.748939 1.010688 0.000000 0.000000 0.000000
0.014523 1.715502 1.054369 0.000000 0.000000 0.000000
0.293920 1.683554 0.923882 0.000000 0.000000 0.000000
0.075752 1.498879 1.009779 0.000000 0.000000 0.000000
0.027342 1.719178 1.049345 0.000000 0.000000 0.000000
0.073505 1.732132 1.039462 0.000000 0.000000 0.000000
0.014301 1.720805 1.059084 0.000000 0.000000 0.000000
0.345350 1.414265 0.943229 0.000000 0.000000 0.000000
0.098874 1.484567 0.990651 0.000000 0.000000 0.000000
0.046707 1.707876 1.037224 0.000000 0.000000 0.000000
0.082629 1.720870 1.026764 0.000000 0.000000 0.000000
0.201148 1.455427 0.951274 0.000000 0.000000 0.000000
0.024777 1.640100 1.027832 0.000000 0.000000 0.000000
0.093717 1.476680 0.992548 0.000000 0.000000 0.000000
0.191120 1.736418 0.976016 0.000000 0.000000 0.000000
0.000575 1.735149 1.079952 0.000000 0.000000 0.000000
0.340346 1.424924 0.953576 0.000000 0.000000 0.000000
0.087482 1.722470 1.028181 0.000000 0.000000 0.000000
0.021244 1.717405 1.061417 0.000000 0.000000 0.000000
0.066050 1.707032 1.045506 0.000000 0.000000 0.000000
0.045935 1.740992 1.071682 0.000000 0.000000 0.000000
0.088806 1.489970 0.999589 0.000000 0.000000 0.000000
0.418927 1.472753 0.959391 0.000000 0.000000 0.000000
0.138240 1.717701 0.991564 0.000000 0.000000 0.000000
0.082918 1.485367 1.005711 0.000000 0.000000 0.000000
-0.013061 1.665974 1.064451 0.000000 0.000000 0.000000
0.082292 1.521702 1.009994 0.000000 0.000000 0.000000
0.183331 1.728104 0.975695 0.000000 0.000000 0.000000
0.094028 1.616417 0.997985 0.000000 0.000000 0.000000
0.422408 1.445003 0.971010 0.000000 0.000000 0.000000
0.329825 1.409974 0.948632 0.000000 0.000000 0.000000
0.022812 1.653384 1.026692 0.000000 0.000000 0.000000
0.024889 1.622715 1.029400 0.000000 0.000000 0.000000
0.067689 1.513895 1.013636 0.000000 0.000000 0.000000
0.400031 1.458068 0.964996 0.000000 0.000000 0.000000
0.344954 1.540904 0.937453 0.000000 0.000000 0.000000
0.076060 1.512393 1.006221 0.000000 0.000000 0.000000
0.323511 1.404966 0.948949 0.000000 0.000000 0.000000
0.055940 1.537534 1.033581 0.000000 0.000000 0.000000
0.362317 1.618709 0.912300 0.000000 0.000000 0.000000
0.248775 1.739405 0.951856 0.000000 0.000000 0.000000
0.003033 1.655029 1.063786 0.000000 0.000000 0.000000
-0.005538 1.647336 1.061852 0.000000 0.000000 0.000000
0.347450 1.427577 0.951590 0.000000 0.000000 0.000000
0.114154 1.750879 1.011435 0.000000 0.000000 0.000000
-0.004057 1.674913 1.046377 0.000000 0.000000 0.000000
0.316890 1.541356 0.938354 0.000000 0.000000 0.000000
0.203540 1.433533 0.947576 0.000000 0.000000 0.000000
0.100810 1.728262 1.015857 0.000000 0.000000 0.000000
0.139607 1.443727 0.961234 0.000000 0.000000 0.000000
0.145695 1.412368 0.957388 0.000000 0.000000 0.000000
-0.003536 1.631730 1.063607 0.000000 0.000000 0.000000
0.151955 1.426450 0.956822 0.000000 0.000000 0.000000
0.132488 1.444386 0.966637 0.000000 0.000000 0.000000
0.116160 1.436448 0.970613 0.000000 0.000000 0.000000
0.218970 1.444818 0.949246 0.000000 0.000000 0.000000
0.121057 1.745852 1.009218 0.000000 0.000000 0.000000
-0.003573 1.633997 1.059232 0.000000 0.000000 0.000000
0.139973 1.419197 0.957178 0.000000 0.000000 0.000000
0.357128 1.512074 0.951521 0.000000 0.000000 0.000000
0.129551 1.426207 0.961033 0.000000 0.000000 0.000000
0.333232 1.685515 0.910666 0.000000 0.000000 0.000000
0.148069 1.432092 0.956697 0.000000 0.000000 0.000000
-0.007791 1.676445 1.052906 0.000000 0.000000 0.000000
0.167119 1.427653 0.953236 0.000000 0.000000 0.000000
0.142503 1.416214 0.955568 0.000000 0.000000 0.000000
-0.002052 1.733729 1.079870 0.000000 0.000000 0.000000
0.140963 1.430585 0.958594 0.000000 0.000000 0.000000
0.144863 1.439189 0.963631 0.000000 0.000000 0.000000
0.429047 1.472767 0.955281 0.000000 0.000000 0.000000
-0.007360 1.675590 1.050113 0.000000 0.000000 0.000000
-0.012188 1.649458 1.071155 0.000000 0.000000 0.000000
0.154894 1.746372 1.005184 0.000000 0.000000 0.000000
0.109518 1.732577 1.012580 0.000000 0.000000 0.000000
-0.018681 1.671513 1.053397 0.000000 0.000000 0.000000
0.090090 1.487479 0.998424 0.000000 0.000000 0.000000
0.048594 1.558037 1.028309 0.000000 0.000000 0.000000
0.135169 1.432850 0.963821 0.000000 0.000000 0.000000
0.146923 1.453476 0.961873 0.000000 0.000000 0.000000
0.052051 1.699710 1.027638 0.000000 0.000000 0.000000
0.093280 1.612517 1.003815 0.000000 0.000000 0.000000
0.411731 1.461525 0.961683 0.000000 0.000000 0.000000
0.360715 1.645022 0.903209 0.000000 0.000000 0.000000
0.139577 1.425488 0.960368 0.000000 0.000000 0.000000
0.429243 1.526715 0.935399 0.000000 0.000000 0.000000
0.051841 1.527265 1.025534 0.000000 0.000000 0.000000
0.074012 1.652226 1.006519 0.000000 0.000000 0.000000
0.090263 1.510685 0.998649 0.000000 0.000000 0.000000
0.133443 1.729374 0.997642 0.000000 0.000000 0.000000
0.381760 1.609816 0.910688 0.000000 0.000000 0.000000
0.077026 1.601933 1.001574 0.000000 0.000000 0.000000
0.339058 1.641862 0.919079 0.000000 0.000000 0.000000
0.191293 1.405933 0.956367 0.000000 0.000000 0.000000
0.046114 1.680399 1.022514 0.000000 0.000000 0.000000
0.058969 1.628793 1.009499 0.000000 0.000000 0.000000
0.328541 1.434519 0.952351 0.000000 0.000000 0.000000
0.050483 1.698573 1.029751 0.000000 0.000000 0.000000
0.091049 1.749443 1.035939 0.000000 0.000000 0.000000
0.199643 1.736179 0.969736 0.000000 0.000000 0.000000
0.089680 1.499520 1.004818 0.000000 0.000000 0.000000
0.000608 1.697877 1.050487 0.000000 0.000000 0.000000
0.147474 1.746447 1.004833 0.000000 0.000000 0.000000
0.413709 1.546172 0.931823 0.000000 0.000000 0.000000
0.369024 1.623559 0.910277 0.000000 0.000000 0.000000
0.117593 1.748969 1.008828 0.000000 0.000000 0.000000
-0.017500 1.665837 1.067793 0.000000 0.000000 0.000000
-0.012365 1.684191 1.055258 0.000000 0.000000 0.000000
0.355405 1.650295 0.903483 0.000000 0.000000 0.000000
0.204413 1.468416 0.947781 0.000000 0.000000 0.000000
0.102153 1.510966 0.992819 0.000000 0.000000 0.000000
0.203303 1.398117 0.957110 0.000000 0.000000 0.000000
0.032086 1.722353 1.048329 0.000000 0.000000 0.000000
0.096514 1.579381 1.001609 0.000000 0.000000 0.000000
0.125925 1.447068 0.966977 0.000000 0.000000 0.000000
0.188256 1.429837 0.951664 0.000000 0.000000 0.000000
0.060277 1.527967 1.023736 0.000000 0.000000 0.000000
0.191712 1.394048 0.960254 0.000000 0.000000 0.000000
0.120961 1.753450 1.009369 0.000000 0.000000 0.000000
-0.011564 1.651267 1.065979 0.000000 0.000000 0.000000
0.116540 1.440642 0.969575 0.000000 0.000000 0.000000
0.052907 1.534224 1.026897 0.000000 0.000000 0.000000
-0.013274 1.659969 1.055159 0.000000 0.000000 0.000000
0.291640 1.393310 0.949341 0.000000 0.000000 0.000000
0.080608 1.485899 1.008792 0.000000 0.000000 0.000000
0.069816 1.683325 1.010569 0.000000 0.000000 0.000000
0.426408 1.447795 0.956832 0.000000 0.000000 0.000000
0.076858 1.496518 1.007952 0.000000 0.000000 0.000000
0.163516 1.416697 0.954234 0.000000 0.000000 0.000000
0.432900 1.463400 0.964595 0.000000 0.000000 0.000000
0.315437 1.688419 0.914421 0.000000 0.000000 0.000000
0.326713 1.680443 0.910945 0.000000 0.000000 0.000000
-0.017872 1.667829 1.064050 0.000000 0.000000 0.000000
0.060426 1.511923 1.017402 0.000000 0.000000 0.000000
0.058290 1.513384 1.023456 0.000000 0.000000 0.000000
0.170878 1.752274 1.005307 0.000000 0.000000 0.000000
0.143513 1.749371 1.013238 0.000000 0.000000 0.000000
0.045452 1.701322 1.031609 0.000000 0.000000 0.000000
0.196953 1.398782 0.960414 0.000000 0.000000 0.000000
0.296921 1.695599 0.924444 0.000000 0.000000 0.000000
0.004270 1.677080 1.042178 0.000000 0.000000 0.000000
0.320685 1.700036 0.913924 0.000000 0.000000 0.000000
0.124524 1.735339 1.002676 0.000000 0.000000 0.000000
-0.005518 1.633790 1.065531 0.000000 0.000000 0.000000
-0.012085 1.657875 1.067056 0.000000 0.000000 0.000000
-0.004150 1.691598 1.063721 0.000000 0.000000 0.000000
0.408337 1.438105 0.966453 0.000000 0.000000 0.000000
0.054792 1.528200 1.026463 0.000000 0.000000 0.000000
0.425762 1.457123 0.968326 0.000000 0.000000 0.000000
0.277973 1.428154 0.939744 0.000000 0.000000 0.000000
0.133844 1.735283 0.999303 0.000000 0.000000 0.000000
0.330113 1.657629 0.924191 0.000000 0.000000 0.000000
0.164232 1.731221 0.990039 0.000000 0.000000 0.000000
0.005323 1.711056 1.056243 0.000000 0.000000 0.000000
0.086961 1.742000 1.040744 0.000000 0.000000 0.000000
0.285469 1.691671 0.930690 0.000000 0.000000 0.000000
0.012683 1.698324 1.057606 0.000000 0.000000 0.000000
0.190558 1.400448 0.957797 0.000000 0.000000 0.000000
0.304401 1.683598 0.923064 0.000000 0.000000 0.000000
0.212304 1.453309 0.944765 0.000000 0.000000 0.000000
0.052267 1.541330 1.033252 0.000000 0.000000 0.000000
0.098244 1.457206 0.983351 0.000000 0.000000 0.000000
0.141057 1.742011 1.000105 0.000000 0.000000 0.000000
0.284197 1.462023 0.942751 0.000000 0.000000 0.000000
0.144988 1.735345 1.001428 0.000000 0.000000 0.000000
0.035887 1.567007 1.042266 0.000000 0.000000 0.000000
0.375033 1.409912 0.952758 0.000000 0.000000 0.000000
0.425505 1.454184 0.969624 0.000000 0.000000 0.000000
-0.006610 1.699283 1.055328 0.000000 0.000000 0.000000
0.197906 1.392495 0.957706 0.000000 0.000000 0.000000
0.303701 1.693762 0.921831 0.000000 0.000000 0.000000
0.076010 1.494985 1.010124 0.000000 0.000000 0.000000
0.214190 1.472720 0.946861 0.000000 0.000000 0.000000
0.113284 1.751549 1.011522 0.000000 0.000000 0.000000
-0.017521 1.724001 1.081978 0.000000 0.000000 0.000000
0.089108 1.482698 1.002727 0.000000 0.000000 0.000000
0.158231 1.731797 0.990992 0.000000 0.000000 0.000000
0.162986 1.723584 0.983630 0.000000 0.000000 0.000000
0.207789 1.709777 0.958010 0.000000 0.000000 0.000000
0.170499 1.727110 0.986800 0.000000 0.000000 0.000000
0.197908 1.745667 0.975907 0.000000 0.000000 0.000000
0.181417 1.742358 0.988562 0.000000 0.000000 0.000000
0.069368 1.602264 1.009051 0.000000 0.000000 0.000000
0.164071 1.741567 0.999964 0.000000 0.000000 0.000000
0.334301 1.681589 0.909253 0.000000 0.000000 0.000000
0.228220 1.745004 0.955818 0.000000 0.000000 0.000000
0.162916 1.684817 0.971594 0.000000 0.000000 0.000000
0.055382 1.528164 1.019895 0.000000 0.000000 0.000000
0.113586 1.745213 1.024610 0.000000 0.000000 0.000000
0.152314 1.424762 0.958058 0.000000 0.000000 0.000000
0.145603 1.749908 1.007555 0.000000 0.000000 0.000000
0.092548 1.484539 0.998151 0.000000 0.000000 0.000000
0.289310 1.389420 0.945071 0.000000 0.000000 0.000000
0.170179 1.421766 0.953059 0.000000 0.000000 0.000000
0.295833 1.597219 0.931561 0.000000 0.000000 0.000000
0.272606 1.661121 0.936283 0.000000 0.000000 0.000000
0.323327 1.616029 0.923629 0.000000 0.000000 0.000000
0.248529 1.684820 0.942190 0.000000 0.000000 0.000000
0.027429 1.741061 1.063849 0.000000 0.000000 0.000000
0.076289 1.741044 1.045783 0.000000 0.000000 0.000000
0.106842 1.455883 0.979828 0.000000 0.000000 0.000000
0.246996 1.653224 0.942536 0.000000 0.000000 0.000000
0.272329 1.663064 0.935743 0.000000 0.000000 0.000000
0.239325 1.667298 0.945120 0.000000 0.000000 0.000000
0.261264 1.668703 0.936745 0.000000 0.000000 0.000000
0.290943 1.657474 0.926783 0.000000 0.000000 0.000000
0.315294 1.587974 0.928561 0.000000 0.000000 0.000000
0.322371 1.618178 0.920344 0.000000 0.000000 0.000000
0.329495 1.692121 0.910153 0.000000 0.000000 0.000000
0.287220 1.402867 0.947171 0.000000 0.000000 0.000000
0.024666 1.645553 1.028257 0.000000 0.000000 0.000000
0.039593 1.740727 1.069135 0.000000 0.000000 0.000000
0.051269 1.744074 1.062088 0.000000 0.000000 0.000000
0.308819 1.657216 0.922225 0.000000 0.000000 0.000000
0.324791 1.662742 0.915679 0.000000 0.000000 0.000000
0.357557 1.413714 0.952514 0.000000 0.000000 0.000000
0.213539 1.414383 0.950137 0.000000 0.000000 0.000000
0.385149 1.420673 0.956701 0.000000 0.000000 0.000000
0.093039 1.479055 0.996578 0.000000 0.000000 0.000000
0.320633 1.679493 0.917770 0.000000 0.000000 0.000000
0.363626 1.638242 0.906781 0.000000 0.000000 0.000000
-0.011941 1.647483 1.064579 0.000000 0.000000 0.000000
0.194734 1.529711 0.957587 0.000000 0.000000 0.000000
0.241774 1.420424 0.947380 0.000000 0.000000 0.000000
0.180749 1.402321 0.955365 0.000000 0.000000 0.000000
0.409519 1.559930 0.920138 0.000000 0.000000 0.000000
0.349965 1.651492 0.908284 0.000000 0.000000 0.000000
0.070125 1.494766 1.013269 0.000000 0.000000 0.000000
0.132649 1.531625 0.975646 0.000000 0.000000 0.000000
0.248573 1.409917 0.947978 0.000000 0.000000 0.000000
0.354008 1.403755 0.957201 0.000000 0.000000 0.000000
0.212775 1.411744 0.953033 0.000000 0.000000 0.000000
0.017835 1.618080 1.047277 0.000000 0.000000 0.000000
0.369392 1.633819 0.906037 0.000000 0.000000 0.000000
0.092225 1.489543 0.995120 0.000000 0.000000 0.000000
-0.006358 1.639457 1.063429 0.000000 0.000000 0.000000
-0.002752 1.647552 1.053591 0.000000 0.000000 0.000000
0.069174 1.617093 1.010474 0.000000 0.000000 0.000000
0.343628 1.661607 0.905865 0.000000 0.000000 0.000000
0.009966 1.738844 1.076612 0.000000 0.000000 0.000000
0.024694 1.665852 1.047948 0.000000 0.000000 0.000000
0.256148 1.443138 0.948585 0.000000 0.000000 0.000000
0.198192 1.413928 0.950989 0.000000 0.000000 0.000000
0.168529 1.443411 0.954757 0.000000 0.000000 0.000000
0.356156 1.656066 0.903673 0.000000 0.000000 0.000000
0.009129 1.738759 1.077866 0.000000 0.000000 0.000000
0.225884 1.417048 0.951300 0.000000 0.000000 0.000000
0.027646 1.654962 1.048131 0.000000 0.000000 0.000000
0.233592 1.387946 0.949592 0.000000 0.000000 0.000000
0.315944 1.689960 0.916450 0.000000 0.000000 0.000000
0.000128 1.736262 1.080908 0.000000 0.000000 0.000000
-0.017857 1.733440 1.087279 0.000000 0.000000 0.000000
0.090443 1.498160 0.997051 0.000000 0.000000 0.000000
-0.014197 1.721431 1.076177 0.000000 0.000000 0.000000
0.291448 1.710413 0.928485 0.000000 0.000000 0.000000
0.065630 1.528353 1.018468 0.000000 0.000000 0.000000
0.416845 1.508189 0.943172 0.000000 0.000000 0.000000
-0.008485 1.641839 1.067140 0.000000 0.000000 0.000000
0.119484 1.435212 0.969892 0.000000 0.000000 0.000000
0.434216 1.470612 0.960626 0.000000 0.000000 0.000000
-0.010597 1.691960 1.053288 0.000000 0.000000 0.000000
0.170032 1.421443 0.960296 0.000000 0.000000 0.000000
0.295232 1.696823 0.926512 0.000000 0.000000 0.000000
0.000879 1.688732 1.069344 0.000000 0.000000 0.000000
0.287115 1.408679 0.954156 0.000000 0.000000 0.000000
0.304994 1.408511 0.944525 0.000000 0.000000 0.000000
-0.001612 1.639023 1.052305 0.000000 0.000000 0.000000
0.323042 1.422654 0.949421 0.000000 0.000000 0.000000
0.075128 1.521058 1.005196 0.000000 0.000000 0.000000
0.298604 1.398469 0.944304 0.000000 0.000000 0.000000
0.002935 1.677799 1.058997 0.000000 0.000000 0.000000
0.292952 1.391010 0.947567 0.000000 0.000000 0.000000
0.278676 1.411324 0.946624 0.000000 0.000000 0.000000
0.303239 1.406164 0.947634 0.000000 0.000000 0.000000
0.054373 1.521453 1.024988 0.000000 0.000000 0.000000
0.018540 1.611073 1.044833 0.000000 0.000000 0.000000
0.300044 1.395951 0.945350 0.000000 0.000000 0.000000
0.250202 1.715901 0.942307 0.000000 0.000000 0.000000
0.175514 1.425389 0.952853 0.000000 0.000000 0.000000
0.206087 1.412694 0.952069 0.000000 0.000000 0.000000
0.224505 1.390639 0.948706 0.000000 0.000000 0.000000
0.121764 1.429854 0.964479 0.000000 0.000000 0.000000
0.188425 1.421283 0.951904 0.000000 0.000000 0.000000
0.051973 1.526039 1.027056 0.000000 0.000000 0.000000
0.330132 1.419030 0.950361 0.000000 0.000000 0.000000
0.206055 1.424903 0.950064 0.000000 0.000000 0.000000
0.049825 1.596443 1.019596 0.000000 0.000000 0.000000
0.383286 1.450085 0.960712 0.000000 0.000000 0.000000
0.329823 1.670681 0.912002 0.000000 0.000000 0.000000
0.332306 1.670993 0.909879 0.000000 0.000000 0.000000
0.317451 1.396056 0.945796 0.000000 0.000000 0.000000
0.419633 1.468274 0.953710 0.000000 0.000000 0.000000
0.395447 1.493561 0.953137 0.000000 0.000000 0.000000
0.412494 1.515327 0.942009 0.000000 0.000000 0.000000
0.056563 1.516136 1.019331 0.000000 0.000000 0.000000
0.320879 1.686659 0.912583 0.000000 0.000000 0.000000
0.409536 1.479761 0.958386 0.000000 0.000000 0.000000
0.399100 1.454768 0.963016 0.000000 0.000000 0.000000
0.303783 1.684823 0.919932 0.000000 0.000000 0.000000
0.329701 1.680587 0.911234 0.000000 0.000000 0.000000
0.272467 1.395589 0.946272 0.000000 0.000000 0.000000
0.053949 1.626105 1.016007 0.000000 0.000000 0.000000
0.263594 1.559333 0.935044 0.000000 0.000000 0.000000
0.376348 1.432053 0.965298 0.000000 0.000000 0.000000
0.264932 1.410630 0.946031 0.000000 0.000000 0.000000
0.322929 1.474160 0.949145 0.000000 0.000000 0.000000
0.359738 1.445188 0.951013 0.000000 0.000000 0.000000
0.351734 1.518563 0.948108 0.000000 0.000000 0.000000
0.375810 1.509853 0.939390 0.000000 0.000000 0.000000
0.250360 1.704880 0.943108 0.000000 0.000000 0.000000
0.061442 1.664845 1.025102 0.000000 0.000000 0.000000
0.054605 1.581723 1.016967 0.000000 0.000000 0.000000
0.175592 1.466075 0.954696 0.000000 0.000000 0.000000
0.386227 1.568462 0.925600 0.000000 0.000000 0.000000
0.264526 1.439363 0.943845 0.000000 0.000000 0.000000
0.247446 1.646843 0.947264 0.000000 0.000000 0.000000
0.296461 1.712799 0.929752 0.000000 0.000000 0.000000
0.275556 1.613699 0.939370 0.000000 0.000000 0.000000
0.165206 1.438885 0.954005 0.000000 0.000000 0.000000
0.065313 1.708835 1.025740 0.000000 0.000000 0.000000
0.364364 1.435491 0.957235 0.000000 0.000000 0.000000
0.302735 1.639976 0.929747 0.000000 0.000000 0.000000
-0.010725 1.729843 1.074229 0.000000 0.000000 0.000000
0.215644 1.717299 0.961141 0.000000 0.000000 0.000000
0.049807 1.689228 1.037326 0.000000 0.000000 0.000000
0.015544 1.716695 1.051002 0.000000 0.000000 0.000000
0.039122 1.601160 1.027599 0.000000 0.000000 0.000000
0.246208 1.703116 0.947007 0.000000 0.000000 0.000000
0.301244 1.622459 0.925086 0.000000 0.000000 0.000000
0.281946 1.415505 0.943193 0.000000 0.000000 0.000000
0.317115 1.700748 0.917282 0.000000 0.000000 0.000000
0.261683 1.418638 0.947197 0.000000 0.000000 0.000000
0.376296 1.495754 0.955242 0.000000 0.000000 0.000000
0.114219 1.646549 0.988899 0.000000 0.000000 0.000000
0.362889 1.433138 0.957505 0.000000 0.000000 0.000000
0.299713 1.628256 0.925030 0.000000 0.000000 0.000000
0.322784 1.678404 0.913385 0.000000 0.000000 0.000000
0.344311 1.651546 0.904945 0.000000 0.000000 0.000000
0.293509 1.391939 0.943958 0.000000 0.000000 0.000000
0.389667 1.434714 0.960057 0.000000 0.000000 0.000000
0.247015 1.389751 0.947024 0.000000 0.000000 0.000000
0.188608 1.728742 0.978820 0.000000 0.000000 0.000000
0.388657 1.455368 0.962177 0.000000 0.000000 0.000000
0.201817 1.564008 0.956436 0.000000 0.000000 0.000000
0.308595 1.609122 0.926969 0.000000 0.000000 0.000000
0.347400 1.454233 0.952839 0.000000 0.000000 0.000000
0.075436 1.699292 1.016155 0.000000 0.000000 0.000000
0.390400 1.476462 0.953593 0.000000 0.000000 0.000000
0.197421 1.722866 0.968663 0.000000 0.000000 0.000000
0.313430 1.426777 0.950158 0.000000 0.000000 0.000000
0.167733 1.704416 0.975567 0.000000 0.000000 0.000000
0.332511 1.429448 0.951167 0.000000 0.000000 0.000000
0.355724 1.529705 0.936104 0.000000 0.000000 0.000000
0.272259 1.596355 0.939942 0.000000 0.000000 0.000000
0.319392 1.615411 0.925898 0.000000 0.000000 0.000000
0.070777 1.745231 1.051837 0.000000 0.000000 0.000000
0.376836 1.528446 0.941524 0.000000 0.000000 0.000000
0.225410 1.670103 0.951476 0.000000 0.000000 0.000000
0.252353 1.635464 0.947285 0.000000 0.000000 0.000000
0.310148 1.398957 0.946982 0.000000 0.000000 0.000000
0.217945 1.671437 0.952365 0.000000 0.000000 0.000000
0.322247 1.682149 0.913319 0.000000 0.000000 0.000000
0.125594 1.613016 0.980061 0.000000 0.000000 0.000000
0.093010 1.697848 1.003581 0.000000 0.000000 0.000000
0.300506 1.583459 0.930460 0.000000 0.000000 0.000000
0.414267 1.486350 0.952555 0.000000 0.000000 0.000000
0.197532 1.727096 0.967946 0.000000 0.000000 0.000000
0.061893 1.624979 1.011605 0.000000 0.000000 0.000000
0.069272 1.585140 1.005039 0.000000 0.000000 0.000000
0.411505 1.543352 0.930723 0.000000 0.000000 0.000000
0.421370 1.463145 0.965070 0.000000 0.000000 0.000000
0.316951 1.471213 0.953346 0.000000 0.000000 0.000000
0.039175 1.563443 1.040892 0.000000 0.000000 0.000000
0.330706 1.394980 0.948087 0.000000 0.000000 0.000000
0.150302 1.617929 0.971257 0.000000 0.000000 0.000000
0.402502 1.473754 0.958964 0.000000 0.000000 0.000000
0.380351 1.444055 0.961686 0.000000 0.000000 0.000000
0.047605 1.526082 1.036658 0.000000 0.000000 0.000000
0.292106 1.388675 0.946554 0.000000 0.000000 0.000000
0.073902 1.591659 1.005624 0.000000 0.000000 0.000000
0.296917 1.592780 0.935642 0.000000 0.000000 0.000000
0.256208 1.680218 0.937602 0.000000 0.000000 0.000000
0.317753 1.680399 0.914733 0.000000 0.000000 0.000000
0.397932 1.570571 0.923454 0.000000 0.000000 0.000000
0.045005 1.544253 1.036171 0.000000 0.000000 0.000000
-0.011128 1.667568 1.063546 0.000000 0.000000 0.000000
0.268961 1.547538 0.949167 0.000000 0.000000 0.000000
0.242311 1.522290 0.950971 0.000000 0.000000 0.000000
0.370310 1.455114 0.960642 0.000000 0.000000 0.000000
0.257771 1.427284 0.948070 0.000000 0.000000 0.000000
0.342959 1.660913 0.907000 0.000000 0.000000 0.000000
0.265119 1.401081 0.944692 0.000000 0.000000 0.000000
0.361272 1.450670 0.954242 0.000000 0.000000 0.000000
0.083144 1.662964 1.005362 0.000000 0.000000 0.000000
0.202962 1.716259 0.965636 0.000000 0.000000 0.000000
0.332415 1.439448 0.947764 0.000000 0.000000 0.000000
0.227292 1.561200 0.958444 0.000000 0.000000 0.000000
0.076056 1.577784 1.003874 0.000000 0.000000 0.000000
0.144838 1.548128 0.966699 0.000000 0.000000 0.000000
0.252758 1.418889 0.947800 0.000000 0.000000 0.000000
0.395030 1.576414 0.923658 0.000000 0.000000 0.000000
0.249611 1.456991 0.939290 0.000000 0.000000 0.000000
0.335226 1.438371 0.949796 0.000000 0.000000 0.000000
0.224278 1.679680 0.953262 0.000000 0.000000 0.000000
0.179475 1.454789 0.951775 0.000000 0.000000 0.000000
0.099423 1.684015 1.005839 0.000000 0.000000 0.000000
0.286976 1.433226 0.948122 0.000000 0.000000 0.000000
0.287872 1.585941 0.940658 0.000000 0.000000 0.000000
-0.012939 1.736904 1.086380 0.000000 0.000000 0.000000
0.211298 1.729672 0.960250 0.000000 0.000000 0.000000
0.067408 1.703395 1.031415 0.000000 0.000000 0.000000
0.040362 1.580873 1.030502 0.000000 0.000000 0.000000
0.050608 1.596358 1.019049 0.000000 0.000000 0.000000
0.242900 1.689936 0.944493 0.000000 0.000000 0.000000
0.316322 1.454515 0.945617 0.000000 0.000000 0.000000
0.371766 1.528644 0.937774 0.000000 0.000000 0.000000
0.254347 1.456115 0.945532 0.000000 0.000000 0.000000
0.350657 1.528327 0.939732 0.000000 0.000000 0.000000
0.112527 1.613952 0.987166 0.000000 0.000000 0.000000
0.338642 1.433327 0.951561 0.000000 0.000000 0.000000
0.329822 1.676519 0.914203 0.000000 0.000000 0.000000
0.102981 1.579913 0.985271 0.000000 0.000000 0.000000
-0.003278 1.729956 1.076803 0.000000 0.000000 0.000000
0.351664 1.656536 0.906564 0.000000 0.000000 0.000000
0.333904 1.684012 0.909350 0.000000 0.000000 0.000000
0.263510 1.421513 0.948011 0.000000 0.000000 0.000000
0.335259 1.672128 0.909359 0.000000 0.000000 0.000000
0.331805 1.645479 0.919261 0.000000 0.000000 0.000000
0.401156 1.455203 0.963696 0.000000 0.000000 0.000000
0.364411 1.464016 0.954158 0.000000 0.000000 0.000000
0.288574 1.478065 0.932850 0.000000 0.000000 0.000000
0.202578 1.740918 0.972422 0.000000 0.000000 0.000000
0.372886 1.548300 0.935685 0.000000 0.000000 0.000000
0.162105 1.591128 0.968666 0.000000 0.000000 0.000000
0.316858 1.500272 0.950956 0.000000 0.000000 0.000000
0.053696 1.703715 1.024730 0.000000 0.000000 0.000000
0.384433 1.465443 0.947154 0.000000 0.000000 0.000000
0.058945 1.683281 1.017258 0.000000 0.000000 0.000000
0.030806 1.733460 1.056045 0.000000 0.000000 0.000000
0.083883 1.669628 1.000337 0.000000 0.000000 0.000000
0.331222 1.412661 0.950475 0.000000 0.000000 0.000000
0.226106 1.700120 0.954647 0.000000 0.000000 0.000000
0.204851 1.626376 0.953033 0.000000 0.000000 0.000000
0.332357 1.575180 0.934648 0.000000 0.000000 0.000000
0.355243 1.568697 0.927750 0.000000 0.000000 0.000000
0.270899 1.393817 0.944865 0.000000 0.000000 0.000000
0.236217 1.680023 0.951709 0.000000 0.000000 0.000000
0.284082 1.427523 0.948646 0.000000 0.000000 0.000000
0.248908 1.535578 0.947092 0.000000 0.000000 0.000000
0.110546 1.632263 0.992716 0.000000 0.000000 0.000000
0.292225 1.698798 0.928920 0.000000 0.000000 0.000000
0.116139 1.521454 0.975433 0.000000 0.000000 0.000000
0.239398 1.593675 0.946249 0.000000 0.000000 0.000000
0.181474 1.715800 0.975156 0.000000 0.000000 0.000000
0.399572 1.490889 0.960745 0.000000 0.000000 0.000000
0.213866 1.690324 0.957317 0.000000 0.000000 0.000000
0.408621 1.534263 0.934621 0.000000 0.000000 0.000000
0.416759 1.465137 0.963466 0.000000 0.000000 0.000000
0.089088 1.731220 1.051551 0.000000 0.000000 0.000000
0.041138 1.613697 1.021951 0.000000 0.000000 0.000000
0.304331 1.394566 0.947043 0.000000 0.000000 0.000000
0.130323 1.643916 0.980243 0.000000 0.000000 0.000000
0.348451 1.432949 0.951662 0.000000 0.000000 0.000000
0.378588 1.592548 0.920874 0.000000 0.000000 0.000000
0.319574 1.671040 0.912571 0.000000 0.000000 0.000000
0.274733 1.399364 0.946540 0.000000 0.000000 0.000000
0.081185 1.615009 1.004013 0.000000 0.000000 0.000000
0.307374 1.660766 0.926826 0.000000 0.000000 0.000000
0.323497 1.587126 0.929294 0.000000 0.000000 0.000000
0.290136 1.626085 0.930757 0.000000 0.000000 0.000000
0.400477 1.561177 0.925071 0.000000 0.000000 0.000000
0.050834 1.725279 1.043494 0.000000 0.000000 0.000000
0.061056 1.744774 1.049196 0.000000 0.000000 0.000000
0.080321 1.507451 1.007054 0.000000 0.000000 0.000000
-0.002976 1.659542 1.053407 0.000000 0.000000 0.000000
0.328004 1.530855 0.944385 0.000000 0.000000 0.000000
0.009965 1.638069 1.042200 0.000000 0.000000 0.000000
0.286190 1.389050 0.945563 0.000000 0.000000 0.000000
0.371006 1.424122 0.965509 0.000000 0.000000 0.000000
0.009620 1.606001 1.056913 0.000000 0.000000 0.000000
0.112310 1.736852 1.017045 0.000000 0.000000 0.000000
0.128201 1.424195 0.962550 0.000000 0.000000 0.000000
0.086619 1.495802 1.004096 0.000000 0.000000 0.000000
0.076055 1.494687 1.010576 0.000000 0.000000 0.000000
0.062261 1.599151 1.010714 0.000000 0.000000 0.000000
0.133411 1.517125 0.969755 0.000000 0.000000 0.000000
0.407116 1.468712 0.956479 0.000000 0.000000 0.000000
0.200014 1.644870 0.960173 0.000000 0.000000 0.000000
0.265544 1.428936 0.946298 0.000000 0.000000 0.000000
0.043830 1.535194 1.044430 0.000000 0.000000 0.000000
0.388731 1.419289 0.956170 0.000000 0.000000 0.000000
0.416331 1.464821 0.961609 0.000000 0.000000 0.000000
0.108760 1.445698 0.973282 0.000000 0.000000 0.000000
0.317073 1.692266 0.913165 0.000000 0.000000 0.000000
0.218126 1.433907 0.948445 0.000000 0.000000 0.000000
0.162609 1.591867 0.968814 0.000000 0.000000 0.000000
0.349972 1.452958 0.953580 0.000000 0.000000 0.000000
0.205220 1.595767 0.958785 0.000000 0.000000 0.000000
0.104260 1.722311 1.013046 0.000000 0.000000 0.000000
0.249620 1.620494 0.947381 0.000000 0.000000 0.000000
0.022500 1.601924 1.042211 0.000000 0.000000 0.000000
0.105373 1.564853 0.989322 0.000000 0.000000 0.000000
0.329910 1.686804 0.911733 0.000000 0.000000 0.000000
0.280769 1.390239 0.945449 0.000000 0.000000 0.000000
0.349426 1.490207 0.954530 0.000000 0.000000 0.000000
0.420677 1.452361 0.969670 0.000000 0.000000 0.000000
0.320229 1.441980 0.951209 0.000000 0.000000 0.000000
0.322663 1.573848 0.927127 0.000000 0.000000 0.000000
0.259270 1.666601 0.941230 0.000000 0.000000 0.000000
0.265289 1.569090 0.944143 0.000000 0.000000 0.000000
0.226155 1.711712 0.955853 0.000000 0.000000 0.000000
0.172640 1.676570 0.967849 0.000000 0.000000 0.000000
0.217079 1.525808 0.951591 0.000000 0.000000 0.000000
0.023798 1.597931 1.058531 0.000000 0.000000 0.000000
0.340297 1.414258 0.951638 0.000000 0.000000 0.000000
0.397396 1.471316 0.957768 0.000000 0.000000 0.000000
0.100937 1.456522 0.980595 0.000000 0.000000 0.000000
0.223791 1.434937 0.947606 0.000000 0.000000 0.000000
0.386600 1.413313 0.958034 0.000000 0.000000 0.000000
0.012803 1.627956 1.046688 0.000000 0.000000 0.000000
0.332054 1.694942 0.908874 0.000000 0.000000 0.000000
0.004817 1.641763 1.054684 0.000000 0.000000 0.000000
0.371465 1.418914 0.961528 0.000000 0.000000 0.000000
0.037267 1.562418 1.040502 0.000000 0.000000 0.000000
0.400871 1.549160 0.925816 0.000000 0.000000 0.000000
0.074369 1.649143 1.005119 0.000000 0.000000 0.000000
0.325730 1.618489 0.922411 0.000000 0.000000 0.000000
0.370901 1.428233 0.956416 0.000000 0.000000 0.000000
0.164831 1.717046 0.992866 0.000000 0.000000 0.000000
0.238328 1.701311 0.948568 0.000000 0.000000 0.000000
0.232523 1.747266 0.955822 0.000000 0.000000 0.000000
0.330481 1.670699 0.912074 0.000000 0.000000 0.000000
0.243267 1.742591 0.950407 0.000000 0.000000 0.000000
0.123866 1.752069 1.012902 0.000000 0.000000 0.000000
0.420216 1.445023 0.967524 0.000000 0.000000 0.000000
0.335392 1.682959 0.910648 0.000000 0.000000 0.000000
0.314879 1.668890 0.918764 0.000000 0.000000 0.000000
0.266815 1.483348 0.946451 0.000000 0.000000 0.000000
0.124494 1.444421 0.964885 0.000000 0.000000 0.000000
0.344477 1.640494 0.910001 0.000000 0.000000 0.000000
0.006688 1.628113 1.056421 0.000000 0.000000 0.000000
0.139743 1.696461 0.988591 0.000000 0.000000 0.000000
0.422627 1.493461 0.955385 0.000000 0.000000 0.000000
0.158024 1.745417 1.004812 0.000000 0.000000 0.000000
-0.008603 1.666470 1.048467 0.000000 0.000000 0.000000
0.265701 1.389116 0.946433 0.000000 0.000000 0.000000
0.009732 1.611468 1.055102 0.000000 0.000000 0.000000
0.264241 1.429454 0.946050 0.000000 0.000000 0.000000
0.248817 1.412933 0.950470 0.000000 0.000000 0.000000
0.109631 1.753583 1.022561 0.000000 0.000000 0.000000
0.237962 1.539490 0.953541 0.000000 0.000000 0.000000
0.429155 1.459451 0.964987 0.000000 0.000000 0.000000
0.309119 1.651916 0.919240 0.000000 0.000000 0.000000
0.062996 1.502844 1.019330 0.000000 0.000000 0.000000
0.128247 1.441464 0.964699 0.000000 0.000000 0.000000
0.278783 1.648944 0.930098 0.000000 0.000000 0.000000
-0.005873 1.640869 1.064298 0.000000 0.000000 0.000000
0.007747 1.688213 1.042006 0.000000 0.000000 0.000000
0.000498 1.688621 1.045441 0.000000 0.000000 0.000000
0.149931 1.746489 1.006272 0.000000 0.000000 0.000000
-0.001808 1.662854 1.042639 0.000000 0.000000 0.000000
0.314258 1.680795 0.918411 0.000000 0.000000 0.000000
0.005104 1.633306 1.050099 0.000000 0.000000 0.000000
-0.006140 1.646619 1.058825 0.000000 0.000000 0.000000
0.310309 1.406798 0.946373 0.000000 0.000000 0.000000
0.289705 1.405345 0.946990 0.000000 0.000000 0.000000
0.111851 1.755969 1.022099 0.000000 0.000000 0.000000
-0.013567 1.693668 1.054031 0.000000 0.000000 0.000000
-0.022842 1.677080 1.062119 0.000000 0.000000 0.000000
0.280866 1.691275 0.928268 0.000000 0.000000 0.000000
0.300064 1.389577 0.944878 0.000000 0.000000 0.000000
0.298648 1.697050 0.923158 0.000000 0.000000 0.000000
0.203226 1.737049 0.962202 0.000000 0.000000 0.000000
0.076056 1.506119 1.010614 0.000000 0.000000 0.000000
0.048539 1.543977 1.037692 0.000000 0.000000 0.000000
0.291605 1.698009 0.924372 0.000000 0.000000 0.000000
0.300431 1.698803 0.921299 0.000000 0.000000 0.000000
0.315229 1.695525 0.915145 0.000000 0.000000 0.000000
0.403344 1.445074 0.967770 0.000000 0.000000 0.000000
0.270545 1.414625 0.944519 0.000000 0.000000 0.000000
0.282729 1.712867 0.936148 0.000000 0.000000 0.000000
0.042108 1.742815 1.057899 0.000000 0.000000 0.000000
0.028449 1.738670 1.061824 0.000000 0.000000 0.000000
0.078084 1.489029 1.008429 0.000000 0.000000 0.000000
0.243868 1.393517 0.945272 0.000000 0.000000 0.000000
0.295059 1.691365 0.927014 0.000000 0.000000 0.000000
0.072439 1.749575 1.051222 0.000000 0.000000 0.000000
0.067631 1.539150 1.020165 0.000000 0.000000 0.000000
0.070261 1.556566 1.019133 0.000000 0.000000 0.000000
0.303882 1.710446 0.924913 0.000000 0.000000 0.000000
-0.001743 1.708467 1.057039 0.000000 0.000000 0.000000
0.071815 1.493731 1.012733 0.000000 0.000000 0.000000
0.301492 1.701999 0.922621 0.000000 0.000000 0.000000
0.306634 1.686497 0.921348 0.000000 0.000000 0.000000
0.045548 1.654991 1.017192 0.000000 0.000000 0.000000
0.391667 1.543522 0.934124 0.000000 0.000000 0.000000
0.051860 1.534989 1.025126 0.000000 0.000000 0.000000
0.307564 1.696149 0.918371 0.000000 0.000000 0.000000
0.323354 1.677287 0.914075 0.000000 0.000000 0.000000
0.107230 1.738712 1.020265 0.000000 0.000000 0.000000
0.294042 1.714494 0.928512 0.000000 0.000000 0.000000
0.190570 1.748864 0.984382 0.000000 0.000000 0.000000
0.422695 1.488391 0.949591 0.000000 0.000000 0.000000
0.350396 1.536304 0.933033 0.000000 0.000000 0.000000
0.065577 1.501773 1.017574 0.000000 0.000000 0.000000
0.201255 1.634005 0.960923 0.000000 0.000000 0.000000
0.402061 1.591081 0.922417 0.000000 0.000000 0.000000
0.126527 1.743235 1.010221 0.000000 0.000000 0.000000
0.126637 1.733552 1.004600 0.000000 0.000000 0.000000
0.337150 1.419739 0.951082 0.000000 0.000000 0.000000
0.368696 1.529835 0.931809 0.000000 0.000000 0.000000
0.070239 1.498536 1.013717 0.000000 0.000000 0.000000
0.428706 1.448005 0.967325 0.000000 0.000000 0.000000
-0.020657 1.721822 1.079164 0.000000 0.000000 0.000000
-0.003658 1.721206 1.074065 0.000000 0.000000 0.000000
0.342150 1.665777 0.906081 0.000000 0.000000 0.000000
-0.015125 1.727993 1.082753 0.000000 0.000000 0.000000
0.313536 1.703726 0.918197 0.000000 0.000000 0.000000
0.092539 1.480121 1.000456 0.000000 0.000000 0.000000
0.328115 1.682063 0.909317 0.000000 0.000000 0.000000
0.079232 1.484045 1.010283 0.000000 0.000000 0.000000
0.242592 1.387908 0.947437 0.000000 0.000000 0.000000
0.072544 1.494385 1.013124 0.000000 0.000000 0.000000
0.346772 1.399510 0.950068 0.000000 0.000000 0.000000
0.135303 1.750560 1.016860 0.000000 0.000000 0.000000
0.030525 1.649992 1.042991 0.000000 0.000000 0.000000
0.224705 1.409157 0.951792 0.000000 0.000000 0.000000
0.156749 1.739085 0.998083 0.000000 0.000000 0.000000
0.373457 1.611806 0.914809 0.000000 0.000000 0.000000
0.128883 1.428474 0.960302 0.000000 0.000000 0.000000
0.045615 1.538686 1.039694 0.000000 0.000000 0.000000
0.387656 1.617857 0.911316 0.000000 0.000000 0.000000
0.378249 1.624493 0.906753 0.000000 0.000000 0.000000
0.163008 1.736772 0.995938 0.000000 0.000000 0.000000
0.083626 1.493603 1.007452 0.000000 0.000000 0.000000
0.176925 1.414217 0.958422 0.000000 0.000000 0.000000
0.138277 1.748292 1.015685 0.000000 0.000000 0.000000
0.360396 1.426168 0.964920 0.000000 0.000000 0.000000
0.404790 1.539806 0.932551 0.000000 0.000000 0.000000
0.410662 1.532016 0.936070 0.000000 0.000000 0.000000
0.393919 1.561086 0.925176 0.000000 0.000000 0.000000
0.141554 1.742478 1.003230 0.000000 0.000000 0.000000
0.038584 1.695586 1.037072 0.000000 0.000000 0.000000
0.238925 1.390806 0.947705 0.000000 0.000000 0.000000
0.143903 1.735656 0.996798 0.000000 0.000000 0.000000
0.378125 1.618585 0.907809 0.000000 0.000000 0.000000
0.330377 1.679925 0.909563 0.000000 0.000000 0.000000
0.030205 1.667212 1.025098 0.000000 0.000000 0.000000
0.388549 1.610358 0.912271 0.000000 0.000000 0.000000
0.038307 1.545270 1.050538 0.000000 0.000000 0.000000
0.376294 1.619519 0.909046 0.000000 0.000000 0.000000
0.172007 1.731651 0.988874 0.000000 0.000000 0.000000
0.078929 1.518481 1.014587 0.000000 0.000000 0.000000
0.406627 1.547543 0.928235 0.000000 0.000000 0.000000
0.357136 1.460495 0.960929 0.000000 0.000000 0.000000
0.399842 1.536500 0.924024 0.000000 0.000000 0.000000
0.013551 1.602315 1.049626 0.000000 0.000000 0.000000
0.405422 1.532301 0.937470 0.000000 0.000000 0.000000
0.132500 1.750578 1.006088 0.000000 0.000000 0.000000
-0.020491 1.725585 1.087759 0.000000 0.000000 0.000000
0.078282 1.494325 1.009597 0.000000 0.000000 0.000000
0.059884 1.504679 1.021012 0.000000 0.000000 0.000000
0.084866 1.489824 1.006889 0.000000 0.000000 0.000000
0.426641 1.442037 0.976741 0.000000 0.000000 0.000000
0.238942 1.391260 0.949660 0.000000 0.000000 0.000000
0.017486 1.739502 1.079813 0.000000 0.000000 0.000000
0.167969 1.745650 1.005276 0.000000 0.000000 0.000000
0.035859 1.558621 1.055192 0.000000 0.000000 0.000000
0.406755 1.478847 0.954418 0.000000 0.000000 0.000000
0.045861 1.560712 1.036480 0.000000 0.000000 0.000000
0.069565 1.512970 1.004333 0.000000 0.000000 0.000000
0.292061 1.714235 0.934817 0.000000 0.000000 0.000000
0.162967 1.421225 0.957387 0.000000 0.000000 0.000000
0.062415 1.530135 1.016983 0.000000 0.000000 0.000000
0.080214 1.528845 1.009618 0.000000 0.000000 0.000000
0.175338 1.736192 0.994454 0.000000 0.000000 0.000000
0.226986 1.741924 0.964006 0.000000 0.000000 0.000000
-0.020473 1.697544 1.055382 0.000000 0.000000 0.000000
0.272389 1.716089 0.944848 0.000000 0.000000 0.000000
0.132200 1.444551 0.960358 0.000000 0.000000 0.000000
0.130209 1.742093 1.003178 0.000000 0.000000 0.000000
0.205640 1.744985 0.972547 0.000000 0.000000 0.000000
0.151972 1.740570 1.000731 0.000000 0.000000 0.000000
0.115233 1.449191 0.969301 0.000000 0.000000 0.000000
0.126059 1.444433 0.967254 0.000000 0.000000 0.000000
0.218136 1.714072 0.956727 0.000000 0.000000 0.000000
0.411896 1.558514 0.923216 0.000000 0.000000 0.000000
0.114965 1.443942 0.974636 0.000000 0.000000 0.000000
0.033173 1.575225 1.049152 0.000000 0.000000 0.000000
0.222093 1.395897 0.955475 0.000000 0.000000 0.000000
-0.003292 1.698151 1.050626 0.000000 0.000000 0.000000
0.260133 1.714319 0.946454 0.000000 0.000000 0.000000
0.127286 1.449107 0.963974 0.000000 0.000000 0.000000
0.144848 1.432583 0.955987 0.000000 0.000000 0.000000
0.389322 1.576798 0.921872 0.000000 0.000000 0.000000
0.162895 1.743630 1.002493 0.000000 0.000000 0.000000
0.268487 1.715901 0.940162 0.000000 0.000000 0.000000
0.121900 1.435216 0.965434 0.000000 0.000000 0.000000
0.365813 1.559544 0.923520 0.000000 0.000000 0.000000
0.030114 1.586707 1.045662 0.000000 0.000000 0.000000
0.175627 1.410972 0.957112 0.000000 0.000000 0.000000
0.257822 1.712986 0.940055 0.000000 0.000000 0.000000
0.063700 1.500790 1.017417 0.000000 0.000000 0.000000
0.128287 1.447120 0.968185 0.000000 0.000000 0.000000
0.002514 1.625300 1.053231 0.000000 0.000000 0.000000
0.328259 1.398880 0.950329 0.000000 0.000000 0.000000
0.248253 1.410035 0.948242 0.000000 0.000000 0.000000
0.112142 1.726689 1.013168 0.000000 0.000000 0.000000
0.195241 1.688351 0.961415 0.000000 0.000000 0.000000
0.010480 1.662790 1.037905 0.000000 0.000000 0.000000
0.384619 1.596028 0.913903 0.000000 0.000000 0.000000
0.196620 1.493455 0.952745 0.000000 0.000000 0.000000
0.397226 1.593895 0.914118 0.000000 0.000000 0.000000
0.183163 1.738949 0.985353 0.000000 0.000000 0.000000
