ply
format ascii 1.0
comment VCGLIB generated
obj_info Generated by SPFormer!
element vertex 884
property float x
property float y
property float z
property float nx
property float ny
property float nz
end_header
1.186350 1.786460 1.599039 0.000000 0.000000 0.000000
1.217951 1.673573 1.421913 0.000000 0.000000 0.000000
1.232651 1.696296 1.481299 0.000000 0.000000 0.000000
1.223509 1.752754 1.578575 0.000000 0.000000 0.000000
1.221465 1.760926 1.593827 0.000000 0.000000 0.000000
1.233477 1.693617 1.480671 0.000000 0.000000 0.000000
1.187106 1.792816 1.601240 0.000000 0.000000 0.000000
1.196265 1.780111 1.593076 0.000000 0.000000 0.000000
1.216326 1.671910 1.407055 0.000000 0.000000 0.000000
1.215869 1.674533 1.421497 0.000000 0.000000 0.000000
1.184887 1.788113 1.598781 0.000000 0.000000 0.000000
1.129199 1.567578 1.276596 0.000000 0.000000 0.000000
1.125270 1.564140 1.276506 0.000000 0.000000 0.000000
1.212636 1.668752 1.402088 0.000000 0.000000 0.000000
1.188582 1.671599 1.406798 0.000000 0.000000 0.000000
1.216744 1.676849 1.441986 0.000000 0.000000 0.000000
1.209819 1.768239 1.590962 0.000000 0.000000 0.000000
1.194030 1.668110 1.399926 0.000000 0.000000 0.000000
1.211814 1.672586 1.409481 0.000000 0.000000 0.000000
1.214011 1.672727 1.420284 0.000000 0.000000 0.000000
1.227933 1.699700 1.483614 0.000000 0.000000 0.000000
1.202357 1.666552 1.398840 0.000000 0.000000 0.000000
1.202665 1.678265 1.424746 0.000000 0.000000 0.000000
1.098772 1.680945 1.475654 0.000000 0.000000 0.000000
1.202735 1.662623 1.386722 0.000000 0.000000 0.000000
1.216610 1.672948 1.419977 0.000000 0.000000 0.000000
1.211222 1.673164 1.422840 0.000000 0.000000 0.000000
1.131477 1.570510 1.277083 0.000000 0.000000 0.000000
1.137191 1.578785 1.282013 0.000000 0.000000 0.000000
1.197211 1.673828 1.411285 0.000000 0.000000 0.000000
1.175303 1.677264 1.417353 0.000000 0.000000 0.000000
1.204618 1.756130 1.574681 0.000000 0.000000 0.000000
1.201761 1.672097 1.408276 0.000000 0.000000 0.000000
1.196536 1.678227 1.424039 0.000000 0.000000 0.000000
1.210659 1.674992 1.421165 0.000000 0.000000 0.000000
1.229855 1.712437 1.494525 0.000000 0.000000 0.000000
1.214445 1.671672 1.413711 0.000000 0.000000 0.000000
1.235224 1.696071 1.482283 0.000000 0.000000 0.000000
1.174819 1.683248 1.426770 0.000000 0.000000 0.000000
1.074855 1.648995 1.448734 0.000000 0.000000 0.000000
1.216419 1.673202 1.411176 0.000000 0.000000 0.000000
1.215662 1.671211 1.419363 0.000000 0.000000 0.000000
1.205569 1.669631 1.407407 0.000000 0.000000 0.000000
1.129452 1.569169 1.276887 0.000000 0.000000 0.000000
1.131653 1.571992 1.278901 0.000000 0.000000 0.000000
1.169643 1.637020 1.336556 0.000000 0.000000 0.000000
0.945332 1.630755 1.533860 0.000000 0.000000 0.000000
1.153374 1.771205 1.579293 0.000000 0.000000 0.000000
0.898774 1.610459 1.515031 0.000000 0.000000 0.000000
0.954561 1.635851 1.548274 0.000000 0.000000 0.000000
0.958869 1.638656 1.549299 0.000000 0.000000 0.000000
1.174147 1.636431 1.334596 0.000000 0.000000 0.000000
1.126413 1.565298 1.274281 0.000000 0.000000 0.000000
0.975751 1.644693 1.555206 0.000000 0.000000 0.000000
0.987109 1.652781 1.557679 0.000000 0.000000 0.000000
1.117658 1.556218 1.266785 0.000000 0.000000 0.000000
1.144633 1.774219 1.597659 0.000000 0.000000 0.000000
0.944374 1.634911 1.544643 0.000000 0.000000 0.000000
1.143909 1.744354 1.543432 0.000000 0.000000 0.000000
0.896926 1.605454 1.507628 0.000000 0.000000 0.000000
0.957874 1.636351 1.551261 0.000000 0.000000 0.000000
0.949358 1.635801 1.544677 0.000000 0.000000 0.000000
1.180334 1.638266 1.335646 0.000000 0.000000 0.000000
0.980341 1.645594 1.555781 0.000000 0.000000 0.000000
0.976788 1.646555 1.556850 0.000000 0.000000 0.000000
0.945373 1.631711 1.541558 0.000000 0.000000 0.000000
1.113992 1.548507 1.265870 0.000000 0.000000 0.000000
1.222633 1.676797 1.421865 0.000000 0.000000 0.000000
1.185045 1.642748 1.336648 0.000000 0.000000 0.000000
1.172809 1.630898 1.329085 0.000000 0.000000 0.000000
1.190512 1.639304 1.334785 0.000000 0.000000 0.000000
1.178461 1.640280 1.334355 0.000000 0.000000 0.000000
1.181503 1.640600 1.336650 0.000000 0.000000 0.000000
1.210384 1.696504 1.463230 0.000000 0.000000 0.000000
1.177330 1.635971 1.328857 0.000000 0.000000 0.000000
1.223347 1.682111 1.456726 0.000000 0.000000 0.000000
1.174127 1.628924 1.326017 0.000000 0.000000 0.000000
1.177507 1.634337 1.328171 0.000000 0.000000 0.000000
1.182421 1.699734 1.463009 0.000000 0.000000 0.000000
1.183421 1.693762 1.446486 0.000000 0.000000 0.000000
1.196380 1.694304 1.457172 0.000000 0.000000 0.000000
1.159748 1.644300 1.362674 0.000000 0.000000 0.000000
1.198972 1.713781 1.489645 0.000000 0.000000 0.000000
1.182551 1.698302 1.454214 0.000000 0.000000 0.000000
1.184327 1.679882 1.420872 0.000000 0.000000 0.000000
1.164270 1.637193 1.344892 0.000000 0.000000 0.000000
1.208737 1.692284 1.464277 0.000000 0.000000 0.000000
1.176305 1.696341 1.455690 0.000000 0.000000 0.000000
1.177386 1.637699 1.324127 0.000000 0.000000 0.000000
1.205883 1.686481 1.462463 0.000000 0.000000 0.000000
1.208112 1.689894 1.455154 0.000000 0.000000 0.000000
1.195672 1.688779 1.440789 0.000000 0.000000 0.000000
1.196382 1.689862 1.445014 0.000000 0.000000 0.000000
0.912749 1.612615 1.515282 0.000000 0.000000 0.000000
1.180546 1.694119 1.457783 0.000000 0.000000 0.000000
1.177075 1.691595 1.442896 0.000000 0.000000 0.000000
1.169443 1.695871 1.448644 0.000000 0.000000 0.000000
1.161345 1.638554 1.354295 0.000000 0.000000 0.000000
1.165721 1.617920 1.318325 0.000000 0.000000 0.000000
1.196067 1.705210 1.483412 0.000000 0.000000 0.000000
1.161498 1.615944 1.318944 0.000000 0.000000 0.000000
1.190572 1.702485 1.468205 0.000000 0.000000 0.000000
1.158682 1.707446 1.468073 0.000000 0.000000 0.000000
1.164002 1.736385 1.520336 0.000000 0.000000 0.000000
1.197501 1.716399 1.490843 0.000000 0.000000 0.000000
1.155399 1.684816 1.437232 0.000000 0.000000 0.000000
1.164179 1.635565 1.340658 0.000000 0.000000 0.000000
1.190209 1.703402 1.475399 0.000000 0.000000 0.000000
1.173414 1.696659 1.460166 0.000000 0.000000 0.000000
1.172810 1.626479 1.320465 0.000000 0.000000 0.000000
1.189620 1.698197 1.463636 0.000000 0.000000 0.000000
1.203756 1.685598 1.446369 0.000000 0.000000 0.000000
1.202045 1.691870 1.453993 0.000000 0.000000 0.000000
1.191455 1.694346 1.448611 0.000000 0.000000 0.000000
0.921282 1.623672 1.529713 0.000000 0.000000 0.000000
1.148314 1.593176 1.295734 0.000000 0.000000 0.000000
1.150584 1.593867 1.294649 0.000000 0.000000 0.000000
1.153382 1.594307 1.291022 0.000000 0.000000 0.000000
1.149904 1.596034 1.298887 0.000000 0.000000 0.000000
1.233785 1.715782 1.496818 0.000000 0.000000 0.000000
1.144265 1.588562 1.290419 0.000000 0.000000 0.000000
1.149546 1.586106 1.284039 0.000000 0.000000 0.000000
1.145267 1.592924 1.301818 0.000000 0.000000 0.000000
1.149505 1.589337 1.287727 0.000000 0.000000 0.000000
1.147097 1.588208 1.288199 0.000000 0.000000 0.000000
1.156558 1.594896 1.290135 0.000000 0.000000 0.000000
1.152224 1.597054 1.299753 0.000000 0.000000 0.000000
1.148665 1.587936 1.289420 0.000000 0.000000 0.000000
1.146673 1.585796 1.285015 0.000000 0.000000 0.000000
1.158318 1.603245 1.296378 0.000000 0.000000 0.000000
1.203621 1.656269 1.368720 0.000000 0.000000 0.000000
1.163564 1.627732 1.333118 0.000000 0.000000 0.000000
1.164909 1.612286 1.310711 0.000000 0.000000 0.000000
1.188367 1.650029 1.359399 0.000000 0.000000 0.000000
1.212517 1.669337 1.406603 0.000000 0.000000 0.000000
1.170439 1.621697 1.315592 0.000000 0.000000 0.000000
1.197330 1.653448 1.362372 0.000000 0.000000 0.000000
1.215042 1.672348 1.419977 0.000000 0.000000 0.000000
1.203165 1.660772 1.381714 0.000000 0.000000 0.000000
0.941267 1.632567 1.540786 0.000000 0.000000 0.000000
1.198425 1.654387 1.369270 0.000000 0.000000 0.000000
1.167773 1.612999 1.306082 0.000000 0.000000 0.000000
1.201593 1.653829 1.359829 0.000000 0.000000 0.000000
1.139494 1.578184 1.279809 0.000000 0.000000 0.000000
1.146571 1.585000 1.280099 0.000000 0.000000 0.000000
1.131650 1.574423 1.271739 0.000000 0.000000 0.000000
1.137348 1.576575 1.279180 0.000000 0.000000 0.000000
1.226212 1.680785 1.462040 0.000000 0.000000 0.000000
1.143774 1.585840 1.288448 0.000000 0.000000 0.000000
0.896387 1.535676 1.436183 0.000000 0.000000 0.000000
0.898098 1.514745 1.428913 0.000000 0.000000 0.000000
0.892592 1.535156 1.448590 0.000000 0.000000 0.000000
0.893262 1.572932 1.472477 0.000000 0.000000 0.000000
0.893985 1.540365 1.449026 0.000000 0.000000 0.000000
0.903706 1.533179 1.431486 0.000000 0.000000 0.000000
0.906227 1.525456 1.427381 0.000000 0.000000 0.000000
0.896915 1.526304 1.430148 0.000000 0.000000 0.000000
0.935280 1.633106 1.539097 0.000000 0.000000 0.000000
0.903676 1.518849 1.439660 0.000000 0.000000 0.000000
1.044114 1.691529 1.581095 0.000000 0.000000 0.000000
0.911619 1.522640 1.421336 0.000000 0.000000 0.000000
0.896890 1.510655 1.426016 0.000000 0.000000 0.000000
1.126254 1.572999 1.287641 0.000000 0.000000 0.000000
0.923915 1.624600 1.533510 0.000000 0.000000 0.000000
1.129058 1.575926 1.287996 0.000000 0.000000 0.000000
1.132060 1.572739 1.279301 0.000000 0.000000 0.000000
1.165826 1.608756 1.302980 0.000000 0.000000 0.000000
1.118425 1.561203 1.280424 0.000000 0.000000 0.000000
0.895704 1.517164 1.438628 0.000000 0.000000 0.000000
1.103777 1.543733 1.273483 0.000000 0.000000 0.000000
1.144440 1.583734 1.284136 0.000000 0.000000 0.000000
1.141806 1.589660 1.295718 0.000000 0.000000 0.000000
0.896385 1.549109 1.449986 0.000000 0.000000 0.000000
0.907006 1.500999 1.413440 0.000000 0.000000 0.000000
0.898101 1.523962 1.430110 0.000000 0.000000 0.000000
0.895896 1.562758 1.459641 0.000000 0.000000 0.000000
0.898877 1.559706 1.453570 0.000000 0.000000 0.000000
0.898821 1.519778 1.426162 0.000000 0.000000 0.000000
0.920437 1.510607 1.417156 0.000000 0.000000 0.000000
0.894372 1.520127 1.432697 0.000000 0.000000 0.000000
0.931707 1.630223 1.534507 0.000000 0.000000 0.000000
0.908918 1.516459 1.429711 0.000000 0.000000 0.000000
1.051322 1.692847 1.581473 0.000000 0.000000 0.000000
0.899215 1.529365 1.433518 0.000000 0.000000 0.000000
0.892262 1.529303 1.441140 0.000000 0.000000 0.000000
1.121134 1.565275 1.283340 0.000000 0.000000 0.000000
0.937076 1.630686 1.538994 0.000000 0.000000 0.000000
1.124094 1.566841 1.278831 0.000000 0.000000 0.000000
1.138831 1.579236 1.281796 0.000000 0.000000 0.000000
1.132684 1.578769 1.288141 0.000000 0.000000 0.000000
0.892649 1.529438 1.445881 0.000000 0.000000 0.000000
1.140812 1.582572 1.282686 0.000000 0.000000 0.000000
0.893603 1.522114 1.445441 0.000000 0.000000 0.000000
1.137216 1.578112 1.282834 0.000000 0.000000 0.000000
1.195873 1.660794 1.383215 0.000000 0.000000 0.000000
1.153032 1.598043 1.299492 0.000000 0.000000 0.000000
1.151115 1.589796 1.287732 0.000000 0.000000 0.000000
1.033131 1.682935 1.567365 0.000000 0.000000 0.000000
1.151682 1.593638 1.292774 0.000000 0.000000 0.000000
1.031016 1.691977 1.564190 0.000000 0.000000 0.000000
1.150534 1.590284 1.284437 0.000000 0.000000 0.000000
1.202109 1.657773 1.377879 0.000000 0.000000 0.000000
1.227688 1.685144 1.472084 0.000000 0.000000 0.000000
1.049641 1.696100 1.578964 0.000000 0.000000 0.000000
1.197187 1.653484 1.364249 0.000000 0.000000 0.000000
1.020839 1.686443 1.570917 0.000000 0.000000 0.000000
1.038997 1.697091 1.567221 0.000000 0.000000 0.000000
1.025436 1.689899 1.574594 0.000000 0.000000 0.000000
1.027938 1.690897 1.575908 0.000000 0.000000 0.000000
1.010785 1.685609 1.571959 0.000000 0.000000 0.000000
1.175549 1.629774 1.322557 0.000000 0.000000 0.000000
1.200274 1.655196 1.364951 0.000000 0.000000 0.000000
1.226740 1.681461 1.467570 0.000000 0.000000 0.000000
1.039552 1.691784 1.576769 0.000000 0.000000 0.000000
1.038819 1.689853 1.574585 0.000000 0.000000 0.000000
1.198547 1.655201 1.366857 0.000000 0.000000 0.000000
1.032714 1.691085 1.575222 0.000000 0.000000 0.000000
1.035168 1.693829 1.576734 0.000000 0.000000 0.000000
1.023549 1.688175 1.572275 0.000000 0.000000 0.000000
1.029948 1.691895 1.578061 0.000000 0.000000 0.000000
1.018530 1.688639 1.572377 0.000000 0.000000 0.000000
1.181415 1.636061 1.329947 0.000000 0.000000 0.000000
1.195143 1.652094 1.359026 0.000000 0.000000 0.000000
1.020233 1.689258 1.573467 0.000000 0.000000 0.000000
1.236613 1.716423 1.496910 0.000000 0.000000 0.000000
1.219712 1.675608 1.431731 0.000000 0.000000 0.000000
1.031773 1.463828 1.306028 0.000000 0.000000 0.000000
1.042277 1.470301 1.299711 0.000000 0.000000 0.000000
1.039325 1.466324 1.304241 0.000000 0.000000 0.000000
1.225243 1.678616 1.460852 0.000000 0.000000 0.000000
1.231501 1.680789 1.470029 0.000000 0.000000 0.000000
1.227083 1.685007 1.472902 0.000000 0.000000 0.000000
1.217696 1.674145 1.417085 0.000000 0.000000 0.000000
1.232253 1.691102 1.476585 0.000000 0.000000 0.000000
1.227459 1.683265 1.466564 0.000000 0.000000 0.000000
1.235635 1.706969 1.488895 0.000000 0.000000 0.000000
1.219963 1.677474 1.417901 0.000000 0.000000 0.000000
1.180738 1.633661 1.323969 0.000000 0.000000 0.000000
1.034301 1.465959 1.301813 0.000000 0.000000 0.000000
1.036854 1.464115 1.304950 0.000000 0.000000 0.000000
1.046592 1.467192 1.301396 0.000000 0.000000 0.000000
1.216368 1.688544 1.468265 0.000000 0.000000 0.000000
1.226771 1.679632 1.453937 0.000000 0.000000 0.000000
1.235320 1.691770 1.476815 0.000000 0.000000 0.000000
1.216017 1.675947 1.422304 0.000000 0.000000 0.000000
1.228899 1.691770 1.477305 0.000000 0.000000 0.000000
1.232464 1.685665 1.473461 0.000000 0.000000 0.000000
1.237253 1.704242 1.488226 0.000000 0.000000 0.000000
1.216051 1.673131 1.408313 0.000000 0.000000 0.000000
1.179159 1.630969 1.318095 0.000000 0.000000 0.000000
0.946121 1.634652 1.543454 0.000000 0.000000 0.000000
1.211287 1.679582 1.429988 0.000000 0.000000 0.000000
1.199951 1.659570 1.378258 0.000000 0.000000 0.000000
1.227081 1.678478 1.457315 0.000000 0.000000 0.000000
1.217722 1.673187 1.425972 0.000000 0.000000 0.000000
1.220599 1.673666 1.431195 0.000000 0.000000 0.000000
0.934564 1.628852 1.534509 0.000000 0.000000 0.000000
1.225022 1.687962 1.467230 0.000000 0.000000 0.000000
1.232990 1.684810 1.466426 0.000000 0.000000 0.000000
0.919209 1.475585 1.387056 0.000000 0.000000 0.000000
0.920152 1.470545 1.387847 0.000000 0.000000 0.000000
0.922705 1.477828 1.383773 0.000000 0.000000 0.000000
0.952246 1.447973 1.359484 0.000000 0.000000 0.000000
1.227120 1.679068 1.457757 0.000000 0.000000 0.000000
1.216668 1.673941 1.403025 0.000000 0.000000 0.000000
0.922383 1.490464 1.392536 0.000000 0.000000 0.000000
0.912312 1.476476 1.396683 0.000000 0.000000 0.000000
0.928599 1.472714 1.382366 0.000000 0.000000 0.000000
0.934573 1.478009 1.380935 0.000000 0.000000 0.000000
0.936239 1.465136 1.376436 0.000000 0.000000 0.000000
1.226155 1.680673 1.462619 0.000000 0.000000 0.000000
1.218341 1.672694 1.406271 0.000000 0.000000 0.000000
1.216928 1.775648 1.606553 0.000000 0.000000 0.000000
0.997506 1.671163 1.561669 0.000000 0.000000 0.000000
1.219494 1.672512 1.421175 0.000000 0.000000 0.000000
1.165995 1.608719 1.304580 0.000000 0.000000 0.000000
1.207096 1.773007 1.593696 0.000000 0.000000 0.000000
1.204777 1.658779 1.381558 0.000000 0.000000 0.000000
1.076481 1.712035 1.590321 0.000000 0.000000 0.000000
1.007847 1.665797 1.534291 0.000000 0.000000 0.000000
1.228655 1.689970 1.475496 0.000000 0.000000 0.000000
1.091331 1.719050 1.591838 0.000000 0.000000 0.000000
1.086383 1.718008 1.594116 0.000000 0.000000 0.000000
1.220450 1.755230 1.584760 0.000000 0.000000 0.000000
0.994571 1.665910 1.555679 0.000000 0.000000 0.000000
0.998913 1.667984 1.560377 0.000000 0.000000 0.000000
1.208163 1.661069 1.381614 0.000000 0.000000 0.000000
1.215092 1.670777 1.399672 0.000000 0.000000 0.000000
1.079560 1.716734 1.590577 0.000000 0.000000 0.000000
1.091354 1.720043 1.594183 0.000000 0.000000 0.000000
1.228150 1.742215 1.563760 0.000000 0.000000 0.000000
0.998397 1.668867 1.560207 0.000000 0.000000 0.000000
0.994608 1.663951 1.559319 0.000000 0.000000 0.000000
1.211172 1.663648 1.382649 0.000000 0.000000 0.000000
1.212230 1.666205 1.391322 0.000000 0.000000 0.000000
1.221364 1.675786 1.439415 0.000000 0.000000 0.000000
0.930824 1.626123 1.532563 0.000000 0.000000 0.000000
0.931815 1.453596 1.368068 0.000000 0.000000 0.000000
0.930270 1.628015 1.533461 0.000000 0.000000 0.000000
0.934731 1.629290 1.535215 0.000000 0.000000 0.000000
0.924469 1.622435 1.532734 0.000000 0.000000 0.000000
0.978668 1.649070 1.554915 0.000000 0.000000 0.000000
0.928754 1.618415 1.526265 0.000000 0.000000 0.000000
0.992117 1.661132 1.553779 0.000000 0.000000 0.000000
0.944864 1.466756 1.378121 0.000000 0.000000 0.000000
0.922535 1.621138 1.527977 0.000000 0.000000 0.000000
0.928056 1.624599 1.528132 0.000000 0.000000 0.000000
0.939103 1.454808 1.372569 0.000000 0.000000 0.000000
0.931081 1.623210 1.524218 0.000000 0.000000 0.000000
1.123721 1.752746 1.599867 0.000000 0.000000 0.000000
1.131226 1.755160 1.599827 0.000000 0.000000 0.000000
1.220944 1.676345 1.436825 0.000000 0.000000 0.000000
1.128775 1.753578 1.601364 0.000000 0.000000 0.000000
1.204370 1.663839 1.390538 0.000000 0.000000 0.000000
0.921783 1.624197 1.530256 0.000000 0.000000 0.000000
0.921703 1.459124 1.379188 0.000000 0.000000 0.000000
1.131373 1.753014 1.600025 0.000000 0.000000 0.000000
0.903867 1.491826 1.416153 0.000000 0.000000 0.000000
0.931324 1.630378 1.536555 0.000000 0.000000 0.000000
1.212215 1.686112 1.448878 0.000000 0.000000 0.000000
1.172508 1.623360 1.313006 0.000000 0.000000 0.000000
0.926165 1.464821 1.376201 0.000000 0.000000 0.000000
0.981476 1.652518 1.555153 0.000000 0.000000 0.000000
0.914661 1.500638 1.406990 0.000000 0.000000 0.000000
0.921320 1.621961 1.527598 0.000000 0.000000 0.000000
0.917892 1.621890 1.527458 0.000000 0.000000 0.000000
0.951707 1.450422 1.364174 0.000000 0.000000 0.000000
0.916630 1.611929 1.509983 0.000000 0.000000 0.000000
1.121850 1.748293 1.600641 0.000000 0.000000 0.000000
1.136038 1.759999 1.600305 0.000000 0.000000 0.000000
1.222974 1.677311 1.443558 0.000000 0.000000 0.000000
1.115655 1.740154 1.601100 0.000000 0.000000 0.000000
1.209526 1.665427 1.394761 0.000000 0.000000 0.000000
0.936410 1.629741 1.535530 0.000000 0.000000 0.000000
0.917719 1.622642 1.527565 0.000000 0.000000 0.000000
1.225347 1.746735 1.574364 0.000000 0.000000 0.000000
0.919710 1.462940 1.387580 0.000000 0.000000 0.000000
1.138204 1.763661 1.593100 0.000000 0.000000 0.000000
0.900015 1.503674 1.429030 0.000000 0.000000 0.000000
0.925642 1.624914 1.527097 0.000000 0.000000 0.000000
1.213037 1.673055 1.410936 0.000000 0.000000 0.000000
1.169438 1.617531 1.309720 0.000000 0.000000 0.000000
0.926342 1.467769 1.382055 0.000000 0.000000 0.000000
1.206413 1.666205 1.399915 0.000000 0.000000 0.000000
0.935367 1.626586 1.529997 0.000000 0.000000 0.000000
0.964072 1.641675 1.552898 0.000000 0.000000 0.000000
0.913101 1.478114 1.397884 0.000000 0.000000 0.000000
0.921298 1.624110 1.529338 0.000000 0.000000 0.000000
0.953391 1.635128 1.545635 0.000000 0.000000 0.000000
1.205376 1.662882 1.388430 0.000000 0.000000 0.000000
0.918658 1.623418 1.529591 0.000000 0.000000 0.000000
0.915855 1.618562 1.523654 0.000000 0.000000 0.000000
0.910706 1.489910 1.400651 0.000000 0.000000 0.000000
0.910546 1.488009 1.398136 0.000000 0.000000 0.000000
0.947042 1.630145 1.533482 0.000000 0.000000 0.000000
0.940617 1.632894 1.541319 0.000000 0.000000 0.000000
0.916844 1.620824 1.526965 0.000000 0.000000 0.000000
1.208851 1.664617 1.394995 0.000000 0.000000 0.000000
0.926019 1.616186 1.512363 0.000000 0.000000 0.000000
0.903309 1.496452 1.411027 0.000000 0.000000 0.000000
0.925879 1.464964 1.380035 0.000000 0.000000 0.000000
0.906707 1.487624 1.408600 0.000000 0.000000 0.000000
1.183035 1.642953 1.342953 0.000000 0.000000 0.000000
1.230435 1.734233 1.539917 0.000000 0.000000 0.000000
1.229768 1.737300 1.547674 0.000000 0.000000 0.000000
0.967434 1.637524 1.549289 0.000000 0.000000 0.000000
0.966263 1.640333 1.551923 0.000000 0.000000 0.000000
0.903616 1.490873 1.415931 0.000000 0.000000 0.000000
0.924023 1.609508 1.501364 0.000000 0.000000 0.000000
0.907775 1.498761 1.409813 0.000000 0.000000 0.000000
0.916498 1.479836 1.392385 0.000000 0.000000 0.000000
0.909826 1.484422 1.403910 0.000000 0.000000 0.000000
1.179265 1.637552 1.330172 0.000000 0.000000 0.000000
1.232882 1.730843 1.521387 0.000000 0.000000 0.000000
1.231101 1.734825 1.539551 0.000000 0.000000 0.000000
0.966134 1.639684 1.553547 0.000000 0.000000 0.000000
0.973464 1.644316 1.555714 0.000000 0.000000 0.000000
0.901982 1.497577 1.423337 0.000000 0.000000 0.000000
1.190669 1.646945 1.348071 0.000000 0.000000 0.000000
1.190177 1.647140 1.352003 0.000000 0.000000 0.000000
1.216091 1.768092 1.595570 0.000000 0.000000 0.000000
1.110549 1.548546 1.271573 0.000000 0.000000 0.000000
1.186664 1.643410 1.331712 0.000000 0.000000 0.000000
0.935559 1.629024 1.533483 0.000000 0.000000 0.000000
1.213724 1.769479 1.600944 0.000000 0.000000 0.000000
1.212529 1.772325 1.599234 0.000000 0.000000 0.000000
1.005067 1.680518 1.566444 0.000000 0.000000 0.000000
1.131535 1.571873 1.277014 0.000000 0.000000 0.000000
1.133536 1.574431 1.279433 0.000000 0.000000 0.000000
0.940667 1.631152 1.538374 0.000000 0.000000 0.000000
0.939692 1.627754 1.532891 0.000000 0.000000 0.000000
1.017780 1.684834 1.568070 0.000000 0.000000 0.000000
0.951440 1.637171 1.548121 0.000000 0.000000 0.000000
1.197264 1.779095 1.592817 0.000000 0.000000 0.000000
0.954816 1.635984 1.544425 0.000000 0.000000 0.000000
0.944716 1.633782 1.541747 0.000000 0.000000 0.000000
1.162179 1.607604 1.304835 0.000000 0.000000 0.000000
1.122895 1.556725 1.269675 0.000000 0.000000 0.000000
0.932886 1.624998 1.532703 0.000000 0.000000 0.000000
1.229603 1.737077 1.551099 0.000000 0.000000 0.000000
1.103081 1.544331 1.270007 0.000000 0.000000 0.000000
1.210228 1.772115 1.596101 0.000000 0.000000 0.000000
0.934182 1.629924 1.537341 0.000000 0.000000 0.000000
1.233758 1.737502 1.546275 0.000000 0.000000 0.000000
1.192553 1.783621 1.593842 0.000000 0.000000 0.000000
0.948506 1.633486 1.539061 0.000000 0.000000 0.000000
0.952656 1.636329 1.548828 0.000000 0.000000 0.000000
1.156341 1.598537 1.294140 0.000000 0.000000 0.000000
1.106242 1.540089 1.274187 0.000000 0.000000 0.000000
0.933079 1.623097 1.532526 0.000000 0.000000 0.000000
1.231541 1.733972 1.544838 0.000000 0.000000 0.000000
1.110566 1.545550 1.268488 0.000000 0.000000 0.000000
1.201905 1.776374 1.593848 0.000000 0.000000 0.000000
0.917148 1.622618 1.528935 0.000000 0.000000 0.000000
1.230286 1.735897 1.540326 0.000000 0.000000 0.000000
0.915659 1.692427 1.737572 0.000000 0.000000 0.000000
1.035723 1.809297 1.779394 0.000000 0.000000 0.000000
0.839105 1.654397 1.818117 0.000000 0.000000 0.000000
1.044499 1.744437 1.758051 0.000000 0.000000 0.000000
1.003107 1.708244 1.720042 0.000000 0.000000 0.000000
0.932518 1.704352 1.741185 0.000000 0.000000 0.000000
0.992645 1.722919 1.741992 0.000000 0.000000 0.000000
0.987172 1.740452 1.757949 0.000000 0.000000 0.000000
0.815692 1.663602 1.835841 0.000000 0.000000 0.000000
1.076460 1.791244 1.814821 0.000000 0.000000 0.000000
0.957201 1.764474 1.776698 0.000000 0.000000 0.000000
1.009979 1.726993 1.740299 0.000000 0.000000 0.000000
0.917263 1.769579 1.787739 0.000000 0.000000 0.000000
1.062416 1.776703 1.800578 0.000000 0.000000 0.000000
0.835817 1.643706 1.806966 0.000000 0.000000 0.000000
1.079518 1.786228 1.812268 0.000000 0.000000 0.000000
0.966565 1.736464 1.758295 0.000000 0.000000 0.000000
1.062047 1.741547 1.769199 0.000000 0.000000 0.000000
0.889973 1.778591 1.795937 0.000000 0.000000 0.000000
1.047130 1.798169 1.800953 0.000000 0.000000 0.000000
0.963959 1.717267 1.740340 0.000000 0.000000 0.000000
1.075166 1.794644 1.816935 0.000000 0.000000 0.000000
1.001552 1.727826 1.744719 0.000000 0.000000 0.000000
0.931845 1.659706 1.731305 0.000000 0.000000 0.000000
0.870814 1.687954 1.776580 0.000000 0.000000 0.000000
0.910726 1.767374 1.774029 0.000000 0.000000 0.000000
0.999089 1.767306 1.781025 0.000000 0.000000 0.000000
0.973432 1.688691 1.701421 0.000000 0.000000 0.000000
0.837083 1.666709 1.803404 0.000000 0.000000 0.000000
0.887197 1.706228 1.805400 0.000000 0.000000 0.000000
1.006745 1.714666 1.727889 0.000000 0.000000 0.000000
0.923124 1.695370 1.736704 0.000000 0.000000 0.000000
1.000357 1.749831 1.766935 0.000000 0.000000 0.000000
1.078850 1.753529 1.764409 0.000000 0.000000 0.000000
0.874597 1.641927 1.726785 0.000000 0.000000 0.000000
1.004207 1.718410 1.749521 0.000000 0.000000 0.000000
1.058809 1.807336 1.818301 0.000000 0.000000 0.000000
1.063251 1.818751 1.825528 0.000000 0.000000 0.000000
0.884665 1.726358 1.784574 0.000000 0.000000 0.000000
1.058452 1.791368 1.809141 0.000000 0.000000 0.000000
1.039216 1.804537 1.810668 0.000000 0.000000 0.000000
0.929178 1.688821 1.728054 0.000000 0.000000 0.000000
1.051875 1.728823 1.770388 0.000000 0.000000 0.000000
1.024977 1.725279 1.753887 0.000000 0.000000 0.000000
1.040644 1.731709 1.742803 0.000000 0.000000 0.000000
1.096279 1.783769 1.815444 0.000000 0.000000 0.000000
1.090053 1.773727 1.805527 0.000000 0.000000 0.000000
1.032623 1.785154 1.798912 0.000000 0.000000 0.000000
1.093858 1.785139 1.858594 0.000000 0.000000 0.000000
0.828937 1.662090 1.820892 0.000000 0.000000 0.000000
1.003983 1.698587 1.719331 0.000000 0.000000 0.000000
0.899795 1.696139 1.759451 0.000000 0.000000 0.000000
0.852102 1.675867 1.786201 0.000000 0.000000 0.000000
0.797931 1.700071 1.849959 0.000000 0.000000 0.000000
1.038578 1.731368 1.746729 0.000000 0.000000 0.000000
1.093540 1.776087 1.849717 0.000000 0.000000 0.000000
1.100676 1.772845 1.804315 0.000000 0.000000 0.000000
1.059183 1.803185 1.818752 0.000000 0.000000 0.000000
1.005280 1.703964 1.714956 0.000000 0.000000 0.000000
0.889866 1.644935 1.718795 0.000000 0.000000 0.000000
0.855767 1.677227 1.788321 0.000000 0.000000 0.000000
1.043276 1.753248 1.776888 0.000000 0.000000 0.000000
1.095343 1.771067 1.841806 0.000000 0.000000 0.000000
0.888459 1.702467 1.769513 0.000000 0.000000 0.000000
0.932093 1.693794 1.729171 0.000000 0.000000 0.000000
1.046905 1.790776 1.806243 0.000000 0.000000 0.000000
1.035543 1.855713 1.835178 0.000000 0.000000 0.000000
0.969047 1.744263 1.764014 0.000000 0.000000 0.000000
1.023618 1.769705 1.782273 0.000000 0.000000 0.000000
0.973236 1.724554 1.756992 0.000000 0.000000 0.000000
0.870718 1.700671 1.785064 0.000000 0.000000 0.000000
0.794871 1.744458 1.849618 0.000000 0.000000 0.000000
1.047239 1.750659 1.764394 0.000000 0.000000 0.000000
0.833393 1.640830 1.773210 0.000000 0.000000 0.000000
1.038746 1.747113 1.761565 0.000000 0.000000 0.000000
0.837565 1.668181 1.805790 0.000000 0.000000 0.000000
1.000367 1.762894 1.777597 0.000000 0.000000 0.000000
0.852553 1.711958 1.804306 0.000000 0.000000 0.000000
1.067405 1.845128 1.839685 0.000000 0.000000 0.000000
1.090903 1.801622 1.853574 0.000000 0.000000 0.000000
0.823751 1.667151 1.826136 0.000000 0.000000 0.000000
1.040630 1.748325 1.764615 0.000000 0.000000 0.000000
0.891471 1.643210 1.710214 0.000000 0.000000 0.000000
1.072430 1.791733 1.811910 0.000000 0.000000 0.000000
0.789135 1.703589 1.849665 0.000000 0.000000 0.000000
0.864490 1.693014 1.784256 0.000000 0.000000 0.000000
0.858266 1.688574 1.786253 0.000000 0.000000 0.000000
0.988142 1.698903 1.712721 0.000000 0.000000 0.000000
0.892130 1.686156 1.747763 0.000000 0.000000 0.000000
1.043129 1.773240 1.788909 0.000000 0.000000 0.000000
1.019246 1.719370 1.732123 0.000000 0.000000 0.000000
0.866679 1.695329 1.788661 0.000000 0.000000 0.000000
0.927653 1.718698 1.755630 0.000000 0.000000 0.000000
0.854875 1.694341 1.798316 0.000000 0.000000 0.000000
0.820503 1.649417 1.833150 0.000000 0.000000 0.000000
0.834154 1.674767 1.814843 0.000000 0.000000 0.000000
0.926497 1.767071 1.787039 0.000000 0.000000 0.000000
0.913087 1.648204 1.706026 0.000000 0.000000 0.000000
0.979330 1.730971 1.752465 0.000000 0.000000 0.000000
0.904752 1.645190 1.705821 0.000000 0.000000 0.000000
0.971699 1.681712 1.702618 0.000000 0.000000 0.000000
1.007169 1.716322 1.732953 0.000000 0.000000 0.000000
0.861979 1.649002 1.753198 0.000000 0.000000 0.000000
1.000489 1.690545 1.712741 0.000000 0.000000 0.000000
0.871588 1.659617 1.749196 0.000000 0.000000 0.000000
0.831562 1.647568 1.790776 0.000000 0.000000 0.000000
1.048666 1.846634 1.833656 0.000000 0.000000 0.000000
0.804197 1.665178 1.838652 0.000000 0.000000 0.000000
1.021641 1.701367 1.713471 0.000000 0.000000 0.000000
0.836079 1.639749 1.765406 0.000000 0.000000 0.000000
1.015832 1.704795 1.732054 0.000000 0.000000 0.000000
0.794124 1.707271 1.846048 0.000000 0.000000 0.000000
0.794211 1.756525 1.852299 0.000000 0.000000 0.000000
0.791616 1.707900 1.849385 0.000000 0.000000 0.000000
1.026854 1.703263 1.715041 0.000000 0.000000 0.000000
1.036025 1.731408 1.747464 0.000000 0.000000 0.000000
0.779333 1.716703 1.846888 0.000000 0.000000 0.000000
0.856754 1.641174 1.744896 0.000000 0.000000 0.000000
0.821716 1.643220 1.797245 0.000000 0.000000 0.000000
1.085426 1.785454 1.812435 0.000000 0.000000 0.000000
0.856660 1.643666 1.748588 0.000000 0.000000 0.000000
0.854337 1.640628 1.744865 0.000000 0.000000 0.000000
0.861430 1.683257 1.779379 0.000000 0.000000 0.000000
1.047554 1.823783 1.823339 0.000000 0.000000 0.000000
0.860794 1.704428 1.797051 0.000000 0.000000 0.000000
1.034941 1.712222 1.727777 0.000000 0.000000 0.000000
0.794229 1.744736 1.851713 0.000000 0.000000 0.000000
0.988170 1.756503 1.771951 0.000000 0.000000 0.000000
1.054905 1.745115 1.758161 0.000000 0.000000 0.000000
0.867780 1.677866 1.763939 0.000000 0.000000 0.000000
1.051978 1.752720 1.768789 0.000000 0.000000 0.000000
1.062001 1.746500 1.760220 0.000000 0.000000 0.000000
1.042967 1.773257 1.798377 0.000000 0.000000 0.000000
0.875632 1.646904 1.730390 0.000000 0.000000 0.000000
1.052423 1.770780 1.788355 0.000000 0.000000 0.000000
1.011786 1.785198 1.799831 0.000000 0.000000 0.000000
1.013461 1.760160 1.772356 0.000000 0.000000 0.000000
0.994816 1.708370 1.720537 0.000000 0.000000 0.000000
0.971141 1.703380 1.722489 0.000000 0.000000 0.000000
1.055047 1.769849 1.788730 0.000000 0.000000 0.000000
0.964562 1.731066 1.753658 0.000000 0.000000 0.000000
1.081025 1.808685 1.834274 0.000000 0.000000 0.000000
0.920824 1.680202 1.725420 0.000000 0.000000 0.000000
0.822671 1.658531 1.825049 0.000000 0.000000 0.000000
0.899456 1.680359 1.735617 0.000000 0.000000 0.000000
0.868869 1.640404 1.724308 0.000000 0.000000 0.000000
0.876707 1.701880 1.779230 0.000000 0.000000 0.000000
0.879326 1.758664 1.791780 0.000000 0.000000 0.000000
1.036780 1.733369 1.741607 0.000000 0.000000 0.000000
0.856871 1.683773 1.790634 0.000000 0.000000 0.000000
1.008476 1.774200 1.782710 0.000000 0.000000 0.000000
0.839720 1.649397 1.781791 0.000000 0.000000 0.000000
0.993466 1.727548 1.743702 0.000000 0.000000 0.000000
0.993337 1.792419 1.797076 0.000000 0.000000 0.000000
1.091415 1.809016 1.851259 0.000000 0.000000 0.000000
0.835822 1.669244 1.808127 0.000000 0.000000 0.000000
1.041715 1.828881 1.824681 0.000000 0.000000 0.000000
0.994791 1.719676 1.736725 0.000000 0.000000 0.000000
0.913914 1.727099 1.766176 0.000000 0.000000 0.000000
0.872074 1.684296 1.765078 0.000000 0.000000 0.000000
1.012523 1.735655 1.748619 0.000000 0.000000 0.000000
1.002638 1.801959 1.801688 0.000000 0.000000 0.000000
1.013075 1.742497 1.756312 0.000000 0.000000 0.000000
0.981305 1.745710 1.762640 0.000000 0.000000 0.000000
1.045201 1.831407 1.826123 0.000000 0.000000 0.000000
0.886075 1.696510 1.762610 0.000000 0.000000 0.000000
1.050263 1.768401 1.785244 0.000000 0.000000 0.000000
1.035861 1.723125 1.732528 0.000000 0.000000 0.000000
1.033984 1.771723 1.784883 0.000000 0.000000 0.000000
1.081680 1.782382 1.811321 0.000000 0.000000 0.000000
0.995145 1.710736 1.732359 0.000000 0.000000 0.000000
0.813094 1.650924 1.833840 0.000000 0.000000 0.000000
0.826039 1.657763 1.821003 0.000000 0.000000 0.000000
1.044031 1.721496 1.729626 0.000000 0.000000 0.000000
1.048507 1.738068 1.752744 0.000000 0.000000 0.000000
0.796800 1.759901 1.850476 0.000000 0.000000 0.000000
0.896750 1.646609 1.719181 0.000000 0.000000 0.000000
1.021294 1.720957 1.732633 0.000000 0.000000 0.000000
1.034778 1.713465 1.724036 0.000000 0.000000 0.000000
0.876062 1.697145 1.772730 0.000000 0.000000 0.000000
1.081574 1.779389 1.808891 0.000000 0.000000 0.000000
1.002701 1.849089 1.821244 0.000000 0.000000 0.000000
1.011071 1.734906 1.751156 0.000000 0.000000 0.000000
0.865650 1.685685 1.771962 0.000000 0.000000 0.000000
1.075425 1.784231 1.809549 0.000000 0.000000 0.000000
1.093968 1.784536 1.813595 0.000000 0.000000 0.000000
0.931586 1.775212 1.789790 0.000000 0.000000 0.000000
1.024156 1.780183 1.798446 0.000000 0.000000 0.000000
0.971058 1.818912 1.802149 0.000000 0.000000 0.000000
0.851313 1.666004 1.778567 0.000000 0.000000 0.000000
1.037623 1.774431 1.785954 0.000000 0.000000 0.000000
0.985520 1.751726 1.767129 0.000000 0.000000 0.000000
0.908422 1.781751 1.790904 0.000000 0.000000 0.000000
1.083433 1.795327 1.826974 0.000000 0.000000 0.000000
1.047652 1.756721 1.771096 0.000000 0.000000 0.000000
1.004030 1.761759 1.775699 0.000000 0.000000 0.000000
0.930830 1.784607 1.785640 0.000000 0.000000 0.000000
0.877025 1.646919 1.735260 0.000000 0.000000 0.000000
0.948531 1.718412 1.752876 0.000000 0.000000 0.000000
0.848470 1.657232 1.776154 0.000000 0.000000 0.000000
1.010792 1.842387 1.820222 0.000000 0.000000 0.000000
0.854091 1.686632 1.798206 0.000000 0.000000 0.000000
0.878331 1.692221 1.769201 0.000000 0.000000 0.000000
1.021593 1.812636 1.811680 0.000000 0.000000 0.000000
0.883226 1.751242 1.792223 0.000000 0.000000 0.000000
0.998714 1.706172 1.720110 0.000000 0.000000 0.000000
0.900182 1.739882 1.784726 0.000000 0.000000 0.000000
1.033038 1.760238 1.785466 0.000000 0.000000 0.000000
1.043604 1.810340 1.815633 0.000000 0.000000 0.000000
0.912880 1.752376 1.785505 0.000000 0.000000 0.000000
1.018023 1.734663 1.745919 0.000000 0.000000 0.000000
1.021532 1.809865 1.810945 0.000000 0.000000 0.000000
0.995929 1.759844 1.778335 0.000000 0.000000 0.000000
1.011477 1.838107 1.819690 0.000000 0.000000 0.000000
1.004073 1.756348 1.771285 0.000000 0.000000 0.000000
0.882339 1.698429 1.770086 0.000000 0.000000 0.000000
1.039867 1.810284 1.814512 0.000000 0.000000 0.000000
1.071616 1.754888 1.777104 0.000000 0.000000 0.000000
1.037012 1.719073 1.733232 0.000000 0.000000 0.000000
1.032474 1.751192 1.763167 0.000000 0.000000 0.000000
1.057410 1.763160 1.787296 0.000000 0.000000 0.000000
1.022529 1.823596 1.815269 0.000000 0.000000 0.000000
1.038024 1.774374 1.789754 0.000000 0.000000 0.000000
1.077592 1.833061 1.838794 0.000000 0.000000 0.000000
0.914037 1.663983 1.716020 0.000000 0.000000 0.000000
1.012793 1.709550 1.725095 0.000000 0.000000 0.000000
1.027978 1.785694 1.801305 0.000000 0.000000 0.000000
1.028140 1.712527 1.728167 0.000000 0.000000 0.000000
0.864262 1.640124 1.734243 0.000000 0.000000 0.000000
1.052114 1.740077 1.751737 0.000000 0.000000 0.000000
1.046030 1.745952 1.756010 0.000000 0.000000 0.000000
0.834400 1.665763 1.811647 0.000000 0.000000 0.000000
0.795674 1.729840 1.848120 0.000000 0.000000 0.000000
1.002697 1.773688 1.788295 0.000000 0.000000 0.000000
1.065695 1.836391 1.835096 0.000000 0.000000 0.000000
1.029252 1.713971 1.727368 0.000000 0.000000 0.000000
1.059813 1.771290 1.792948 0.000000 0.000000 0.000000
0.805439 1.638135 1.850380 0.000000 0.000000 0.000000
1.058895 1.804551 1.815950 0.000000 0.000000 0.000000
1.022397 1.759855 1.772568 0.000000 0.000000 0.000000
0.825172 1.679700 1.825951 0.000000 0.000000 0.000000
1.007108 1.819112 1.809080 0.000000 0.000000 0.000000
1.053363 1.779540 1.802382 0.000000 0.000000 0.000000
0.864476 1.696928 1.788509 0.000000 0.000000 0.000000
1.087180 1.799158 1.839925 0.000000 0.000000 0.000000
1.009863 1.798878 1.803271 0.000000 0.000000 0.000000
1.024287 1.744288 1.756575 0.000000 0.000000 0.000000
1.065091 1.789457 1.807315 0.000000 0.000000 0.000000
1.037686 1.754730 1.769368 0.000000 0.000000 0.000000
0.887348 1.641922 1.718089 0.000000 0.000000 0.000000
0.859787 1.641770 1.741677 0.000000 0.000000 0.000000
0.994521 1.771564 1.782620 0.000000 0.000000 0.000000
0.992502 1.757397 1.775636 0.000000 0.000000 0.000000
1.065716 1.832099 1.832710 0.000000 0.000000 0.000000
1.026865 1.820144 1.816919 0.000000 0.000000 0.000000
1.005515 1.767954 1.781075 0.000000 0.000000 0.000000
0.994920 1.697225 1.719776 0.000000 0.000000 0.000000
0.988414 1.735280 1.759577 0.000000 0.000000 0.000000
0.809053 1.632892 1.807210 0.000000 0.000000 0.000000
1.029604 1.845754 1.828582 0.000000 0.000000 0.000000
1.052832 1.777266 1.799673 0.000000 0.000000 0.000000
1.092401 1.788318 1.819044 0.000000 0.000000 0.000000
1.065819 1.749833 1.771180 0.000000 0.000000 0.000000
1.013626 1.797519 1.802901 0.000000 0.000000 0.000000
0.823202 1.655825 1.819489 0.000000 0.000000 0.000000
1.033780 1.825105 1.819471 0.000000 0.000000 0.000000
1.092732 1.781349 1.834440 0.000000 0.000000 0.000000
1.007686 1.788558 1.799847 0.000000 0.000000 0.000000
0.983122 1.771501 1.784497 0.000000 0.000000 0.000000
0.850983 1.645503 1.762022 0.000000 0.000000 0.000000
1.055795 1.823766 1.824034 0.000000 0.000000 0.000000
0.901833 1.746748 1.789981 0.000000 0.000000 0.000000
0.799404 1.738052 1.846861 0.000000 0.000000 0.000000
1.050426 1.853698 1.839070 0.000000 0.000000 0.000000
1.062513 1.753895 1.766131 0.000000 0.000000 0.000000
1.035423 1.759108 1.776457 0.000000 0.000000 0.000000
0.994206 1.829212 1.809286 0.000000 0.000000 0.000000
1.005273 1.716138 1.737392 0.000000 0.000000 0.000000
1.058154 1.782229 1.801590 0.000000 0.000000 0.000000
0.862811 1.646989 1.749811 0.000000 0.000000 0.000000
0.999403 1.712477 1.726942 0.000000 0.000000 0.000000
1.047673 1.784083 1.799442 0.000000 0.000000 0.000000
1.015634 1.853180 1.827210 0.000000 0.000000 0.000000
0.828723 1.655177 1.801463 0.000000 0.000000 0.000000
1.017776 1.755038 1.771662 0.000000 0.000000 0.000000
1.024808 1.849108 1.825375 0.000000 0.000000 0.000000
1.034855 1.779028 1.795802 0.000000 0.000000 0.000000
0.918289 1.652076 1.700645 0.000000 0.000000 0.000000
1.084701 1.792719 1.817380 0.000000 0.000000 0.000000
0.834493 1.643209 1.780792 0.000000 0.000000 0.000000
0.817142 1.656060 1.832656 0.000000 0.000000 0.000000
1.012221 1.742402 1.757223 0.000000 0.000000 0.000000
1.062529 1.849628 1.840265 0.000000 0.000000 0.000000
1.083543 1.781376 1.807259 0.000000 0.000000 0.000000
1.054873 1.811930 1.820050 0.000000 0.000000 0.000000
1.067844 1.750741 1.774063 0.000000 0.000000 0.000000
1.014583 1.847246 1.824983 0.000000 0.000000 0.000000
0.973399 1.824918 1.812316 0.000000 0.000000 0.000000
0.871775 1.687807 1.771481 0.000000 0.000000 0.000000
1.106021 1.773117 1.806881 0.000000 0.000000 0.000000
1.067429 1.783054 1.807825 0.000000 0.000000 0.000000
1.019108 1.745250 1.764893 0.000000 0.000000 0.000000
1.003004 1.839419 1.818194 0.000000 0.000000 0.000000
1.059922 1.774490 1.780757 0.000000 0.000000 0.000000
0.804734 1.698126 1.843408 0.000000 0.000000 0.000000
1.096645 1.783990 1.829308 0.000000 0.000000 0.000000
0.977708 1.765194 1.777783 0.000000 0.000000 0.000000
0.862678 1.645291 1.743991 0.000000 0.000000 0.000000
1.006855 1.804113 1.804199 0.000000 0.000000 0.000000
0.900512 1.646342 1.717258 0.000000 0.000000 0.000000
1.007387 1.757193 1.770105 0.000000 0.000000 0.000000
0.973915 1.699690 1.719088 0.000000 0.000000 0.000000
0.851128 1.642587 1.757221 0.000000 0.000000 0.000000
0.841179 1.637481 1.756777 0.000000 0.000000 0.000000
0.903523 1.646686 1.705687 0.000000 0.000000 0.000000
0.926254 1.750172 1.785855 0.000000 0.000000 0.000000
1.036245 1.728417 1.741739 0.000000 0.000000 0.000000
0.814439 1.652131 1.832973 0.000000 0.000000 0.000000
1.040013 1.824598 1.821431 0.000000 0.000000 0.000000
0.798885 1.710461 1.844282 0.000000 0.000000 0.000000
1.050929 1.758106 1.775629 0.000000 0.000000 0.000000
1.020998 1.746212 1.760910 0.000000 0.000000 0.000000
1.050835 1.750325 1.762669 0.000000 0.000000 0.000000
1.035106 1.759149 1.785408 0.000000 0.000000 0.000000
0.984218 1.707986 1.727877 0.000000 0.000000 0.000000
1.045655 1.779734 1.798213 0.000000 0.000000 0.000000
0.840119 1.661482 1.789839 0.000000 0.000000 0.000000
1.015909 1.721415 1.729508 0.000000 0.000000 0.000000
1.071367 1.780905 1.798805 0.000000 0.000000 0.000000
1.055603 1.821002 1.824671 0.000000 0.000000 0.000000
1.047308 1.801503 1.812777 0.000000 0.000000 0.000000
1.039764 1.815002 1.817217 0.000000 0.000000 0.000000
0.823475 1.655936 1.816000 0.000000 0.000000 0.000000
1.011386 1.718059 1.731713 0.000000 0.000000 0.000000
0.792048 1.735525 1.851563 0.000000 0.000000 0.000000
1.036837 1.726939 1.738017 0.000000 0.000000 0.000000
1.024412 1.778550 1.792959 0.000000 0.000000 0.000000
1.047639 1.718174 1.734897 0.000000 0.000000 0.000000
0.998916 1.742812 1.764457 0.000000 0.000000 0.000000
1.035200 1.738340 1.749126 0.000000 0.000000 0.000000
1.055647 1.786335 1.805532 0.000000 0.000000 0.000000
1.088891 1.790782 1.829919 0.000000 0.000000 0.000000
1.041770 1.819819 1.817874 0.000000 0.000000 0.000000
1.016879 1.804084 1.807728 0.000000 0.000000 0.000000
1.080326 1.817290 1.837087 0.000000 0.000000 0.000000
1.052994 1.793108 1.807851 0.000000 0.000000 0.000000
1.076842 1.811104 1.842562 0.000000 0.000000 0.000000
0.972360 1.753153 1.772182 0.000000 0.000000 0.000000
1.084108 1.780210 1.806968 0.000000 0.000000 0.000000
0.814591 1.637227 1.795372 0.000000 0.000000 0.000000
1.053271 1.804507 1.815805 0.000000 0.000000 0.000000
1.078846 1.811958 1.833318 0.000000 0.000000 0.000000
1.026262 1.826259 1.818238 0.000000 0.000000 0.000000
1.020889 1.765175 1.778473 0.000000 0.000000 0.000000
0.981952 1.693778 1.711889 0.000000 0.000000 0.000000
1.008496 1.739317 1.756261 0.000000 0.000000 0.000000
1.012876 1.778781 1.789570 0.000000 0.000000 0.000000
1.007299 1.814335 1.806554 0.000000 0.000000 0.000000
1.045455 1.741312 1.755146 0.000000 0.000000 0.000000
1.092652 1.785331 1.850729 0.000000 0.000000 0.000000
1.039062 1.800867 1.811931 0.000000 0.000000 0.000000
1.069575 1.813983 1.827884 0.000000 0.000000 0.000000
1.016841 1.803155 1.806274 0.000000 0.000000 0.000000
1.007842 1.777166 1.790449 0.000000 0.000000 0.000000
1.012231 1.702224 1.715980 0.000000 0.000000 0.000000
0.831767 1.651456 1.793902 0.000000 0.000000 0.000000
1.041680 1.758594 1.772515 0.000000 0.000000 0.000000
1.084837 1.792402 1.820999 0.000000 0.000000 0.000000
1.082153 1.799316 1.831547 0.000000 0.000000 0.000000
1.034664 1.803820 1.811141 0.000000 0.000000 0.000000
1.020159 1.707061 1.727962 0.000000 0.000000 0.000000
1.051838 1.794749 1.811185 0.000000 0.000000 0.000000
1.092865 1.790303 1.824933 0.000000 0.000000 0.000000
1.048634 1.733075 1.741300 0.000000 0.000000 0.000000
1.098104 1.776562 1.837389 0.000000 0.000000 0.000000
1.074081 1.802799 1.825471 0.000000 0.000000 0.000000
1.071486 1.800264 1.821802 0.000000 0.000000 0.000000
0.989764 1.771847 1.781782 0.000000 0.000000 0.000000
0.821305 1.642762 1.811469 0.000000 0.000000 0.000000
1.085619 1.775584 1.847311 0.000000 0.000000 0.000000
1.015618 1.721498 1.744000 0.000000 0.000000 0.000000
0.792143 1.669160 1.850761 0.000000 0.000000 0.000000
0.889268 1.701959 1.760572 0.000000 0.000000 0.000000
0.807273 1.647492 1.842399 0.000000 0.000000 0.000000
0.815184 1.634216 1.811387 0.000000 0.000000 0.000000
1.061503 1.771307 1.799221 0.000000 0.000000 0.000000
0.922555 1.709503 1.750226 0.000000 0.000000 0.000000
1.082931 1.803064 1.835346 0.000000 0.000000 0.000000
0.864659 1.669384 1.777046 0.000000 0.000000 0.000000
1.029582 1.804099 1.809452 0.000000 0.000000 0.000000
1.029800 1.762417 1.775376 0.000000 0.000000 0.000000
1.075061 1.819641 1.833689 0.000000 0.000000 0.000000
1.040183 1.794421 1.806338 0.000000 0.000000 0.000000
0.947852 1.747025 1.770819 0.000000 0.000000 0.000000
0.970596 1.737175 1.763130 0.000000 0.000000 0.000000
1.073055 1.816205 1.829466 0.000000 0.000000 0.000000
1.012849 1.826532 1.813411 0.000000 0.000000 0.000000
1.034002 1.835763 1.824728 0.000000 0.000000 0.000000
0.978014 1.756704 1.775084 0.000000 0.000000 0.000000
1.087889 1.807667 1.843853 0.000000 0.000000 0.000000
1.001999 1.809799 1.805322 0.000000 0.000000 0.000000
1.015329 1.696520 1.710282 0.000000 0.000000 0.000000
0.992160 1.765728 1.781019 0.000000 0.000000 0.000000
1.022535 1.798322 1.804441 0.000000 0.000000 0.000000
1.059155 1.765144 1.782116 0.000000 0.000000 0.000000
1.070192 1.803863 1.825776 0.000000 0.000000 0.000000
1.025349 1.797096 1.806479 0.000000 0.000000 0.000000
1.066386 1.793752 1.812959 0.000000 0.000000 0.000000
1.007825 1.713537 1.728964 0.000000 0.000000 0.000000
1.020410 1.778594 1.792355 0.000000 0.000000 0.000000
0.838879 1.638930 1.759709 0.000000 0.000000 0.000000
1.036220 1.855834 1.835332 0.000000 0.000000 0.000000
0.873407 1.653173 1.745719 0.000000 0.000000 0.000000
1.074602 1.795549 1.820521 0.000000 0.000000 0.000000
1.095290 1.790770 1.841446 0.000000 0.000000 0.000000
0.998561 1.777912 1.793945 0.000000 0.000000 0.000000
0.800903 1.701278 1.841209 0.000000 0.000000 0.000000
0.833803 1.676640 1.823122 0.000000 0.000000 0.000000
1.066225 1.747632 1.756980 0.000000 0.000000 0.000000
0.794983 1.697058 1.847680 0.000000 0.000000 0.000000
0.985022 1.822997 1.802389 0.000000 0.000000 0.000000
1.010724 1.770430 1.784347 0.000000 0.000000 0.000000
0.873240 1.635492 1.718642 0.000000 0.000000 0.000000
1.096365 1.771554 1.841507 0.000000 0.000000 0.000000
0.797756 1.657116 1.847850 0.000000 0.000000 0.000000
0.801389 1.702686 1.846567 0.000000 0.000000 0.000000
0.950461 1.759574 1.786786 0.000000 0.000000 0.000000
1.101495 1.773013 1.833454 0.000000 0.000000 0.000000
0.943137 1.821687 1.794094 0.000000 0.000000 0.000000
0.922125 1.820603 1.796694 0.000000 0.000000 0.000000
1.048240 1.746931 1.761710 0.000000 0.000000 0.000000
1.061362 1.796360 1.815160 0.000000 0.000000 0.000000
1.077573 1.826055 1.837744 0.000000 0.000000 0.000000
1.086890 1.784493 1.812078 0.000000 0.000000 0.000000
1.082833 1.793067 1.821275 0.000000 0.000000 0.000000
0.934895 1.816185 1.793119 0.000000 0.000000 0.000000
0.927359 1.825629 1.799890 0.000000 0.000000 0.000000
0.931563 1.796496 1.791072 0.000000 0.000000 0.000000
0.971561 1.808654 1.794835 0.000000 0.000000 0.000000
1.059004 1.788367 1.810599 0.000000 0.000000 0.000000
1.065631 1.791445 1.816241 0.000000 0.000000 0.000000
0.845908 1.637811 1.751586 0.000000 0.000000 0.000000
0.855560 1.633928 1.731089 0.000000 0.000000 0.000000
1.098147 1.786296 1.822246 0.000000 0.000000 0.000000
1.099494 1.775877 1.807975 0.000000 0.000000 0.000000
0.788195 1.716839 1.849288 0.000000 0.000000 0.000000
0.794760 1.735016 1.849727 0.000000 0.000000 0.000000
0.859433 1.671391 1.771812 0.000000 0.000000 0.000000
0.849130 1.648108 1.766841 0.000000 0.000000 0.000000
0.812886 1.679964 1.838229 0.000000 0.000000 0.000000
0.859014 1.637124 1.731644 0.000000 0.000000 0.000000
1.018957 1.704773 1.718312 0.000000 0.000000 0.000000
1.007497 1.697686 1.712711 0.000000 0.000000 0.000000
1.003477 1.697094 1.706503 0.000000 0.000000 0.000000
1.017001 1.872469 1.837193 0.000000 0.000000 0.000000
1.055258 1.730994 1.749717 0.000000 0.000000 0.000000
0.785602 1.710227 1.852521 0.000000 0.000000 0.000000
1.003123 1.693756 1.707544 0.000000 0.000000 0.000000
0.983273 1.684250 1.700509 0.000000 0.000000 0.000000
0.857113 1.680660 1.788399 0.000000 0.000000 0.000000
0.862914 1.635461 1.726545 0.000000 0.000000 0.000000
0.859363 1.638089 1.737383 0.000000 0.000000 0.000000
1.026588 1.703845 1.723188 0.000000 0.000000 0.000000
1.023398 1.751513 1.767533 0.000000 0.000000 0.000000
0.919033 1.644992 1.697388 0.000000 0.000000 0.000000
0.845033 1.637320 1.753867 0.000000 0.000000 0.000000
0.866163 1.646886 1.743973 0.000000 0.000000 0.000000
0.874897 1.642479 1.727013 0.000000 0.000000 0.000000
0.836621 1.631624 1.751349 0.000000 0.000000 0.000000
