ply
format ascii 1.0
comment VCGLIB generated
obj_info Generated by SPFormer!
element vertex 884
property float x
property float y
property float z
property float nx
property float ny
property float nz
end_header
1.042006 0.990323 0.076084 0.000000 0.000000 0.000000
0.969923 1.095426 0.070358 0.000000 0.000000 0.000000
0.952724 1.011051 0.101465 0.000000 0.000000 0.000000
1.029170 1.066308 0.061150 0.000000 0.000000 0.000000
1.028986 1.058690 0.060847 0.000000 0.000000 0.000000
1.014539 0.993630 0.071878 0.000000 0.000000 0.000000
1.043121 1.045283 0.062064 0.000000 0.000000 0.000000
1.041448 1.052631 0.059961 0.000000 0.000000 0.000000
1.046919 0.984083 0.071267 0.000000 0.000000 0.000000
0.992386 1.040496 0.061851 0.000000 0.000000 0.000000
1.035531 1.050264 0.064592 0.000000 0.000000 0.000000
0.947447 1.096502 0.089892 0.000000 0.000000 0.000000
0.933107 1.043915 0.091682 0.000000 0.000000 0.000000
1.025110 0.981667 0.080511 0.000000 0.000000 0.000000
1.009418 1.059551 0.063449 0.000000 0.000000 0.000000
0.977771 1.008279 0.083592 0.000000 0.000000 0.000000
0.982928 0.984396 0.093950 0.000000 0.000000 0.000000
0.982585 0.988215 0.097691 0.000000 0.000000 0.000000
0.940156 1.084010 0.089802 0.000000 0.000000 0.000000
0.981596 0.979534 0.100500 0.000000 0.000000 0.000000
0.952700 1.015079 0.096886 0.000000 0.000000 0.000000
0.993104 1.003949 0.075598 0.000000 0.000000 0.000000
0.956343 1.032238 0.093473 0.000000 0.000000 0.000000
1.015339 0.960536 0.086286 0.000000 0.000000 0.000000
0.965914 1.085463 0.071291 0.000000 0.000000 0.000000
0.947150 1.037027 0.097010 0.000000 0.000000 0.000000
0.976067 1.083172 0.070424 0.000000 0.000000 0.000000
0.980574 1.081249 0.073980 0.000000 0.000000 0.000000
1.031563 1.043974 0.063871 0.000000 0.000000 0.000000
0.949453 1.021496 0.098461 0.000000 0.000000 0.000000
1.005462 1.053649 0.062723 0.000000 0.000000 0.000000
1.043205 1.004265 0.070589 0.000000 0.000000 0.000000
1.011334 0.973301 0.088596 0.000000 0.000000 0.000000
0.964808 1.074710 0.075210 0.000000 0.000000 0.000000
0.999745 1.021052 0.068415 0.000000 0.000000 0.000000
0.996972 1.057348 0.067253 0.000000 0.000000 0.000000
0.982264 1.008127 0.087319 0.000000 0.000000 0.000000
0.972211 1.079120 0.073875 0.000000 0.000000 0.000000
1.015061 0.971992 0.089391 0.000000 0.000000 0.000000
1.015933 0.995136 0.073099 0.000000 0.000000 0.000000
0.985850 0.975747 0.098955 0.000000 0.000000 0.000000
0.974093 1.058895 0.074539 0.000000 0.000000 0.000000
0.937912 1.043415 0.099074 0.000000 0.000000 0.000000
0.974537 1.020947 0.079757 0.000000 0.000000 0.000000
0.979771 1.013771 0.093966 0.000000 0.000000 0.000000
1.019015 1.000447 0.074540 0.000000 0.000000 0.000000
1.042119 1.054144 0.061689 0.000000 0.000000 0.000000
0.985750 1.079551 0.068232 0.000000 0.000000 0.000000
1.017217 1.011635 0.067463 0.000000 0.000000 0.000000
0.952454 1.019387 0.095780 0.000000 0.000000 0.000000
0.972772 1.017128 0.080116 0.000000 0.000000 0.000000
1.025349 0.966628 0.082390 0.000000 0.000000 0.000000
1.002866 1.005335 0.077671 0.000000 0.000000 0.000000
1.027979 1.069292 0.061453 0.000000 0.000000 0.000000
0.998080 1.073133 0.064181 0.000000 0.000000 0.000000
1.015989 1.048302 0.065185 0.000000 0.000000 0.000000
1.032075 1.064566 0.064031 0.000000 0.000000 0.000000
1.023817 1.000087 0.068143 0.000000 0.000000 0.000000
0.970015 1.008288 0.088198 0.000000 0.000000 0.000000
0.957132 1.007114 0.102697 0.000000 0.000000 0.000000
0.973688 1.084667 0.070841 0.000000 0.000000 0.000000
0.970038 1.090536 0.072285 0.000000 0.000000 0.000000
1.003293 1.017607 0.070102 0.000000 0.000000 0.000000
0.946443 1.086081 0.086782 0.000000 0.000000 0.000000
1.032658 1.027104 0.073410 0.000000 0.000000 0.000000
1.036196 0.994966 0.066904 0.000000 0.000000 0.000000
1.024103 1.050196 0.063527 0.000000 0.000000 0.000000
1.007039 1.051713 0.063895 0.000000 0.000000 0.000000
1.031885 1.003209 0.078453 0.000000 0.000000 0.000000
0.944914 1.083006 0.087485 0.000000 0.000000 0.000000
1.030535 0.974569 0.074355 0.000000 0.000000 0.000000
1.041923 1.046662 0.062608 0.000000 0.000000 0.000000
0.976846 1.028516 0.085429 0.000000 0.000000 0.000000
0.968456 1.095582 0.071652 0.000000 0.000000 0.000000
0.977329 1.054162 0.070582 0.000000 0.000000 0.000000
1.024714 1.064976 0.061306 0.000000 0.000000 0.000000
0.959702 1.006290 0.095632 0.000000 0.000000 0.000000
1.023205 1.025462 0.065979 0.000000 0.000000 0.000000
0.939559 1.036573 0.100748 0.000000 0.000000 0.000000
0.952676 1.073512 0.084217 0.000000 0.000000 0.000000
0.986992 1.086125 0.069193 0.000000 0.000000 0.000000
0.957828 1.091501 0.077725 0.000000 0.000000 0.000000
1.016794 1.028684 0.069584 0.000000 0.000000 0.000000
0.985053 1.048740 0.067586 0.000000 0.000000 0.000000
0.991783 0.997997 0.078938 0.000000 0.000000 0.000000
1.045396 0.995604 0.068022 0.000000 0.000000 0.000000
1.021467 0.992927 0.072449 0.000000 0.000000 0.000000
1.007759 0.957236 0.096810 0.000000 0.000000 0.000000
0.984722 1.040195 0.067143 0.000000 0.000000 0.000000
0.964561 1.098248 0.071094 0.000000 0.000000 0.000000
0.947549 1.025138 0.099952 0.000000 0.000000 0.000000
0.993801 1.032778 0.066845 0.000000 0.000000 0.000000
0.992936 1.071990 0.065430 0.000000 0.000000 0.000000
1.027537 1.076370 0.065581 0.000000 0.000000 0.000000
0.937131 1.069363 0.090257 0.000000 0.000000 0.000000
1.048653 1.043923 0.060726 0.000000 0.000000 0.000000
1.029697 1.070456 0.061479 0.000000 0.000000 0.000000
1.027064 1.058195 0.062164 0.000000 0.000000 0.000000
0.967120 1.096869 0.072244 0.000000 0.000000 0.000000
1.040195 1.063927 0.060839 0.000000 0.000000 0.000000
1.003615 1.043893 0.067931 0.000000 0.000000 0.000000
1.003243 0.975630 0.084832 0.000000 0.000000 0.000000
1.039052 0.963029 0.078045 0.000000 0.000000 0.000000
1.022961 0.987303 0.076299 0.000000 0.000000 0.000000
1.015368 0.974964 0.088030 0.000000 0.000000 0.000000
0.985447 1.086556 0.067918 0.000000 0.000000 0.000000
0.954036 1.004268 0.103128 0.000000 0.000000 0.000000
1.010867 0.975079 0.084268 0.000000 0.000000 0.000000
0.964355 1.046389 0.081132 0.000000 0.000000 0.000000
1.005236 0.985465 0.081192 0.000000 0.000000 0.000000
0.985270 0.990444 0.083956 0.000000 0.000000 0.000000
0.954137 1.089241 0.080705 0.000000 0.000000 0.000000
0.944389 1.044265 0.092555 0.000000 0.000000 0.000000
0.992850 1.082416 0.065170 0.000000 0.000000 0.000000
1.056430 0.955148 0.079470 0.000000 0.000000 0.000000
0.998252 0.978410 0.093077 0.000000 0.000000 0.000000
1.025671 0.972217 0.079765 0.000000 0.000000 0.000000
0.937407 1.036558 0.101086 0.000000 0.000000 0.000000
0.987288 1.088863 0.067093 0.000000 0.000000 0.000000
1.035173 0.970551 0.078911 0.000000 0.000000 0.000000
1.012773 1.065304 0.064085 0.000000 0.000000 0.000000
1.026543 0.965842 0.081779 0.000000 0.000000 0.000000
0.968307 1.092623 0.071825 0.000000 0.000000 0.000000
1.026894 0.975637 0.079661 0.000000 0.000000 0.000000
0.961468 1.042910 0.092986 0.000000 0.000000 0.000000
0.940295 1.052001 0.094880 0.000000 0.000000 0.000000
1.058174 0.955893 0.076558 0.000000 0.000000 0.000000
0.991175 1.074750 0.064305 0.000000 0.000000 0.000000
1.047108 1.034976 0.065813 0.000000 0.000000 0.000000
1.031946 1.073739 0.060273 0.000000 0.000000 0.000000
1.014929 0.961713 0.088145 0.000000 0.000000 0.000000
0.951837 1.064719 0.084238 0.000000 0.000000 0.000000
0.997179 1.070693 0.065739 0.000000 0.000000 0.000000
1.061850 0.961665 0.080887 0.000000 0.000000 0.000000
1.005378 1.049900 0.059826 0.000000 0.000000 0.000000
1.030958 1.048231 0.062956 0.000000 0.000000 0.000000
0.989808 1.071908 0.066563 0.000000 0.000000 0.000000
0.987082 1.083790 0.067583 0.000000 0.000000 0.000000
1.005560 1.077790 0.062912 0.000000 0.000000 0.000000
1.000493 1.059950 0.064407 0.000000 0.000000 0.000000
0.999062 1.061069 0.065422 0.000000 0.000000 0.000000
0.997499 1.081009 0.063234 0.000000 0.000000 0.000000
1.010427 1.077507 0.063946 0.000000 0.000000 0.000000
1.016734 1.064796 0.063288 0.000000 0.000000 0.000000
1.012089 1.036156 0.065746 0.000000 0.000000 0.000000
1.017825 1.059359 0.064660 0.000000 0.000000 0.000000
0.948685 1.069083 0.079476 0.000000 0.000000 0.000000
0.941381 1.024303 0.101934 0.000000 0.000000 0.000000
1.009560 1.080811 0.061806 0.000000 0.000000 0.000000
1.038354 1.040518 0.063983 0.000000 0.000000 0.000000
0.965480 1.054299 0.083001 0.000000 0.000000 0.000000
1.010471 1.016541 0.067785 0.000000 0.000000 0.000000
1.033341 0.985246 0.078873 0.000000 0.000000 0.000000
0.992580 0.998453 0.091099 0.000000 0.000000 0.000000
1.000555 0.965812 0.092698 0.000000 0.000000 0.000000
0.952260 1.028953 0.095572 0.000000 0.000000 0.000000
0.944633 1.088599 0.087458 0.000000 0.000000 0.000000
1.034924 1.050589 0.064589 0.000000 0.000000 0.000000
1.052329 1.032679 0.066165 0.000000 0.000000 0.000000
1.055936 0.967455 0.076804 0.000000 0.000000 0.000000
1.060383 0.980152 0.074410 0.000000 0.000000 0.000000
1.060883 0.988664 0.080819 0.000000 0.000000 0.000000
0.953022 1.087820 0.083102 0.000000 0.000000 0.000000
0.946478 1.052521 0.091413 0.000000 0.000000 0.000000
1.016988 0.979862 0.081792 0.000000 0.000000 0.000000
1.046652 1.056954 0.059699 0.000000 0.000000 0.000000
1.054920 0.985264 0.070431 0.000000 0.000000 0.000000
1.054456 0.980180 0.067299 0.000000 0.000000 0.000000
0.946043 1.018288 0.103835 0.000000 0.000000 0.000000
0.946744 1.092317 0.089534 0.000000 0.000000 0.000000
0.984296 0.991878 0.096659 0.000000 0.000000 0.000000
0.950552 1.020682 0.099521 0.000000 0.000000 0.000000
0.951391 1.023205 0.097754 0.000000 0.000000 0.000000
1.051617 1.049205 0.061014 0.000000 0.000000 0.000000
1.008131 1.081069 0.067069 0.000000 0.000000 0.000000
1.041196 1.050191 0.062440 0.000000 0.000000 0.000000
1.037494 0.950374 0.089141 0.000000 0.000000 0.000000
1.031683 1.053567 0.064866 0.000000 0.000000 0.000000
1.002303 0.979078 0.086359 0.000000 0.000000 0.000000
1.031768 0.956342 0.084196 0.000000 0.000000 0.000000
1.048920 1.027591 0.065145 0.000000 0.000000 0.000000
1.010830 0.979927 0.085425 0.000000 0.000000 0.000000
1.007618 0.964587 0.091515 0.000000 0.000000 0.000000
1.040173 0.974667 0.080480 0.000000 0.000000 0.000000
1.008378 0.966964 0.091272 0.000000 0.000000 0.000000
0.946953 1.063160 0.080068 0.000000 0.000000 0.000000
0.940765 1.055065 0.097260 0.000000 0.000000 0.000000
0.940473 1.029771 0.101165 0.000000 0.000000 0.000000
1.026153 1.060051 0.060618 0.000000 0.000000 0.000000
1.024740 1.064388 0.061482 0.000000 0.000000 0.000000
0.943035 1.058753 0.099921 0.000000 0.000000 0.000000
0.966345 0.996781 0.100362 0.000000 0.000000 0.000000
1.035623 1.036927 0.065156 0.000000 0.000000 0.000000
0.943908 1.028317 0.092537 0.000000 0.000000 0.000000
0.941944 1.061442 0.093065 0.000000 0.000000 0.000000
1.029979 1.011138 0.065745 0.000000 0.000000 0.000000
1.037569 1.027900 0.066704 0.000000 0.000000 0.000000
0.941990 1.036455 0.097270 0.000000 0.000000 0.000000
0.931655 1.070657 0.097007 0.000000 0.000000 0.000000
0.947339 1.027850 0.098161 0.000000 0.000000 0.000000
0.974101 0.988421 0.100537 0.000000 0.000000 0.000000
1.015911 1.076894 0.062416 0.000000 0.000000 0.000000
1.032979 1.025826 0.065843 0.000000 0.000000 0.000000
1.006593 0.984719 0.074439 0.000000 0.000000 0.000000
0.985557 0.997113 0.080774 0.000000 0.000000 0.000000
0.930916 1.084811 0.094891 0.000000 0.000000 0.000000
0.953907 1.036257 0.093602 0.000000 0.000000 0.000000
1.009343 0.964359 0.094276 0.000000 0.000000 0.000000
0.981004 0.985710 0.093870 0.000000 0.000000 0.000000
0.976158 1.088395 0.072186 0.000000 0.000000 0.000000
0.985178 0.975111 0.094317 0.000000 0.000000 0.000000
0.931934 1.071088 0.096848 0.000000 0.000000 0.000000
0.990037 0.972774 0.100067 0.000000 0.000000 0.000000
1.012522 0.972252 0.086356 0.000000 0.000000 0.000000
0.998362 0.998443 0.077207 0.000000 0.000000 0.000000
0.928531 1.076545 0.094169 0.000000 0.000000 0.000000
0.953519 1.036908 0.092360 0.000000 0.000000 0.000000
0.933035 1.058007 0.098970 0.000000 0.000000 0.000000
0.985598 0.996988 0.084198 0.000000 0.000000 0.000000
0.962630 1.011807 0.098889 0.000000 0.000000 0.000000
1.013064 0.982189 0.082183 0.000000 0.000000 0.000000
1.058342 0.984986 0.076815 0.000000 0.000000 0.000000
0.946727 1.017055 0.097547 0.000000 0.000000 0.000000
0.982295 0.986053 0.094090 0.000000 0.000000 0.000000
0.953394 1.018000 0.096561 0.000000 0.000000 0.000000
0.973843 0.985082 0.099107 0.000000 0.000000 0.000000
0.981366 0.983769 0.098845 0.000000 0.000000 0.000000
0.978951 0.989602 0.094317 0.000000 0.000000 0.000000
1.062057 0.967898 0.074916 0.000000 0.000000 0.000000
0.950014 1.087865 0.076263 0.000000 0.000000 0.000000
1.048024 1.037220 0.069858 0.000000 0.000000 0.000000
0.994222 0.990549 0.091475 0.000000 0.000000 0.000000
1.015290 1.004395 0.067753 0.000000 0.000000 0.000000
1.054662 0.995075 0.068991 0.000000 0.000000 0.000000
0.939380 1.072539 0.095462 0.000000 0.000000 0.000000
0.966978 1.010659 0.089944 0.000000 0.000000 0.000000
1.032128 1.065095 0.061624 0.000000 0.000000 0.000000
0.947542 1.032554 0.097126 0.000000 0.000000 0.000000
0.954157 1.062247 0.079227 0.000000 0.000000 0.000000
0.942560 1.045942 0.095875 0.000000 0.000000 0.000000
1.051540 1.034428 0.073599 0.000000 0.000000 0.000000
1.037749 1.054060 0.063191 0.000000 0.000000 0.000000
1.044411 1.046100 0.059963 0.000000 0.000000 0.000000
0.973794 1.047885 0.077958 0.000000 0.000000 0.000000
1.045637 1.059472 0.061854 0.000000 0.000000 0.000000
1.056548 0.997945 0.072331 0.000000 0.000000 0.000000
0.989010 1.018133 0.073711 0.000000 0.000000 0.000000
1.015611 0.964973 0.088120 0.000000 0.000000 0.000000
1.038240 1.038327 0.059063 0.000000 0.000000 0.000000
1.055956 0.987631 0.067655 0.000000 0.000000 0.000000
1.010036 0.968318 0.093250 0.000000 0.000000 0.000000
1.014917 0.969793 0.082019 0.000000 0.000000 0.000000
0.946677 1.070568 0.086895 0.000000 0.000000 0.000000
0.962349 1.083613 0.077609 0.000000 0.000000 0.000000
0.959864 1.020863 0.090721 0.000000 0.000000 0.000000
1.050352 0.965003 0.077473 0.000000 0.000000 0.000000
0.959269 1.018102 0.095991 0.000000 0.000000 0.000000
0.933112 1.051785 0.099040 0.000000 0.000000 0.000000
0.971668 0.999502 0.089363 0.000000 0.000000 0.000000
0.963070 1.090382 0.075790 0.000000 0.000000 0.000000
0.971505 1.094484 0.071187 0.000000 0.000000 0.000000
0.982872 0.979161 0.099052 0.000000 0.000000 0.000000
1.057124 0.951643 0.078707 0.000000 0.000000 0.000000
1.005685 1.084944 0.060029 0.000000 0.000000 0.000000
1.053717 0.962458 0.082876 0.000000 0.000000 0.000000
0.966324 1.018044 0.090152 0.000000 0.000000 0.000000
0.996357 0.968651 0.091834 0.000000 0.000000 0.000000
1.033727 1.063368 0.063454 0.000000 0.000000 0.000000
1.043844 1.050575 0.060405 0.000000 0.000000 0.000000
1.040276 1.046329 0.063904 0.000000 0.000000 0.000000
1.042316 1.047571 0.062607 0.000000 0.000000 0.000000
1.005322 0.961916 0.097840 0.000000 0.000000 0.000000
0.996521 0.970685 0.096363 0.000000 0.000000 0.000000
1.020893 0.975117 0.082455 0.000000 0.000000 0.000000
1.022383 1.059083 0.062305 0.000000 0.000000 0.000000
1.026573 1.053373 0.063167 0.000000 0.000000 0.000000
1.018730 1.075461 0.062476 0.000000 0.000000 0.000000
1.012866 0.958360 0.093820 0.000000 0.000000 0.000000
1.008947 0.962408 0.094645 0.000000 0.000000 0.000000
1.017050 1.079455 0.062002 0.000000 0.000000 0.000000
0.997202 0.976397 0.094050 0.000000 0.000000 0.000000
1.019453 0.989608 0.078564 0.000000 0.000000 0.000000
1.034509 1.063705 0.062225 0.000000 0.000000 0.000000
1.029164 1.074098 0.059597 0.000000 0.000000 0.000000
1.023009 1.063507 0.061193 0.000000 0.000000 0.000000
1.006676 0.965573 0.092992 0.000000 0.000000 0.000000
1.048246 1.022360 0.065320 0.000000 0.000000 0.000000
1.008784 0.981392 0.082004 0.000000 0.000000 0.000000
0.952546 1.015812 0.097626 0.000000 0.000000 0.000000
0.967989 1.094796 0.071222 0.000000 0.000000 0.000000
1.033222 1.061624 0.058273 0.000000 0.000000 0.000000
0.977837 1.070843 0.069295 0.000000 0.000000 0.000000
1.035423 1.066895 0.061311 0.000000 0.000000 0.000000
1.038350 0.962431 0.080376 0.000000 0.000000 0.000000
1.013130 1.054739 0.062631 0.000000 0.000000 0.000000
1.048047 1.044040 0.061446 0.000000 0.000000 0.000000
0.965370 1.088438 0.079157 0.000000 0.000000 0.000000
1.013781 0.962258 0.093755 0.000000 0.000000 0.000000
1.009324 0.974149 0.086013 0.000000 0.000000 0.000000
0.941929 1.094731 0.083242 0.000000 0.000000 0.000000
0.995868 0.968462 0.098232 0.000000 0.000000 0.000000
0.958079 1.083666 0.079845 0.000000 0.000000 0.000000
0.982372 1.084708 0.067979 0.000000 0.000000 0.000000
0.935175 1.065537 0.095510 0.000000 0.000000 0.000000
0.937802 1.087523 0.090931 0.000000 0.000000 0.000000
0.946374 1.020726 0.102481 0.000000 0.000000 0.000000
0.947349 1.059304 0.093841 0.000000 0.000000 0.000000
0.933530 1.086286 0.093756 0.000000 0.000000 0.000000
0.938204 1.049060 0.098253 0.000000 0.000000 0.000000
1.046915 0.972392 0.072625 0.000000 0.000000 0.000000
0.943414 1.040215 0.098238 0.000000 0.000000 0.000000
0.986999 1.020475 0.074004 0.000000 0.000000 0.000000
1.044911 1.015141 0.066869 0.000000 0.000000 0.000000
0.948514 1.024536 0.098362 0.000000 0.000000 0.000000
0.937477 1.036860 0.100861 0.000000 0.000000 0.000000
1.050967 1.008643 0.073404 0.000000 0.000000 0.000000
0.944582 1.019264 0.090417 0.000000 0.000000 0.000000
0.933910 1.082813 0.094765 0.000000 0.000000 0.000000
1.025430 0.958316 0.088546 0.000000 0.000000 0.000000
0.990813 1.031110 0.068321 0.000000 0.000000 0.000000
0.944059 1.026010 0.100705 0.000000 0.000000 0.000000
0.944991 1.027961 0.099215 0.000000 0.000000 0.000000
0.942426 1.024996 0.101805 0.000000 0.000000 0.000000
0.960487 1.030569 0.085596 0.000000 0.000000 0.000000
0.935662 1.087398 0.095241 0.000000 0.000000 0.000000
0.992883 1.081283 0.064267 0.000000 0.000000 0.000000
1.048486 0.959204 0.078834 0.000000 0.000000 0.000000
0.967293 1.092700 0.071621 0.000000 0.000000 0.000000
0.942256 1.090633 0.087955 0.000000 0.000000 0.000000
0.926243 1.078780 0.089051 0.000000 0.000000 0.000000
1.050924 1.038688 0.062983 0.000000 0.000000 0.000000
0.939166 1.084831 0.091081 0.000000 0.000000 0.000000
1.054440 0.973118 0.075815 0.000000 0.000000 0.000000
1.049403 0.990297 0.069318 0.000000 0.000000 0.000000
0.978402 1.068958 0.073811 0.000000 0.000000 0.000000
1.022990 0.996415 0.066733 0.000000 0.000000 0.000000
0.977472 0.982991 0.100927 0.000000 0.000000 0.000000
0.998747 0.969412 0.094671 0.000000 0.000000 0.000000
1.003561 1.051386 0.067288 0.000000 0.000000 0.000000
1.016791 0.955880 0.092430 0.000000 0.000000 0.000000
1.025612 0.997737 0.069619 0.000000 0.000000 0.000000
1.000926 0.977055 0.084950 0.000000 0.000000 0.000000
1.008663 0.968069 0.088459 0.000000 0.000000 0.000000
1.022860 0.967857 0.087826 0.000000 0.000000 0.000000
0.940009 1.029729 0.102032 0.000000 0.000000 0.000000
0.994500 1.085394 0.064181 0.000000 0.000000 0.000000
0.954675 1.021158 0.101832 0.000000 0.000000 0.000000
0.978024 1.002266 0.085248 0.000000 0.000000 0.000000
0.939812 1.030981 0.102063 0.000000 0.000000 0.000000
0.971536 0.987204 0.101102 0.000000 0.000000 0.000000
0.951872 1.030803 0.093871 0.000000 0.000000 0.000000
0.947639 1.060237 0.088170 0.000000 0.000000 0.000000
0.967561 1.018678 0.086962 0.000000 0.000000 0.000000
0.984712 1.066636 0.068696 0.000000 0.000000 0.000000
1.048146 1.001586 0.071360 0.000000 0.000000 0.000000
0.936670 1.033771 0.101217 0.000000 0.000000 0.000000
1.054633 0.959805 0.079065 0.000000 0.000000 0.000000
0.966676 1.028750 0.087190 0.000000 0.000000 0.000000
0.997710 0.985723 0.081079 0.000000 0.000000 0.000000
1.052669 0.961535 0.085313 0.000000 0.000000 0.000000
0.981117 1.015496 0.085977 0.000000 0.000000 0.000000
1.011448 1.062900 0.066128 0.000000 0.000000 0.000000
0.975516 1.033535 0.076551 0.000000 0.000000 0.000000
1.059111 0.970009 0.074069 0.000000 0.000000 0.000000
1.042789 0.967177 0.077870 0.000000 0.000000 0.000000
0.937759 1.038079 0.101985 0.000000 0.000000 0.000000
0.982834 0.979575 0.099518 0.000000 0.000000 0.000000
0.938222 1.042582 0.100199 0.000000 0.000000 0.000000
0.944370 1.101255 0.088388 0.000000 0.000000 0.000000
1.034176 1.051085 0.061516 0.000000 0.000000 0.000000
1.007435 0.962491 0.098726 0.000000 0.000000 0.000000
0.988876 1.091706 0.065189 0.000000 0.000000 0.000000
0.986074 1.083953 0.067725 0.000000 0.000000 0.000000
1.027183 0.965783 0.085697 0.000000 0.000000 0.000000
0.937284 1.103649 0.088987 0.000000 0.000000 0.000000
1.047167 1.022587 0.067046 0.000000 0.000000 0.000000
0.956231 1.097591 0.078935 0.000000 0.000000 0.000000
1.016538 0.969850 0.085172 0.000000 0.000000 0.000000
0.963661 1.094002 0.071269 0.000000 0.000000 0.000000
0.989005 1.089423 0.064727 0.000000 0.000000 0.000000
1.050018 0.953395 0.076495 0.000000 0.000000 0.000000
0.990716 0.975849 0.097998 0.000000 0.000000 0.000000
1.048599 1.011149 0.068412 0.000000 0.000000 0.000000
0.998783 0.967456 0.095394 0.000000 0.000000 0.000000
1.054945 0.986368 0.076398 0.000000 0.000000 0.000000
1.042114 1.015060 0.073838 0.000000 0.000000 0.000000
0.969779 0.988847 0.094466 0.000000 0.000000 0.000000
0.971697 0.997518 0.092757 0.000000 0.000000 0.000000
0.990359 1.091538 0.058172 0.000000 0.000000 0.000000
0.941934 1.078142 0.088636 0.000000 0.000000 0.000000
0.943438 1.062259 0.088840 0.000000 0.000000 0.000000
0.931280 1.065740 0.097922 0.000000 0.000000 0.000000
1.058086 0.979374 0.071688 0.000000 0.000000 0.000000
1.051966 1.042103 0.059761 0.000000 0.000000 0.000000
0.933255 1.069286 0.088988 0.000000 0.000000 0.000000
0.936578 1.088456 0.092381 0.000000 0.000000 0.000000
0.964719 1.035594 0.075644 0.000000 0.000000 0.000000
0.951623 1.097465 0.084156 0.000000 0.000000 0.000000
0.941753 1.073920 0.087835 0.000000 0.000000 0.000000
1.000931 0.971548 0.093903 0.000000 0.000000 0.000000
0.984217 1.061811 0.068113 0.000000 0.000000 0.000000
0.943377 1.094662 0.090572 0.000000 0.000000 0.000000
1.025357 0.951006 0.088794 0.000000 0.000000 0.000000
0.935886 1.083998 0.091976 0.000000 0.000000 0.000000
0.942226 1.093759 0.091825 0.000000 0.000000 0.000000
0.936575 1.087997 0.087991 0.000000 0.000000 0.000000
0.940813 1.069480 0.087295 0.000000 0.000000 0.000000
0.934028 1.090078 0.093172 0.000000 0.000000 0.000000
0.930035 1.075886 0.098999 0.000000 0.000000 0.000000
0.976031 1.003639 0.090564 0.000000 0.000000 0.000000
0.994600 0.994589 0.078049 0.000000 0.000000 0.000000
0.971511 1.014939 0.089175 0.000000 0.000000 0.000000
1.003630 0.996218 0.074304 0.000000 0.000000 0.000000
0.980234 0.987587 0.093350 0.000000 0.000000 0.000000
1.045755 1.005124 0.067876 0.000000 0.000000 0.000000
0.932805 1.087309 0.095135 0.000000 0.000000 0.000000
1.018144 0.962830 0.090330 0.000000 0.000000 0.000000
1.016573 0.972562 0.090490 0.000000 0.000000 0.000000
0.956274 1.043489 0.084443 0.000000 0.000000 0.000000
1.017741 0.962135 0.092184 0.000000 0.000000 0.000000
1.000599 0.959757 0.100246 0.000000 0.000000 0.000000
1.052768 1.002161 0.069287 0.000000 0.000000 0.000000
1.018249 0.983057 0.074227 0.000000 0.000000 0.000000
1.033641 1.045048 0.079130 0.000000 0.000000 0.000000
1.054500 0.987623 0.074362 0.000000 0.000000 0.000000
1.050918 1.004963 0.069152 0.000000 0.000000 0.000000
1.043748 1.041421 0.076163 0.000000 0.000000 0.000000
1.061459 0.982160 0.072181 0.000000 0.000000 0.000000
1.048566 1.043107 0.066761 0.000000 0.000000 0.000000
1.054912 0.954131 0.079532 0.000000 0.000000 0.000000
1.044508 1.049834 0.059324 0.000000 0.000000 0.000000
1.041875 1.050815 0.061158 0.000000 0.000000 0.000000
1.045406 1.055420 0.060751 0.000000 0.000000 0.000000
1.054470 1.033468 0.064954 0.000000 0.000000 0.000000
1.059036 0.971505 0.072164 0.000000 0.000000 0.000000
0.978166 1.094908 0.066786 0.000000 0.000000 0.000000
0.984623 1.094152 0.065110 0.000000 0.000000 0.000000
1.000806 1.085198 0.061704 0.000000 0.000000 0.000000
1.048634 0.960822 0.084605 0.000000 0.000000 0.000000
1.004311 1.062465 0.062781 0.000000 0.000000 0.000000
1.037202 0.967053 0.087754 0.000000 0.000000 0.000000
1.021230 1.075359 0.059807 0.000000 0.000000 0.000000
0.940386 1.082393 0.090239 0.000000 0.000000 0.000000
1.056302 1.006776 0.069452 0.000000 0.000000 0.000000
0.967398 0.989913 0.103042 0.000000 0.000000 0.000000
1.004550 0.970105 0.094081 0.000000 0.000000 0.000000
1.059513 0.979600 0.073252 0.000000 0.000000 0.000000
0.993906 0.971931 0.096345 0.000000 0.000000 0.000000
1.056396 1.012843 0.071490 0.000000 0.000000 0.000000
1.047186 1.055492 0.059738 0.000000 0.000000 0.000000
1.042168 1.026207 0.062747 0.000000 0.000000 0.000000
0.991751 0.980595 0.094409 0.000000 0.000000 0.000000
1.047494 1.052210 0.058930 0.000000 0.000000 0.000000
1.056286 1.018575 0.068226 0.000000 0.000000 0.000000
0.942929 1.076598 0.089354 0.000000 0.000000 0.000000
0.951308 1.103349 0.084630 0.000000 0.000000 0.000000
1.010294 1.082967 0.061506 0.000000 0.000000 0.000000
1.031751 1.063704 0.061299 0.000000 0.000000 0.000000
0.930425 1.072310 0.097853 0.000000 0.000000 0.000000
1.016834 1.015365 0.065803 0.000000 0.000000 0.000000
1.027626 1.068872 0.061595 0.000000 0.000000 0.000000
1.013793 1.073096 0.062690 0.000000 0.000000 0.000000
1.026951 1.019519 0.065931 0.000000 0.000000 0.000000
1.063097 0.973943 0.076715 0.000000 0.000000 0.000000
1.019925 1.003897 0.068625 0.000000 0.000000 0.000000
1.004084 1.067769 0.065057 0.000000 0.000000 0.000000
1.037582 1.003258 0.066701 0.000000 0.000000 0.000000
1.017201 0.976207 0.077386 0.000000 0.000000 0.000000
1.020581 1.071349 0.061608 0.000000 0.000000 0.000000
1.043904 0.978867 0.079415 0.000000 0.000000 0.000000
1.059134 0.981447 0.073080 0.000000 0.000000 0.000000
1.043779 1.013132 0.067988 0.000000 0.000000 0.000000
1.042582 1.034662 0.061508 0.000000 0.000000 0.000000
1.058025 0.989818 0.068953 0.000000 0.000000 0.000000
1.061803 0.994470 0.068992 0.000000 0.000000 0.000000
1.045911 1.047039 0.064450 0.000000 0.000000 0.000000
1.046763 1.039548 0.064234 0.000000 0.000000 0.000000
1.040385 0.987569 0.074973 0.000000 0.000000 0.000000
0.940308 1.096208 0.089260 0.000000 0.000000 0.000000
0.956004 1.064717 0.082821 0.000000 0.000000 0.000000
0.953714 1.089605 0.077388 0.000000 0.000000 0.000000
0.944320 1.099434 0.088277 0.000000 0.000000 0.000000
1.049584 1.002596 0.070389 0.000000 0.000000 0.000000
1.010802 1.047900 0.073058 0.000000 0.000000 0.000000
0.938848 1.095570 0.091141 0.000000 0.000000 0.000000
1.026232 1.074657 0.060018 0.000000 0.000000 0.000000
1.041439 0.988166 0.075907 0.000000 0.000000 0.000000
1.045441 0.984937 0.078042 0.000000 0.000000 0.000000
1.032196 1.070643 0.060821 0.000000 0.000000 0.000000
1.040832 1.061794 0.061288 0.000000 0.000000 0.000000
0.985201 0.974307 0.101880 0.000000 0.000000 0.000000
1.053719 1.016673 0.068185 0.000000 0.000000 0.000000
1.022042 1.009665 0.069155 0.000000 0.000000 0.000000
1.028282 1.011469 0.066402 0.000000 0.000000 0.000000
0.989729 1.037837 0.071806 0.000000 0.000000 0.000000
1.050711 0.989658 0.072820 0.000000 0.000000 0.000000
1.007929 1.077167 0.066088 0.000000 0.000000 0.000000
1.051174 1.015622 0.067458 0.000000 0.000000 0.000000
0.946067 1.029059 0.098257 0.000000 0.000000 0.000000
0.969179 0.988954 0.102575 0.000000 0.000000 0.000000
0.947989 1.046009 0.091455 0.000000 0.000000 0.000000
0.930842 1.077014 0.096779 0.000000 0.000000 0.000000
0.947185 1.071822 0.080587 0.000000 0.000000 0.000000
0.934252 1.060249 0.097944 0.000000 0.000000 0.000000
0.943014 1.029531 0.101005 0.000000 0.000000 0.000000
0.937990 1.036447 0.103480 0.000000 0.000000 0.000000
0.929618 1.080905 0.096260 0.000000 0.000000 0.000000
0.944026 1.063353 0.085875 0.000000 0.000000 0.000000
0.950338 1.044277 0.089828 0.000000 0.000000 0.000000
1.001515 1.008411 0.071176 0.000000 0.000000 0.000000
0.937457 1.082495 0.091964 0.000000 0.000000 0.000000
0.947544 1.038070 0.095194 0.000000 0.000000 0.000000
1.054825 1.004554 0.069544 0.000000 0.000000 0.000000
0.964609 1.004166 0.096876 0.000000 0.000000 0.000000
0.981314 1.026908 0.076136 0.000000 0.000000 0.000000
0.946201 1.051386 0.087397 0.000000 0.000000 0.000000
0.932969 1.063263 0.096439 0.000000 0.000000 0.000000
0.935455 1.052788 0.098271 0.000000 0.000000 0.000000
0.949499 1.043598 0.091559 0.000000 0.000000 0.000000
0.954738 1.037249 0.089147 0.000000 0.000000 0.000000
0.964908 1.061118 0.078427 0.000000 0.000000 0.000000
0.967570 1.027931 0.078608 0.000000 0.000000 0.000000
0.940149 1.097411 0.092593 0.000000 0.000000 0.000000
0.939066 1.033324 0.101331 0.000000 0.000000 0.000000
0.962434 1.021506 0.085745 0.000000 0.000000 0.000000
0.938527 1.047968 0.096495 0.000000 0.000000 0.000000
0.939454 1.032092 0.101588 0.000000 0.000000 0.000000
0.933169 1.054514 0.098615 0.000000 0.000000 0.000000
0.937328 1.070685 0.093214 0.000000 0.000000 0.000000
1.038100 1.061871 0.061701 0.000000 0.000000 0.000000
0.997663 0.976554 0.089104 0.000000 0.000000 0.000000
1.056100 1.003208 0.071785 0.000000 0.000000 0.000000
0.931692 1.077776 0.097900 0.000000 0.000000 0.000000
0.967368 0.992848 0.101350 0.000000 0.000000 0.000000
0.953328 1.100104 0.078069 0.000000 0.000000 0.000000
0.941418 1.079168 0.091580 0.000000 0.000000 0.000000
0.985543 1.024311 0.074260 0.000000 0.000000 0.000000
0.952630 1.090860 0.082702 0.000000 0.000000 0.000000
1.054117 0.988680 0.072188 0.000000 0.000000 0.000000
0.987638 1.093242 0.064462 0.000000 0.000000 0.000000
0.959443 1.067120 0.078984 0.000000 0.000000 0.000000
1.035631 1.059473 0.062048 0.000000 0.000000 0.000000
0.989263 1.076826 0.062273 0.000000 0.000000 0.000000
0.972272 1.088301 0.075667 0.000000 0.000000 0.000000
0.971037 1.084517 0.072986 0.000000 0.000000 0.000000
0.982499 0.986529 0.092263 0.000000 0.000000 0.000000
0.932931 1.059457 0.098212 0.000000 0.000000 0.000000
0.983310 1.096829 0.063443 0.000000 0.000000 0.000000
0.992557 1.083869 0.064023 0.000000 0.000000 0.000000
0.990730 1.083542 0.063875 0.000000 0.000000 0.000000
0.938565 1.090485 0.094295 0.000000 0.000000 0.000000
1.048491 1.000238 0.067875 0.000000 0.000000 0.000000
1.039970 0.982591 0.075668 0.000000 0.000000 0.000000
0.973266 1.082574 0.071365 0.000000 0.000000 0.000000
1.032207 0.997144 0.069937 0.000000 0.000000 0.000000
1.040587 0.987396 0.066263 0.000000 0.000000 0.000000
1.048023 1.055518 0.060801 0.000000 0.000000 0.000000
1.034089 1.029225 0.076595 0.000000 0.000000 0.000000
1.043372 1.013141 0.066592 0.000000 0.000000 0.000000
1.031079 1.016151 0.070315 0.000000 0.000000 0.000000
1.027259 0.980737 0.074227 0.000000 0.000000 0.000000
0.958914 1.087753 0.071749 0.000000 0.000000 0.000000
0.997025 1.082666 0.062858 0.000000 0.000000 0.000000
0.995181 1.027937 0.069001 0.000000 0.000000 0.000000
1.064950 0.980753 0.074732 0.000000 0.000000 0.000000
1.054374 0.996935 0.070055 0.000000 0.000000 0.000000
0.990475 0.977057 0.090575 0.000000 0.000000 0.000000
1.013745 0.955369 0.092224 0.000000 0.000000 0.000000
1.060886 0.976305 0.068172 0.000000 0.000000 0.000000
0.980012 0.981010 0.102274 0.000000 0.000000 0.000000
1.024016 0.961865 0.087215 0.000000 0.000000 0.000000
1.048520 1.050239 0.058267 0.000000 0.000000 0.000000
1.013979 0.961848 0.089179 0.000000 0.000000 0.000000
1.026276 0.959661 0.084229 0.000000 0.000000 0.000000
0.954217 1.079317 0.081587 0.000000 0.000000 0.000000
1.062475 0.982424 0.074230 0.000000 0.000000 0.000000
1.062092 0.980768 0.064967 0.000000 0.000000 0.000000
1.015120 0.961987 0.092132 0.000000 0.000000 0.000000
1.015859 0.966014 0.093302 0.000000 0.000000 0.000000
1.058432 0.969474 0.073495 0.000000 0.000000 0.000000
1.011880 0.968620 0.089884 0.000000 0.000000 0.000000
1.011349 0.963175 0.092599 0.000000 0.000000 0.000000
1.063107 0.959898 0.075851 0.000000 0.000000 0.000000
1.015847 1.035122 0.082719 0.000000 0.000000 0.000000
0.935656 1.039413 0.102848 0.000000 0.000000 0.000000
0.936411 1.064563 0.095252 0.000000 0.000000 0.000000
1.031206 1.061120 0.061816 0.000000 0.000000 0.000000
1.019188 1.078573 0.060703 0.000000 0.000000 0.000000
0.983399 0.975058 0.102352 0.000000 0.000000 0.000000
1.029155 1.056601 0.062927 0.000000 0.000000 0.000000
0.943947 1.094323 0.086359 0.000000 0.000000 0.000000
1.055092 0.961938 0.077732 0.000000 0.000000 0.000000
0.947361 1.043398 0.094407 0.000000 0.000000 0.000000
0.941078 1.044474 0.099340 0.000000 0.000000 0.000000
0.938928 1.095336 0.094267 0.000000 0.000000 0.000000
0.942363 1.059289 0.092055 0.000000 0.000000 0.000000
0.940797 1.099169 0.092146 0.000000 0.000000 0.000000
1.022483 0.956116 0.090813 0.000000 0.000000 0.000000
0.936769 1.092660 0.093873 0.000000 0.000000 0.000000
0.929874 1.090384 0.094207 0.000000 0.000000 0.000000
0.942765 1.099455 0.090170 0.000000 0.000000 0.000000
1.042810 1.055602 0.062287 0.000000 0.000000 0.000000
0.938848 1.056834 0.095002 0.000000 0.000000 0.000000
0.985839 1.089726 0.067180 0.000000 0.000000 0.000000
1.036656 0.946740 0.088740 0.000000 0.000000 0.000000
0.954297 1.093041 0.078440 0.000000 0.000000 0.000000
1.060721 0.960565 0.075674 0.000000 0.000000 0.000000
0.964915 1.076499 0.076969 0.000000 0.000000 0.000000
1.026757 0.961711 0.084998 0.000000 0.000000 0.000000
1.022982 1.070581 0.064054 0.000000 0.000000 0.000000
0.942320 1.085968 0.090482 0.000000 0.000000 0.000000
1.015944 0.970171 0.087497 0.000000 0.000000 0.000000
1.018220 0.955234 0.090515 0.000000 0.000000 0.000000
0.991780 1.062086 0.067657 0.000000 0.000000 0.000000
1.024374 1.078003 0.059057 0.000000 0.000000 0.000000
0.938130 1.057206 0.084962 0.000000 0.000000 0.000000
1.022058 0.954851 0.087677 0.000000 0.000000 0.000000
0.949131 1.037203 0.104193 0.000000 0.000000 0.000000
1.000761 0.966835 0.098212 0.000000 0.000000 0.000000
1.052988 1.037595 0.063230 0.000000 0.000000 0.000000
1.052970 1.029280 0.067791 0.000000 0.000000 0.000000
1.030189 1.072560 0.060185 0.000000 0.000000 0.000000
0.930926 1.078156 0.096127 0.000000 0.000000 0.000000
0.932956 1.087499 0.093047 0.000000 0.000000 0.000000
1.052574 1.007702 0.067920 0.000000 0.000000 0.000000
1.053112 1.023641 0.068997 0.000000 0.000000 0.000000
1.048053 1.043626 0.059507 0.000000 0.000000 0.000000
1.053446 1.015598 0.068882 0.000000 0.000000 0.000000
0.944578 1.096914 0.088014 0.000000 0.000000 0.000000
1.052268 1.010835 0.066981 0.000000 0.000000 0.000000
1.057638 1.010809 0.072238 0.000000 0.000000 0.000000
0.993469 1.051587 0.064324 0.000000 0.000000 0.000000
0.982135 1.093498 0.067368 0.000000 0.000000 0.000000
1.051953 1.037136 0.065214 0.000000 0.000000 0.000000
1.034940 0.952345 0.087246 0.000000 0.000000 0.000000
0.982784 1.093816 0.065933 0.000000 0.000000 0.000000
1.043055 0.966899 0.077152 0.000000 0.000000 0.000000
1.017422 0.954607 0.091903 0.000000 0.000000 0.000000
1.005859 1.039914 0.060592 0.000000 0.000000 0.000000
1.017369 0.952769 0.092070 0.000000 0.000000 0.000000
1.022985 0.962844 0.090964 0.000000 0.000000 0.000000
1.036726 0.996606 0.071169 0.000000 0.000000 0.000000
0.944710 1.101104 0.089002 0.000000 0.000000 0.000000
1.008075 1.070942 0.062759 0.000000 0.000000 0.000000
0.996988 0.960238 0.092941 0.000000 0.000000 0.000000
0.990562 0.974481 0.095575 0.000000 0.000000 0.000000
1.023225 1.069152 0.061784 0.000000 0.000000 0.000000
1.049549 1.012261 0.068764 0.000000 0.000000 0.000000
1.053143 1.015828 0.066704 0.000000 0.000000 0.000000
0.983875 0.977008 0.099419 0.000000 0.000000 0.000000
0.942156 1.095580 0.088749 0.000000 0.000000 0.000000
0.944631 1.089892 0.087467 0.000000 0.000000 0.000000
0.952500 1.085015 0.078827 0.000000 0.000000 0.000000
0.996451 0.971995 0.095569 0.000000 0.000000 0.000000
0.960422 1.080596 0.079442 0.000000 0.000000 0.000000
0.934527 1.095348 0.092922 0.000000 0.000000 0.000000
0.972185 0.984635 0.101940 0.000000 0.000000 0.000000
0.976761 0.998549 0.088090 0.000000 0.000000 0.000000
0.969872 0.995448 0.096348 0.000000 0.000000 0.000000
0.945445 1.024917 0.099644 0.000000 0.000000 0.000000
1.028786 0.951487 0.089357 0.000000 0.000000 0.000000
0.971722 0.997867 0.092590 0.000000 0.000000 0.000000
0.967805 1.006649 0.087131 0.000000 0.000000 0.000000
0.953623 1.015629 0.102006 0.000000 0.000000 0.000000
1.038075 0.954597 0.083116 0.000000 0.000000 0.000000
0.986023 0.993502 0.086487 0.000000 0.000000 0.000000
0.968400 1.062268 0.082504 0.000000 0.000000 0.000000
0.927762 1.088347 0.085990 0.000000 0.000000 0.000000
1.048642 1.048367 0.061431 0.000000 0.000000 0.000000
1.047114 1.050232 0.058586 0.000000 0.000000 0.000000
0.932753 1.077229 0.097055 0.000000 0.000000 0.000000
0.978303 0.991856 0.093380 0.000000 0.000000 0.000000
1.054798 0.978552 0.075089 0.000000 0.000000 0.000000
0.960616 1.011222 0.086992 0.000000 0.000000 0.000000
1.066548 0.966290 0.085341 0.000000 0.000000 0.000000
0.967841 1.004148 0.089890 0.000000 0.000000 0.000000
1.011806 1.081104 0.060388 0.000000 0.000000 0.000000
0.963546 1.002965 0.093719 0.000000 0.000000 0.000000
1.009172 1.084035 0.060762 0.000000 0.000000 0.000000
0.936403 1.034953 0.103306 0.000000 0.000000 0.000000
0.941004 1.038922 0.098734 0.000000 0.000000 0.000000
1.048379 1.045046 0.061575 0.000000 0.000000 0.000000
0.942971 1.033470 0.102624 0.000000 0.000000 0.000000
0.964701 1.001659 0.096824 0.000000 0.000000 0.000000
0.960441 1.089142 0.077572 0.000000 0.000000 0.000000
0.934938 1.043293 0.099930 0.000000 0.000000 0.000000
0.961672 1.095435 0.076554 0.000000 0.000000 0.000000
0.929522 1.044947 0.101962 0.000000 0.000000 0.000000
0.960499 1.090809 0.077533 0.000000 0.000000 0.000000
0.935315 1.055869 0.097503 0.000000 0.000000 0.000000
1.003893 1.076621 0.063151 0.000000 0.000000 0.000000
1.017326 1.062584 0.063330 0.000000 0.000000 0.000000
1.013616 1.076623 0.063130 0.000000 0.000000 0.000000
0.966274 0.995209 0.100685 0.000000 0.000000 0.000000
1.012584 1.081176 0.061579 0.000000 0.000000 0.000000
1.016835 1.071833 0.062905 0.000000 0.000000 0.000000
0.979087 0.985688 0.094056 0.000000 0.000000 0.000000
1.008364 1.066632 0.063572 0.000000 0.000000 0.000000
1.027761 1.054551 0.061014 0.000000 0.000000 0.000000
1.013178 1.081702 0.059443 0.000000 0.000000 0.000000
1.017940 1.071163 0.062616 0.000000 0.000000 0.000000
1.023331 1.074217 0.062453 0.000000 0.000000 0.000000
1.024426 1.075949 0.060767 0.000000 0.000000 0.000000
1.014424 1.081588 0.061396 0.000000 0.000000 0.000000
0.970951 1.094362 0.072842 0.000000 0.000000 0.000000
0.951737 1.048510 0.091100 0.000000 0.000000 0.000000
0.984709 0.979191 0.099490 0.000000 0.000000 0.000000
0.972388 1.074924 0.071184 0.000000 0.000000 0.000000
0.987448 0.971860 0.101307 0.000000 0.000000 0.000000
1.064284 0.959882 0.078572 0.000000 0.000000 0.000000
0.958833 1.081015 0.080993 0.000000 0.000000 0.000000
1.025543 1.064612 0.061135 0.000000 0.000000 0.000000
1.046083 1.007287 0.074714 0.000000 0.000000 0.000000
1.026941 1.043560 0.065258 0.000000 0.000000 0.000000
1.003932 0.977432 0.091203 0.000000 0.000000 0.000000
0.934758 1.046530 0.099107 0.000000 0.000000 0.000000
0.981780 1.095625 0.065540 0.000000 0.000000 0.000000
1.021357 0.987097 0.078565 0.000000 0.000000 0.000000
0.954576 1.087116 0.079996 0.000000 0.000000 0.000000
1.061809 0.958005 0.078687 0.000000 0.000000 0.000000
1.004278 1.062320 0.060460 0.000000 0.000000 0.000000
0.978598 1.095277 0.069613 0.000000 0.000000 0.000000
1.064678 0.976674 0.076310 0.000000 0.000000 0.000000
1.050297 1.045830 0.062679 0.000000 0.000000 0.000000
1.059664 0.992364 0.070711 0.000000 0.000000 0.000000
0.964126 1.089162 0.076916 0.000000 0.000000 0.000000
0.983923 1.090605 0.067102 0.000000 0.000000 0.000000
0.972988 1.097601 0.066297 0.000000 0.000000 0.000000
0.988741 1.093007 0.065211 0.000000 0.000000 0.000000
1.053952 0.949394 0.078915 0.000000 0.000000 0.000000
1.015450 1.083243 0.060447 0.000000 0.000000 0.000000
0.945909 1.025113 0.099219 0.000000 0.000000 0.000000
0.948661 1.015759 0.100863 0.000000 0.000000 0.000000
1.049468 1.029714 0.065194 0.000000 0.000000 0.000000
1.061864 0.985531 0.064919 0.000000 0.000000 0.000000
1.052306 0.987371 0.070534 0.000000 0.000000 0.000000
1.060490 0.964845 0.075207 0.000000 0.000000 0.000000
1.012013 1.080891 0.063741 0.000000 0.000000 0.000000
1.035046 1.004039 0.065638 0.000000 0.000000 0.000000
0.955749 1.091370 0.082298 0.000000 0.000000 0.000000
0.969623 0.986476 0.101232 0.000000 0.000000 0.000000
1.001758 1.083699 0.062686 0.000000 0.000000 0.000000
1.027504 1.030839 0.066082 0.000000 0.000000 0.000000
1.061312 0.969276 0.070801 0.000000 0.000000 0.000000
1.054180 0.978989 0.072529 0.000000 0.000000 0.000000
1.060194 0.988447 0.065610 0.000000 0.000000 0.000000
1.006875 1.083509 0.060754 0.000000 0.000000 0.000000
1.053622 0.976187 0.077293 0.000000 0.000000 0.000000
1.054552 1.032090 0.061490 0.000000 0.000000 0.000000
1.037080 0.954988 0.086679 0.000000 0.000000 0.000000
1.030774 0.951819 0.089010 0.000000 0.000000 0.000000
0.990164 0.981987 0.084938 0.000000 0.000000 0.000000
1.030967 0.995977 0.066156 0.000000 0.000000 0.000000
0.982765 1.092366 0.061301 0.000000 0.000000 0.000000
0.937867 1.062653 0.095335 0.000000 0.000000 0.000000
1.000016 1.087494 0.061146 0.000000 0.000000 0.000000
1.016213 0.968100 0.090049 0.000000 0.000000 0.000000
0.932456 1.077289 0.095081 0.000000 0.000000 0.000000
0.933790 1.069266 0.095217 0.000000 0.000000 0.000000
1.054807 1.022795 0.062510 0.000000 0.000000 0.000000
0.931581 1.074433 0.099618 0.000000 0.000000 0.000000
0.934795 1.078958 0.095753 0.000000 0.000000 0.000000
1.052797 1.016651 0.067623 0.000000 0.000000 0.000000
0.951629 1.037985 0.091068 0.000000 0.000000 0.000000
1.044269 0.970226 0.077348 0.000000 0.000000 0.000000
0.954098 1.061695 0.088479 0.000000 0.000000 0.000000
0.965593 1.044582 0.080353 0.000000 0.000000 0.000000
1.050675 1.045718 0.060768 0.000000 0.000000 0.000000
0.934965 1.066623 0.092702 0.000000 0.000000 0.000000
1.049784 1.031852 0.062290 0.000000 0.000000 0.000000
1.035850 1.013226 0.066581 0.000000 0.000000 0.000000
0.991780 1.014299 0.074537 0.000000 0.000000 0.000000
1.045774 1.029518 0.063317 0.000000 0.000000 0.000000
1.042122 1.037154 0.060981 0.000000 0.000000 0.000000
0.993292 1.082957 0.064590 0.000000 0.000000 0.000000
1.041134 1.001888 0.069161 0.000000 0.000000 0.000000
1.057660 0.993576 0.069968 0.000000 0.000000 0.000000
0.989495 0.970004 0.098361 0.000000 0.000000 0.000000
1.060049 0.961838 0.074010 0.000000 0.000000 0.000000
1.000029 0.964069 0.095043 0.000000 0.000000 0.000000
1.049310 0.999725 0.069152 0.000000 0.000000 0.000000
0.939016 1.065739 0.092580 0.000000 0.000000 0.000000
1.054455 0.993675 0.070004 0.000000 0.000000 0.000000
1.055742 1.039154 0.064644 0.000000 0.000000 0.000000
0.988566 0.971370 0.101006 0.000000 0.000000 0.000000
1.001493 0.958634 0.091645 0.000000 0.000000 0.000000
0.986415 0.973924 0.099163 0.000000 0.000000 0.000000
0.958347 1.058161 0.076977 0.000000 0.000000 0.000000
1.046950 1.028422 0.068327 0.000000 0.000000 0.000000
1.055680 0.962947 0.076052 0.000000 0.000000 0.000000
1.041358 0.987149 0.076619 0.000000 0.000000 0.000000
1.060813 0.972326 0.069197 0.000000 0.000000 0.000000
0.956584 1.061808 0.082832 0.000000 0.000000 0.000000
1.054801 0.957492 0.077643 0.000000 0.000000 0.000000
1.045135 1.020108 0.074036 0.000000 0.000000 0.000000
1.059049 0.952206 0.079236 0.000000 0.000000 0.000000
1.057294 0.970179 0.072771 0.000000 0.000000 0.000000
1.052727 1.004595 0.069373 0.000000 0.000000 0.000000
1.061628 0.969228 0.068144 0.000000 0.000000 0.000000
0.968052 1.098098 0.069067 0.000000 0.000000 0.000000
1.058400 0.999213 0.063716 0.000000 0.000000 0.000000
1.052346 0.999477 0.069969 0.000000 0.000000 0.000000
1.025910 0.949416 0.089888 0.000000 0.000000 0.000000
1.027178 0.952809 0.091268 0.000000 0.000000 0.000000
1.012369 0.959533 0.091510 0.000000 0.000000 0.000000
1.025690 0.953988 0.088483 0.000000 0.000000 0.000000
1.045823 1.056628 0.061695 0.000000 0.000000 0.000000
1.053057 1.011402 0.068394 0.000000 0.000000 0.000000
1.060750 0.988018 0.072339 0.000000 0.000000 0.000000
1.055903 1.002240 0.068115 0.000000 0.000000 0.000000
1.028928 0.961572 0.088300 0.000000 0.000000 0.000000
1.027805 0.955287 0.088692 0.000000 0.000000 0.000000
1.010077 0.960400 0.097498 0.000000 0.000000 0.000000
1.052768 0.993423 0.070253 0.000000 0.000000 0.000000
1.036787 0.953037 0.088662 0.000000 0.000000 0.000000
1.017158 0.959305 0.093823 0.000000 0.000000 0.000000
0.947773 1.094025 0.087230 0.000000 0.000000 0.000000
0.935761 1.054130 0.096359 0.000000 0.000000 0.000000
0.945371 1.096533 0.089115 0.000000 0.000000 0.000000
1.060298 0.951905 0.078649 0.000000 0.000000 0.000000
1.029758 1.073930 0.058223 0.000000 0.000000 0.000000
0.948858 1.096360 0.082837 0.000000 0.000000 0.000000
0.968708 1.059843 0.071221 0.000000 0.000000 0.000000
1.002343 1.020163 0.071760 0.000000 0.000000 0.000000
0.979349 0.978391 0.092033 0.000000 0.000000 0.000000
0.995417 0.963906 0.099801 0.000000 0.000000 0.000000
0.995218 0.966126 0.098754 0.000000 0.000000 0.000000
0.945296 1.027183 0.097417 0.000000 0.000000 0.000000
0.999033 0.966586 0.095414 0.000000 0.000000 0.000000
1.001493 0.965221 0.096159 0.000000 0.000000 0.000000
0.996708 0.969141 0.097099 0.000000 0.000000 0.000000
0.990789 0.967262 0.102404 0.000000 0.000000 0.000000
1.064895 0.969044 0.075917 0.000000 0.000000 0.000000
0.930924 1.076444 0.095207 0.000000 0.000000 0.000000
1.056324 1.011314 0.063066 0.000000 0.000000 0.000000
0.930405 1.089178 0.092834 0.000000 0.000000 0.000000
1.021171 0.956672 0.092512 0.000000 0.000000 0.000000
1.017659 0.946909 0.084762 0.000000 0.000000 0.000000
1.049958 1.040252 0.063504 0.000000 0.000000 0.000000
0.930109 1.053481 0.102025 0.000000 0.000000 0.000000
0.935171 1.044921 0.099933 0.000000 0.000000 0.000000
1.025584 0.949902 0.089399 0.000000 0.000000 0.000000
0.932184 1.060871 0.097985 0.000000 0.000000 0.000000
0.980299 0.978781 0.096743 0.000000 0.000000 0.000000
0.933239 1.054242 0.098911 0.000000 0.000000 0.000000
0.932296 1.060177 0.099460 0.000000 0.000000 0.000000
1.055336 1.015425 0.068852 0.000000 0.000000 0.000000
0.999830 0.989758 0.076292 0.000000 0.000000 0.000000
1.058650 1.012065 0.070142 0.000000 0.000000 0.000000
0.930700 1.080211 0.095645 0.000000 0.000000 0.000000
1.055390 1.001546 0.066897 0.000000 0.000000 0.000000
0.994149 0.975861 0.091968 0.000000 0.000000 0.000000
1.031345 0.955592 0.089302 0.000000 0.000000 0.000000
0.933268 1.045925 0.101175 0.000000 0.000000 0.000000
1.059808 0.984988 0.071741 0.000000 0.000000 0.000000
1.057700 0.988311 0.071355 0.000000 0.000000 0.000000
1.055885 1.016579 0.069140 0.000000 0.000000 0.000000
0.985584 0.973062 0.102992 0.000000 0.000000 0.000000
1.051468 1.013648 0.069826 0.000000 0.000000 0.000000
0.994729 0.963113 0.101260 0.000000 0.000000 0.000000
0.994917 1.041832 0.081314 0.000000 0.000000 0.000000
0.973832 0.988866 0.088312 0.000000 0.000000 0.000000
0.942766 1.074145 0.081001 0.000000 0.000000 0.000000
0.997589 1.024125 0.071243 0.000000 0.000000 0.000000
0.947595 1.025356 0.098669 0.000000 0.000000 0.000000
1.042155 1.049986 0.059823 0.000000 0.000000 0.000000
1.038380 1.055814 0.058963 0.000000 0.000000 0.000000
0.940099 1.030708 0.094614 0.000000 0.000000 0.000000
0.976937 0.980951 0.094608 0.000000 0.000000 0.000000
1.044456 1.058234 0.061179 0.000000 0.000000 0.000000
1.036939 1.060686 0.065424 0.000000 0.000000 0.000000
1.041230 1.032015 0.066174 0.000000 0.000000 0.000000
1.040113 1.048268 0.062349 0.000000 0.000000 0.000000
1.040752 1.056813 0.061277 0.000000 0.000000 0.000000
1.046615 1.049493 0.059492 0.000000 0.000000 0.000000
1.048486 1.053588 0.061666 0.000000 0.000000 0.000000
1.036715 1.054067 0.063264 0.000000 0.000000 0.000000
0.930407 1.083584 0.093939 0.000000 0.000000 0.000000
0.933436 1.082287 0.094437 0.000000 0.000000 0.000000
0.935889 1.092704 0.094050 0.000000 0.000000 0.000000
0.935355 1.079906 0.097552 0.000000 0.000000 0.000000
1.039139 1.052280 0.063189 0.000000 0.000000 0.000000
0.996243 0.970064 0.095927 0.000000 0.000000 0.000000
0.953721 1.064420 0.083534 0.000000 0.000000 0.000000
