ply
format ascii 1.0
comment VCGLIB generated
obj_info Generated by SPFormer!
element vertex 556
property float x
property float y
property float z
property float nx
property float ny
property float nz
end_header
0.689482 1.284314 2.089280 0.000000 0.000000 0.000000
0.644612 1.270918 2.119404 0.000000 0.000000 0.000000
0.716683 1.239520 2.076875 0.000000 0.000000 0.000000
0.709089 1.233812 2.072117 0.000000 0.000000 0.000000
0.694502 1.279976 2.084987 0.000000 0.000000 0.000000
0.656237 1.272011 2.113422 0.000000 0.000000 0.000000
0.693513 1.287915 2.099144 0.000000 0.000000 0.000000
0.640610 1.249691 2.107069 0.000000 0.000000 0.000000
0.694575 1.286830 2.085047 0.000000 0.000000 0.000000
0.714856 1.239568 2.075252 0.000000 0.000000 0.000000
0.858764 1.192166 1.369355 0.000000 0.000000 0.000000
0.851218 1.188172 1.381655 0.000000 0.000000 0.000000
0.850387 1.196638 1.375221 0.000000 0.000000 0.000000
0.710473 1.249604 2.089950 0.000000 0.000000 0.000000
0.659485 1.241699 2.097452 0.000000 0.000000 0.000000
0.704685 1.245728 2.084511 0.000000 0.000000 0.000000
0.860359 1.181411 1.367500 0.000000 0.000000 0.000000
0.861131 1.182722 1.371970 0.000000 0.000000 0.000000
0.684079 1.272060 2.091609 0.000000 0.000000 0.000000
0.700060 1.276372 2.080896 0.000000 0.000000 0.000000
0.857079 1.182532 1.372165 0.000000 0.000000 0.000000
0.705485 1.248270 2.087548 0.000000 0.000000 0.000000
0.845609 1.193906 1.370215 0.000000 0.000000 0.000000
0.863935 1.181656 1.372793 0.000000 0.000000 0.000000
0.716925 1.241097 2.074862 0.000000 0.000000 0.000000
0.672397 1.276221 2.097749 0.000000 0.000000 0.000000
0.713985 1.245681 2.082550 0.000000 0.000000 0.000000
0.685436 1.277610 2.087010 0.000000 0.000000 0.000000
0.681810 1.230325 2.040904 0.000000 0.000000 0.000000
0.686985 1.283332 2.093799 0.000000 0.000000 0.000000
0.666184 1.273077 2.101685 0.000000 0.000000 0.000000
0.828429 1.198882 1.381030 0.000000 0.000000 0.000000
0.692849 1.283358 2.086791 0.000000 0.000000 0.000000
0.655691 1.277415 2.119451 0.000000 0.000000 0.000000
0.671545 1.275409 2.101494 0.000000 0.000000 0.000000
0.711913 1.238412 2.078950 0.000000 0.000000 0.000000
0.703487 1.254525 2.083743 0.000000 0.000000 0.000000
0.853707 1.186238 1.371602 0.000000 0.000000 0.000000
0.699417 1.291141 2.085218 0.000000 0.000000 0.000000
0.712170 1.249531 2.090816 0.000000 0.000000 0.000000
0.702821 1.255986 2.082196 0.000000 0.000000 0.000000
0.691185 1.279322 2.084023 0.000000 0.000000 0.000000
0.711100 1.236731 2.072538 0.000000 0.000000 0.000000
0.714440 1.246415 2.085558 0.000000 0.000000 0.000000
0.865070 1.182406 1.373204 0.000000 0.000000 0.000000
0.685000 1.244887 2.074070 0.000000 0.000000 0.000000
0.716015 1.241835 2.074556 0.000000 0.000000 0.000000
0.676013 1.262825 2.081290 0.000000 0.000000 0.000000
0.831839 1.185574 1.373580 0.000000 0.000000 0.000000
0.710984 1.244552 2.076074 0.000000 0.000000 0.000000
0.640613 1.268989 2.118141 0.000000 0.000000 0.000000
0.684852 1.275803 2.086749 0.000000 0.000000 0.000000
0.859760 1.188410 1.375823 0.000000 0.000000 0.000000
0.717106 1.238871 2.073428 0.000000 0.000000 0.000000
0.707748 1.245108 2.077923 0.000000 0.000000 0.000000
0.854040 1.186215 1.366858 0.000000 0.000000 0.000000
0.707372 1.241341 2.090307 0.000000 0.000000 0.000000
0.653945 1.270703 2.115577 0.000000 0.000000 0.000000
0.856241 1.180842 1.365884 0.000000 0.000000 0.000000
0.681696 1.230977 2.048143 0.000000 0.000000 0.000000
0.654685 1.271831 2.116804 0.000000 0.000000 0.000000
0.702355 1.275936 2.078747 0.000000 0.000000 0.000000
0.658396 1.241478 2.114110 0.000000 0.000000 0.000000
0.860167 1.181358 1.369158 0.000000 0.000000 0.000000
0.675698 1.274925 2.092328 0.000000 0.000000 0.000000
0.642828 1.279824 2.112199 0.000000 0.000000 0.000000
0.862253 1.178773 1.364700 0.000000 0.000000 0.000000
0.650092 1.269219 2.117659 0.000000 0.000000 0.000000
0.698628 1.284491 2.082093 0.000000 0.000000 0.000000
0.855775 1.187787 1.370621 0.000000 0.000000 0.000000
0.656331 1.243200 2.108935 0.000000 0.000000 0.000000
0.650519 1.246719 2.085960 0.000000 0.000000 0.000000
0.702310 1.242841 2.082521 0.000000 0.000000 0.000000
0.705473 1.253969 2.082886 0.000000 0.000000 0.000000
0.643351 1.256898 2.111833 0.000000 0.000000 0.000000
0.861820 1.180113 1.366878 0.000000 0.000000 0.000000
0.691300 1.257633 2.087569 0.000000 0.000000 0.000000
0.676879 1.279595 2.101551 0.000000 0.000000 0.000000
0.712895 1.239441 2.075369 0.000000 0.000000 0.000000
0.704083 1.235835 2.074125 0.000000 0.000000 0.000000
0.833084 1.177797 1.368915 0.000000 0.000000 0.000000
0.714945 1.236310 2.072823 0.000000 0.000000 0.000000
0.714055 1.246176 2.084690 0.000000 0.000000 0.000000
0.828713 1.188613 1.376310 0.000000 0.000000 0.000000
0.854809 1.181279 1.368613 0.000000 0.000000 0.000000
0.690879 1.268337 2.089311 0.000000 0.000000 0.000000
0.701167 1.250347 2.082439 0.000000 0.000000 0.000000
0.832796 1.188761 1.373920 0.000000 0.000000 0.000000
0.700388 1.251288 2.087623 0.000000 0.000000 0.000000
0.684017 1.226615 2.054184 0.000000 0.000000 0.000000
0.668118 1.278076 2.114153 0.000000 0.000000 0.000000
0.697511 1.240203 2.073836 0.000000 0.000000 0.000000
0.697001 1.258243 2.086855 0.000000 0.000000 0.000000
0.640013 1.254115 2.107425 0.000000 0.000000 0.000000
0.860155 1.183741 1.366941 0.000000 0.000000 0.000000
0.851178 1.188859 1.375214 0.000000 0.000000 0.000000
0.864778 1.183018 1.360215 0.000000 0.000000 0.000000
0.685398 1.276549 2.087705 0.000000 0.000000 0.000000
0.712062 1.242248 2.085478 0.000000 0.000000 0.000000
0.705175 1.238666 2.076561 0.000000 0.000000 0.000000
0.681110 1.275192 2.090317 0.000000 0.000000 0.000000
0.843988 1.197699 1.373640 0.000000 0.000000 0.000000
0.862319 1.178645 1.364496 0.000000 0.000000 0.000000
0.855017 1.188223 1.371445 0.000000 0.000000 0.000000
0.644461 1.245512 2.118748 0.000000 0.000000 0.000000
0.694414 1.283179 2.088567 0.000000 0.000000 0.000000
0.827843 1.199916 1.374624 0.000000 0.000000 0.000000
0.681637 1.233409 2.047883 0.000000 0.000000 0.000000
0.853279 1.189642 1.380172 0.000000 0.000000 0.000000
0.662838 1.275323 2.119397 0.000000 0.000000 0.000000
0.695944 1.246633 2.084195 0.000000 0.000000 0.000000
0.677830 1.273328 2.094011 0.000000 0.000000 0.000000
0.697945 1.248016 2.082806 0.000000 0.000000 0.000000
0.648378 1.272076 2.112525 0.000000 0.000000 0.000000
0.709935 1.237729 2.083999 0.000000 0.000000 0.000000
0.859097 1.181951 1.370866 0.000000 0.000000 0.000000
0.864797 1.185416 1.375768 0.000000 0.000000 0.000000
0.834151 1.193676 1.373538 0.000000 0.000000 0.000000
0.851082 1.194007 1.373237 0.000000 0.000000 0.000000
0.859304 1.180108 1.363233 0.000000 0.000000 0.000000
0.864442 1.184902 1.367448 0.000000 0.000000 0.000000
0.858237 1.185162 1.368317 0.000000 0.000000 0.000000
0.862802 1.183809 1.375650 0.000000 0.000000 0.000000
0.692999 1.262507 2.085051 0.000000 0.000000 0.000000
0.864799 1.182690 1.365205 0.000000 0.000000 0.000000
0.693911 1.282980 2.089936 0.000000 0.000000 0.000000
0.701194 1.274186 2.080919 0.000000 0.000000 0.000000
0.708204 1.235912 2.080693 0.000000 0.000000 0.000000
0.670384 1.278811 2.095258 0.000000 0.000000 0.000000
0.856571 1.183720 1.377692 0.000000 0.000000 0.000000
0.691511 1.267286 2.089883 0.000000 0.000000 0.000000
0.691661 1.285432 2.083945 0.000000 0.000000 0.000000
0.698974 1.244024 2.081354 0.000000 0.000000 0.000000
0.710639 1.233372 2.081599 0.000000 0.000000 0.000000
0.712373 1.240030 2.082177 0.000000 0.000000 0.000000
0.708165 1.251960 2.088140 0.000000 0.000000 0.000000
0.677563 1.274280 2.089650 0.000000 0.000000 0.000000
0.859681 1.181281 1.368135 0.000000 0.000000 0.000000
0.834887 1.187299 1.375003 0.000000 0.000000 0.000000
0.691269 1.237389 2.080638 0.000000 0.000000 0.000000
0.666765 1.275151 2.105521 0.000000 0.000000 0.000000
0.699065 1.252406 2.078870 0.000000 0.000000 0.000000
0.667731 1.273686 2.108969 0.000000 0.000000 0.000000
0.698920 1.242525 2.081702 0.000000 0.000000 0.000000
0.711010 1.244035 2.075662 0.000000 0.000000 0.000000
0.699977 1.247315 2.077841 0.000000 0.000000 0.000000
0.706460 1.250103 2.085082 0.000000 0.000000 0.000000
0.644985 1.241018 2.098079 0.000000 0.000000 0.000000
0.683382 1.282218 2.082081 0.000000 0.000000 0.000000
0.848993 1.183672 1.376832 0.000000 0.000000 0.000000
0.642610 1.254619 2.103162 0.000000 0.000000 0.000000
0.708847 1.245768 2.076790 0.000000 0.000000 0.000000
0.695997 1.238011 2.078181 0.000000 0.000000 0.000000
0.640885 1.241271 2.103067 0.000000 0.000000 0.000000
0.696402 1.287948 2.081637 0.000000 0.000000 0.000000
0.670894 1.279421 2.091355 0.000000 0.000000 0.000000
0.867496 1.191223 1.368254 0.000000 0.000000 0.000000
0.642495 1.246872 2.091198 0.000000 0.000000 0.000000
0.686249 1.235946 2.044524 0.000000 0.000000 0.000000
0.652429 1.246520 2.114289 0.000000 0.000000 0.000000
0.687258 1.229561 2.055572 0.000000 0.000000 0.000000
0.701945 1.280746 2.092675 0.000000 0.000000 0.000000
0.691001 1.268918 2.087664 0.000000 0.000000 0.000000
0.848370 1.188626 1.370163 0.000000 0.000000 0.000000
0.712451 1.236917 2.070375 0.000000 0.000000 0.000000
0.695788 1.282780 2.094152 0.000000 0.000000 0.000000
0.707099 1.244882 2.085746 0.000000 0.000000 0.000000
0.864536 1.186436 1.369986 0.000000 0.000000 0.000000
0.664307 1.274515 2.110475 0.000000 0.000000 0.000000
0.713122 1.240018 2.074714 0.000000 0.000000 0.000000
0.710369 1.235885 2.071550 0.000000 0.000000 0.000000
0.715842 1.238899 2.077413 0.000000 0.000000 0.000000
0.854660 1.178560 1.367767 0.000000 0.000000 0.000000
0.855232 1.182681 1.375191 0.000000 0.000000 0.000000
0.715945 1.242211 2.083637 0.000000 0.000000 0.000000
0.715810 1.241191 2.080301 0.000000 0.000000 0.000000
0.719113 1.240354 2.081992 0.000000 0.000000 0.000000
0.687666 1.228772 2.049150 0.000000 0.000000 0.000000
0.695397 1.278825 2.089970 0.000000 0.000000 0.000000
0.683208 1.275566 2.087174 0.000000 0.000000 0.000000
0.684157 1.281344 2.090342 0.000000 0.000000 0.000000
0.719837 1.235400 2.072321 0.000000 0.000000 0.000000
0.644349 1.254294 2.107460 0.000000 0.000000 0.000000
0.663837 1.240752 2.080601 0.000000 0.000000 0.000000
0.706128 1.250928 2.089098 0.000000 0.000000 0.000000
0.705878 1.238435 2.079753 0.000000 0.000000 0.000000
0.699071 1.279686 2.083351 0.000000 0.000000 0.000000
0.842040 1.197995 1.377334 0.000000 0.000000 0.000000
0.654441 1.273416 2.099589 0.000000 0.000000 0.000000
0.833023 1.189542 1.370656 0.000000 0.000000 0.000000
0.855738 1.186298 1.374671 0.000000 0.000000 0.000000
0.711921 1.237305 2.079306 0.000000 0.000000 0.000000
0.835117 1.183958 1.371906 0.000000 0.000000 0.000000
0.835389 1.182551 1.369858 0.000000 0.000000 0.000000
0.858310 1.183142 1.374688 0.000000 0.000000 0.000000
0.689305 1.276406 2.087491 0.000000 0.000000 0.000000
0.831416 1.192480 1.379858 0.000000 0.000000 0.000000
0.700337 1.251284 2.082634 0.000000 0.000000 0.000000
0.685062 1.224455 2.047242 0.000000 0.000000 0.000000
0.650672 1.275902 2.119847 0.000000 0.000000 0.000000
0.839794 1.186331 1.370923 0.000000 0.000000 0.000000
0.688762 1.280801 2.082804 0.000000 0.000000 0.000000
0.828295 1.191580 1.372103 0.000000 0.000000 0.000000
0.854954 1.194543 1.374637 0.000000 0.000000 0.000000
0.701396 1.291935 2.089334 0.000000 0.000000 0.000000
0.700458 1.287280 2.078926 0.000000 0.000000 0.000000
0.856608 1.190629 1.378876 0.000000 0.000000 0.000000
0.849056 1.191943 1.370133 0.000000 0.000000 0.000000
0.642757 1.242887 2.099061 0.000000 0.000000 0.000000
0.668978 1.243283 2.090715 0.000000 0.000000 0.000000
0.697860 1.285420 2.081295 0.000000 0.000000 0.000000
0.708714 1.274733 2.082631 0.000000 0.000000 0.000000
0.834950 1.181293 1.375787 0.000000 0.000000 0.000000
0.834245 1.183059 1.368977 0.000000 0.000000 0.000000
0.706515 1.241026 2.082555 0.000000 0.000000 0.000000
0.830557 1.199331 1.380378 0.000000 0.000000 0.000000
0.685956 1.226868 2.045789 0.000000 0.000000 0.000000
0.649643 1.243663 2.093852 0.000000 0.000000 0.000000
0.712841 1.246023 2.087319 0.000000 0.000000 0.000000
0.836202 1.199443 1.374284 0.000000 0.000000 0.000000
0.688013 1.279468 2.089015 0.000000 0.000000 0.000000
0.695715 1.278606 2.093400 0.000000 0.000000 0.000000
0.695167 1.285978 2.083153 0.000000 0.000000 0.000000
0.703921 1.276278 2.082557 0.000000 0.000000 0.000000
0.677026 1.279338 2.085681 0.000000 0.000000 0.000000
0.690121 1.281021 2.087395 0.000000 0.000000 0.000000
0.672205 1.278650 2.094409 0.000000 0.000000 0.000000
0.695861 1.275017 2.083338 0.000000 0.000000 0.000000
0.689634 1.283885 2.090318 0.000000 0.000000 0.000000
0.696113 1.286980 2.089977 0.000000 0.000000 0.000000
0.836351 1.186488 1.370448 0.000000 0.000000 0.000000
0.715111 1.242958 2.083959 0.000000 0.000000 0.000000
0.705955 1.257353 2.085273 0.000000 0.000000 0.000000
0.717871 1.242685 2.081124 0.000000 0.000000 0.000000
0.712409 1.240322 2.073758 0.000000 0.000000 0.000000
0.664635 1.240761 2.083034 0.000000 0.000000 0.000000
0.700066 1.240297 2.079219 0.000000 0.000000 0.000000
0.696441 1.256371 2.089695 0.000000 0.000000 0.000000
0.694741 1.241545 2.079193 0.000000 0.000000 0.000000
0.846164 1.191561 1.372232 0.000000 0.000000 0.000000
0.710865 1.240229 2.074247 0.000000 0.000000 0.000000
0.699049 1.247631 2.082729 0.000000 0.000000 0.000000
0.693948 1.262515 2.088857 0.000000 0.000000 0.000000
0.865168 1.177386 1.364599 0.000000 0.000000 0.000000
0.693265 1.238460 2.078741 0.000000 0.000000 0.000000
0.684057 1.265214 2.081065 0.000000 0.000000 0.000000
0.862525 1.179795 1.366617 0.000000 0.000000 0.000000
0.682146 1.234406 2.046621 0.000000 0.000000 0.000000
0.864719 1.179429 1.366317 0.000000 0.000000 0.000000
0.695614 1.260182 2.079407 0.000000 0.000000 0.000000
0.694625 1.257954 2.084888 0.000000 0.000000 0.000000
0.716801 1.239361 2.073312 0.000000 0.000000 0.000000
0.652737 1.268647 2.091501 0.000000 0.000000 0.000000
0.659491 1.248806 2.096416 0.000000 0.000000 0.000000
0.651488 1.243129 2.104655 0.000000 0.000000 0.000000
0.653417 1.254725 2.115186 0.000000 0.000000 0.000000
0.660403 1.240581 2.096782 0.000000 0.000000 0.000000
0.651225 1.254738 2.118299 0.000000 0.000000 0.000000
0.654245 1.249265 2.109634 0.000000 0.000000 0.000000
0.659851 1.278941 2.113315 0.000000 0.000000 0.000000
0.830545 1.189315 1.370042 0.000000 0.000000 0.000000
0.838904 1.193845 1.375714 0.000000 0.000000 0.000000
0.829913 1.194157 1.373148 0.000000 0.000000 0.000000
0.865465 1.181666 1.368564 0.000000 0.000000 0.000000
0.703518 1.293067 2.084677 0.000000 0.000000 0.000000
0.846411 1.195089 1.375606 0.000000 0.000000 0.000000
0.717776 1.239150 2.073390 0.000000 0.000000 0.000000
0.650643 1.269820 2.091872 0.000000 0.000000 0.000000
0.663237 1.264543 2.101071 0.000000 0.000000 0.000000
0.829495 1.198616 1.377063 0.000000 0.000000 0.000000
0.832939 1.188189 1.373865 0.000000 0.000000 0.000000
0.690687 1.285183 2.079771 0.000000 0.000000 0.000000
0.683476 1.273119 2.088131 0.000000 0.000000 0.000000
0.676046 1.277822 2.089466 0.000000 0.000000 0.000000
0.704243 1.295740 2.083933 0.000000 0.000000 0.000000
0.865555 1.185581 1.367529 0.000000 0.000000 0.000000
0.714086 1.246076 2.088246 0.000000 0.000000 0.000000
0.720384 1.238559 2.074659 0.000000 0.000000 0.000000
0.696213 1.284949 2.089494 0.000000 0.000000 0.000000
0.702457 1.274091 2.082026 0.000000 0.000000 0.000000
0.702239 1.234181 2.075931 0.000000 0.000000 0.000000
0.713052 1.249293 2.091220 0.000000 0.000000 0.000000
0.859842 1.190725 1.369337 0.000000 0.000000 0.000000
0.832807 1.190908 1.379490 0.000000 0.000000 0.000000
0.861248 1.178728 1.362786 0.000000 0.000000 0.000000
0.710393 1.247721 2.086543 0.000000 0.000000 0.000000
0.714228 1.241683 2.079417 0.000000 0.000000 0.000000
0.653288 1.246288 2.088118 0.000000 0.000000 0.000000
0.866922 1.179448 1.363884 0.000000 0.000000 0.000000
0.648832 1.266999 2.090102 0.000000 0.000000 0.000000
0.704454 1.278632 2.085696 0.000000 0.000000 0.000000
0.697333 1.276597 2.082875 0.000000 0.000000 0.000000
0.718377 1.246160 2.087563 0.000000 0.000000 0.000000
0.711140 1.248098 2.088530 0.000000 0.000000 0.000000
0.715265 1.239110 2.073240 0.000000 0.000000 0.000000
0.672579 1.275526 2.103926 0.000000 0.000000 0.000000
0.674976 1.276824 2.092454 0.000000 0.000000 0.000000
0.671030 1.277293 2.096390 0.000000 0.000000 0.000000
0.648752 1.269643 2.093036 0.000000 0.000000 0.000000
0.643335 1.268635 2.090793 0.000000 0.000000 0.000000
0.645417 1.273135 2.098897 0.000000 0.000000 0.000000
0.712132 1.240298 2.073714 0.000000 0.000000 0.000000
0.857534 1.185737 1.375217 0.000000 0.000000 0.000000
0.678941 1.275194 2.088640 0.000000 0.000000 0.000000
0.699653 1.286781 2.074242 0.000000 0.000000 0.000000
0.716044 1.239934 2.073991 0.000000 0.000000 0.000000
0.711913 1.246985 2.085313 0.000000 0.000000 0.000000
0.715644 1.244526 2.073753 0.000000 0.000000 0.000000
0.852714 1.186485 1.366925 0.000000 0.000000 0.000000
0.708322 1.248273 2.084076 0.000000 0.000000 0.000000
0.707847 1.244168 2.081468 0.000000 0.000000 0.000000
0.697635 1.288377 2.080146 0.000000 0.000000 0.000000
0.709447 1.249763 2.083496 0.000000 0.000000 0.000000
0.707100 1.248571 2.079105 0.000000 0.000000 0.000000
0.705038 1.241413 2.077616 0.000000 0.000000 0.000000
0.691165 1.262865 2.086613 0.000000 0.000000 0.000000
0.696804 1.245197 2.080663 0.000000 0.000000 0.000000
0.699463 1.281081 2.081628 0.000000 0.000000 0.000000
0.699373 1.251231 2.080424 0.000000 0.000000 0.000000
0.864406 1.182698 1.370428 0.000000 0.000000 0.000000
0.709633 1.243615 2.076236 0.000000 0.000000 0.000000
0.652400 1.274324 2.104636 0.000000 0.000000 0.000000
0.695568 1.250658 2.084544 0.000000 0.000000 0.000000
0.701773 1.250808 2.080210 0.000000 0.000000 0.000000
0.853747 1.183042 1.365333 0.000000 0.000000 0.000000
0.863453 1.179574 1.364775 0.000000 0.000000 0.000000
0.863559 1.191182 1.367710 0.000000 0.000000 0.000000
0.640278 1.252909 2.103787 0.000000 0.000000 0.000000
0.686801 1.226206 2.049197 0.000000 0.000000 0.000000
0.711244 1.244227 2.075490 0.000000 0.000000 0.000000
0.685098 1.232040 2.052010 0.000000 0.000000 0.000000
0.642797 1.247668 2.085247 0.000000 0.000000 0.000000
0.681193 1.233040 2.055858 0.000000 0.000000 0.000000
0.695398 1.286096 2.085378 0.000000 0.000000 0.000000
0.702244 1.285353 2.076522 0.000000 0.000000 0.000000
0.690907 1.275730 2.085455 0.000000 0.000000 0.000000
0.694677 1.277293 2.083817 0.000000 0.000000 0.000000
0.705145 1.248049 2.080833 0.000000 0.000000 0.000000
0.706093 1.275173 2.079899 0.000000 0.000000 0.000000
0.692621 1.276968 2.083315 0.000000 0.000000 0.000000
0.685712 1.276889 2.084746 0.000000 0.000000 0.000000
0.700105 1.274882 2.081150 0.000000 0.000000 0.000000
0.700659 1.290469 2.082609 0.000000 0.000000 0.000000
0.697900 1.279801 2.081827 0.000000 0.000000 0.000000
0.643845 1.246709 2.091714 0.000000 0.000000 0.000000
0.688469 1.276175 2.083794 0.000000 0.000000 0.000000
0.698912 1.285292 2.082541 0.000000 0.000000 0.000000
0.830996 1.182931 1.369469 0.000000 0.000000 0.000000
0.839769 1.190145 1.372370 0.000000 0.000000 0.000000
0.832442 1.194475 1.369536 0.000000 0.000000 0.000000
0.836403 1.182894 1.367774 0.000000 0.000000 0.000000
0.716651 1.236685 2.072798 0.000000 0.000000 0.000000
0.694463 1.281617 2.084285 0.000000 0.000000 0.000000
0.649432 1.250536 2.096868 0.000000 0.000000 0.000000
0.642349 1.241023 2.086702 0.000000 0.000000 0.000000
0.641165 1.253587 2.106498 0.000000 0.000000 0.000000
0.643414 1.244825 2.091810 0.000000 0.000000 0.000000
0.641114 1.244718 2.093983 0.000000 0.000000 0.000000
0.640315 1.245592 2.111572 0.000000 0.000000 0.000000
0.660392 1.247910 2.080893 0.000000 0.000000 0.000000
0.858114 1.190129 1.378037 0.000000 0.000000 0.000000
0.841598 1.191394 1.372499 0.000000 0.000000 0.000000
0.858516 1.182326 1.371103 0.000000 0.000000 0.000000
0.716645 1.241945 2.085858 0.000000 0.000000 0.000000
0.862001 1.180159 1.363358 0.000000 0.000000 0.000000
0.864374 1.183123 1.366238 0.000000 0.000000 0.000000
0.860203 1.179852 1.362103 0.000000 0.000000 0.000000
0.717930 1.242859 2.081944 0.000000 0.000000 0.000000
0.683900 1.284858 2.086703 0.000000 0.000000 0.000000
0.669639 1.277389 2.098897 0.000000 0.000000 0.000000
0.863518 1.182858 1.372115 0.000000 0.000000 0.000000
0.652535 1.268326 2.096690 0.000000 0.000000 0.000000
0.837206 1.186245 1.371351 0.000000 0.000000 0.000000
0.861618 1.182268 1.374495 0.000000 0.000000 0.000000
0.659141 1.269233 2.101678 0.000000 0.000000 0.000000
0.710427 1.246138 2.083225 0.000000 0.000000 0.000000
0.860146 1.175003 1.359923 0.000000 0.000000 0.000000
0.650697 1.265784 2.092566 0.000000 0.000000 0.000000
0.857197 1.185790 1.365735 0.000000 0.000000 0.000000
0.832447 1.182113 1.369284 0.000000 0.000000 0.000000
0.833861 1.174128 1.366798 0.000000 0.000000 0.000000
0.837061 1.190580 1.377802 0.000000 0.000000 0.000000
0.831879 1.181422 1.370378 0.000000 0.000000 0.000000
0.861795 1.188462 1.374754 0.000000 0.000000 0.000000
0.861956 1.186319 1.367778 0.000000 0.000000 0.000000
0.713366 1.239989 2.074220 0.000000 0.000000 0.000000
0.856869 1.190771 1.368719 0.000000 0.000000 0.000000
0.864675 1.188960 1.370339 0.000000 0.000000 0.000000
0.861951 1.190170 1.368536 0.000000 0.000000 0.000000
0.857665 1.196745 1.371919 0.000000 0.000000 0.000000
0.851919 1.195045 1.370908 0.000000 0.000000 0.000000
0.709650 1.238053 2.076071 0.000000 0.000000 0.000000
0.857475 1.194479 1.373255 0.000000 0.000000 0.000000
0.693533 1.244295 2.082675 0.000000 0.000000 0.000000
0.854237 1.198037 1.373487 0.000000 0.000000 0.000000
0.715343 1.238681 2.081803 0.000000 0.000000 0.000000
0.688825 1.245402 2.080049 0.000000 0.000000 0.000000
0.696400 1.244755 2.084075 0.000000 0.000000 0.000000
0.689657 1.267939 2.086568 0.000000 0.000000 0.000000
0.695256 1.246159 2.080929 0.000000 0.000000 0.000000
0.854328 1.188288 1.383693 0.000000 0.000000 0.000000
0.714998 1.243150 2.078394 0.000000 0.000000 0.000000
0.713570 1.242950 2.080313 0.000000 0.000000 0.000000
0.692208 1.241655 2.080723 0.000000 0.000000 0.000000
0.721151 1.240759 2.076805 0.000000 0.000000 0.000000
0.715496 1.238080 2.073968 0.000000 0.000000 0.000000
0.694487 1.244372 2.084120 0.000000 0.000000 0.000000
0.858006 1.189676 1.377493 0.000000 0.000000 0.000000
0.715467 1.243130 2.084879 0.000000 0.000000 0.000000
0.706882 1.236497 2.080765 0.000000 0.000000 0.000000
0.709600 1.241592 2.077114 0.000000 0.000000 0.000000
0.712442 1.249080 2.090285 0.000000 0.000000 0.000000
0.711787 1.245198 2.078680 0.000000 0.000000 0.000000
0.718009 1.244266 2.084881 0.000000 0.000000 0.000000
0.689417 1.228481 2.049468 0.000000 0.000000 0.000000
0.689991 1.224036 2.049156 0.000000 0.000000 0.000000
0.647681 1.244644 2.105186 0.000000 0.000000 0.000000
0.640074 1.245991 2.092768 0.000000 0.000000 0.000000
0.698776 1.259586 2.090815 0.000000 0.000000 0.000000
0.684812 1.226772 2.058802 0.000000 0.000000 0.000000
0.640776 1.241097 2.080328 0.000000 0.000000 0.000000
0.843250 1.192936 1.372496 0.000000 0.000000 0.000000
0.859863 1.178921 1.362882 0.000000 0.000000 0.000000
0.853512 1.191700 1.370173 0.000000 0.000000 0.000000
0.845416 1.188354 1.381344 0.000000 0.000000 0.000000
0.690318 1.263414 2.085420 0.000000 0.000000 0.000000
0.847762 1.191650 1.381638 0.000000 0.000000 0.000000
0.852282 1.193694 1.369981 0.000000 0.000000 0.000000
0.851449 1.192082 1.382156 0.000000 0.000000 0.000000
0.847304 1.189698 1.370368 0.000000 0.000000 0.000000
0.697577 1.248625 2.083408 0.000000 0.000000 0.000000
0.694147 1.243827 2.083408 0.000000 0.000000 0.000000
0.645595 1.243031 2.117526 0.000000 0.000000 0.000000
0.674875 1.270698 2.097685 0.000000 0.000000 0.000000
0.838520 1.187025 1.371611 0.000000 0.000000 0.000000
0.673560 1.273745 2.096536 0.000000 0.000000 0.000000
0.843601 1.192570 1.375970 0.000000 0.000000 0.000000
0.714270 1.247724 2.088125 0.000000 0.000000 0.000000
0.711603 1.248239 2.089613 0.000000 0.000000 0.000000
0.844447 1.198313 1.376943 0.000000 0.000000 0.000000
0.831510 1.186361 1.378828 0.000000 0.000000 0.000000
0.648221 1.265793 2.087978 0.000000 0.000000 0.000000
0.835212 1.196275 1.381240 0.000000 0.000000 0.000000
0.713658 1.238980 2.072288 0.000000 0.000000 0.000000
0.839879 1.189975 1.371342 0.000000 0.000000 0.000000
0.837416 1.187337 1.371061 0.000000 0.000000 0.000000
0.839394 1.193386 1.374843 0.000000 0.000000 0.000000
0.859517 1.187061 1.368304 0.000000 0.000000 0.000000
0.859477 1.177974 1.363593 0.000000 0.000000 0.000000
0.858416 1.181299 1.371453 0.000000 0.000000 0.000000
0.859011 1.175121 1.369028 0.000000 0.000000 0.000000
0.863848 1.184174 1.367658 0.000000 0.000000 0.000000
0.863041 1.185583 1.368358 0.000000 0.000000 0.000000
0.860848 1.187577 1.366043 0.000000 0.000000 0.000000
0.866041 1.185480 1.371129 0.000000 0.000000 0.000000
0.861459 1.191932 1.368626 0.000000 0.000000 0.000000
0.695971 1.260968 2.084361 0.000000 0.000000 0.000000
0.828546 1.189206 1.379656 0.000000 0.000000 0.000000
0.828172 1.195186 1.378664 0.000000 0.000000 0.000000
0.666149 1.273129 2.111369 0.000000 0.000000 0.000000
0.656565 1.275293 2.116245 0.000000 0.000000 0.000000
0.847385 1.189894 1.384032 0.000000 0.000000 0.000000
0.863911 1.182397 1.370142 0.000000 0.000000 0.000000
0.711365 1.248640 2.089030 0.000000 0.000000 0.000000
0.866870 1.182123 1.365460 0.000000 0.000000 0.000000
0.857362 1.187131 1.383073 0.000000 0.000000 0.000000
0.843602 1.189857 1.369680 0.000000 0.000000 0.000000
0.842477 1.188560 1.371612 0.000000 0.000000 0.000000
0.703447 1.237842 2.071161 0.000000 0.000000 0.000000
0.854922 1.183209 1.367225 0.000000 0.000000 0.000000
0.831663 1.183437 1.368605 0.000000 0.000000 0.000000
0.838834 1.198796 1.379111 0.000000 0.000000 0.000000
0.865178 1.184610 1.371115 0.000000 0.000000 0.000000
0.724954 1.239984 2.075626 0.000000 0.000000 0.000000
0.704796 1.236982 2.084024 0.000000 0.000000 0.000000
0.660927 1.242106 2.100937 0.000000 0.000000 0.000000
0.832075 1.184332 1.376647 0.000000 0.000000 0.000000
0.860887 1.180334 1.364157 0.000000 0.000000 0.000000
0.828247 1.184313 1.371999 0.000000 0.000000 0.000000
0.830593 1.187365 1.369744 0.000000 0.000000 0.000000
0.671685 1.279467 2.095442 0.000000 0.000000 0.000000
0.706736 1.245114 2.075130 0.000000 0.000000 0.000000
0.720199 1.235263 2.077720 0.000000 0.000000 0.000000
0.702526 1.276448 2.074240 0.000000 0.000000 0.000000
0.709386 1.274938 2.079428 0.000000 0.000000 0.000000
0.682424 1.229418 2.067634 0.000000 0.000000 0.000000
0.680451 1.228022 2.063261 0.000000 0.000000 0.000000
0.713899 1.247589 2.088897 0.000000 0.000000 0.000000
0.661161 1.277323 2.119987 0.000000 0.000000 0.000000
0.681770 1.227338 2.052196 0.000000 0.000000 0.000000
0.681661 1.225052 2.053966 0.000000 0.000000 0.000000
0.704303 1.253606 2.082229 0.000000 0.000000 0.000000
0.650737 1.266573 2.091491 0.000000 0.000000 0.000000
0.651974 1.269655 2.094949 0.000000 0.000000 0.000000
0.857139 1.184943 1.381202 0.000000 0.000000 0.000000
0.696025 1.270151 2.094950 0.000000 0.000000 0.000000
0.695047 1.261328 2.088446 0.000000 0.000000 0.000000
0.860682 1.180058 1.365039 0.000000 0.000000 0.000000
0.711338 1.247507 2.087026 0.000000 0.000000 0.000000
0.681176 1.274639 2.089603 0.000000 0.000000 0.000000
0.711517 1.248230 2.087173 0.000000 0.000000 0.000000
0.717421 1.241536 2.077944 0.000000 0.000000 0.000000
0.684753 1.270728 2.091313 0.000000 0.000000 0.000000
0.834482 1.183110 1.370712 0.000000 0.000000 0.000000
0.835042 1.183497 1.372430 0.000000 0.000000 0.000000
0.691042 1.261438 2.087991 0.000000 0.000000 0.000000
0.829443 1.188776 1.372207 0.000000 0.000000 0.000000
0.831425 1.181542 1.368159 0.000000 0.000000 0.000000
0.826533 1.183909 1.368195 0.000000 0.000000 0.000000
0.825808 1.199018 1.377537 0.000000 0.000000 0.000000
0.826502 1.192090 1.374782 0.000000 0.000000 0.000000
0.660640 1.273643 2.113367 0.000000 0.000000 0.000000
0.667604 1.272326 2.110069 0.000000 0.000000 0.000000
0.865202 1.189221 1.367759 0.000000 0.000000 0.000000
0.834439 1.187363 1.369381 0.000000 0.000000 0.000000
0.690922 1.228757 2.040071 0.000000 0.000000 0.000000
0.865778 1.190721 1.368083 0.000000 0.000000 0.000000
0.640820 1.251883 2.097672 0.000000 0.000000 0.000000
0.654754 1.272650 2.108413 0.000000 0.000000 0.000000
0.683576 1.223649 2.045965 0.000000 0.000000 0.000000
0.683505 1.224603 2.042298 0.000000 0.000000 0.000000
0.685817 1.229118 2.052915 0.000000 0.000000 0.000000
0.685436 1.226763 2.057381 0.000000 0.000000 0.000000
0.686243 1.264411 2.088037 0.000000 0.000000 0.000000
0.650088 1.269427 2.112628 0.000000 0.000000 0.000000
0.680706 1.225225 2.053180 0.000000 0.000000 0.000000
0.685045 1.233011 2.049651 0.000000 0.000000 0.000000
0.680804 1.226505 2.051491 0.000000 0.000000 0.000000
0.698281 1.256386 2.085700 0.000000 0.000000 0.000000
0.676391 1.272190 2.093293 0.000000 0.000000 0.000000
0.688291 1.225423 2.044472 0.000000 0.000000 0.000000
0.687942 1.223371 2.042921 0.000000 0.000000 0.000000
0.689985 1.229351 2.043305 0.000000 0.000000 0.000000
0.683321 1.232578 2.062511 0.000000 0.000000 0.000000
0.680049 1.228929 2.066034 0.000000 0.000000 0.000000
0.670423 1.271826 2.090941 0.000000 0.000000 0.000000
0.682615 1.225635 2.040482 0.000000 0.000000 0.000000
0.859916 1.181562 1.368582 0.000000 0.000000 0.000000
0.678718 1.271015 2.083366 0.000000 0.000000 0.000000
0.859734 1.180580 1.365064 0.000000 0.000000 0.000000
0.701944 1.286639 2.073694 0.000000 0.000000 0.000000
0.703397 1.286927 2.074660 0.000000 0.000000 0.000000
0.858371 1.181514 1.368965 0.000000 0.000000 0.000000
0.852988 1.179034 1.363281 0.000000 0.000000 0.000000
0.714289 1.243641 2.077020 0.000000 0.000000 0.000000
0.709908 1.239093 2.074001 0.000000 0.000000 0.000000
0.713313 1.233056 2.069558 0.000000 0.000000 0.000000
0.718214 1.233532 2.070681 0.000000 0.000000 0.000000
0.707399 1.240305 2.071754 0.000000 0.000000 0.000000
0.720847 1.238635 2.069690 0.000000 0.000000 0.000000
0.714759 1.239143 2.071590 0.000000 0.000000 0.000000
0.715063 1.239391 2.073629 0.000000 0.000000 0.000000
0.719959 1.238973 2.077322 0.000000 0.000000 0.000000
0.720168 1.240975 2.075616 0.000000 0.000000 0.000000
0.717284 1.242034 2.083670 0.000000 0.000000 0.000000
0.645497 1.249727 2.087619 0.000000 0.000000 0.000000
