ply
format ascii 1.0
comment VCGLIB generated
obj_info Generated by SPFormer!
element vertex 868
property float x
property float y
property float z
property float nx
property float ny
property float nz
end_header
1.951200 -0.749281 0.637138 0.000000 0.000000 0.000000
2.317852 -0.788127 0.624510 0.000000 0.000000 0.000000
1.825826 -0.792551 0.489916 0.000000 0.000000 0.000000
1.759832 -0.795686 0.463634 0.000000 0.000000 0.000000
1.859047 -0.790661 0.501427 0.000000 0.000000 0.000000
1.815077 -0.843084 0.487778 0.000000 0.000000 0.000000
1.810273 -0.814012 0.435761 0.000000 0.000000 0.000000
1.788809 -0.795423 0.446010 0.000000 0.000000 0.000000
1.869666 -0.765209 0.558330 0.000000 0.000000 0.000000
2.299496 -0.781016 0.692892 0.000000 0.000000 0.000000
2.012336 -0.748067 0.640135 0.000000 0.000000 0.000000
1.750685 -0.776105 0.438618 0.000000 0.000000 0.000000
2.159406 -0.846770 0.492049 0.000000 0.000000 0.000000
2.005373 -0.744669 0.653338 0.000000 0.000000 0.000000
1.959875 -0.750786 0.645618 0.000000 0.000000 0.000000
1.922160 -0.859785 0.431749 0.000000 0.000000 0.000000
1.883223 -0.753604 0.609391 0.000000 0.000000 0.000000
1.968019 -0.741446 0.646395 0.000000 0.000000 0.000000
2.153667 -0.838444 0.483436 0.000000 0.000000 0.000000
2.161560 -0.840667 0.487033 0.000000 0.000000 0.000000
1.744029 -0.783563 0.448324 0.000000 0.000000 0.000000
2.322897 -0.780938 0.684264 0.000000 0.000000 0.000000
1.963063 -0.741410 0.645901 0.000000 0.000000 0.000000
1.748210 -0.790113 0.446722 0.000000 0.000000 0.000000
1.961347 -0.747867 0.633246 0.000000 0.000000 0.000000
1.973741 -0.743450 0.650174 0.000000 0.000000 0.000000
2.335898 -0.792415 0.633333 0.000000 0.000000 0.000000
1.825275 -0.794471 0.491873 0.000000 0.000000 0.000000
1.769174 -0.796050 0.484879 0.000000 0.000000 0.000000
1.869955 -0.786872 0.504977 0.000000 0.000000 0.000000
1.779979 -0.825042 0.474512 0.000000 0.000000 0.000000
2.370320 -0.830667 0.618692 0.000000 0.000000 0.000000
1.727813 -0.785377 0.448181 0.000000 0.000000 0.000000
2.398350 -0.811228 0.683000 0.000000 0.000000 0.000000
2.424181 -0.824898 0.669669 0.000000 0.000000 0.000000
1.724130 -0.802901 0.459495 0.000000 0.000000 0.000000
1.803905 -0.781314 0.531005 0.000000 0.000000 0.000000
1.795494 -0.785002 0.531205 0.000000 0.000000 0.000000
1.933936 -0.790163 0.630180 0.000000 0.000000 0.000000
1.921747 -0.861162 0.427090 0.000000 0.000000 0.000000
1.727267 -0.784225 0.444712 0.000000 0.000000 0.000000
2.357910 -0.830009 0.609458 0.000000 0.000000 0.000000
2.381927 -0.829100 0.623780 0.000000 0.000000 0.000000
2.362150 -0.825878 0.621931 0.000000 0.000000 0.000000
2.370539 -0.824233 0.640949 0.000000 0.000000 0.000000
2.363394 -0.819285 0.628196 0.000000 0.000000 0.000000
1.758327 -0.800039 0.453181 0.000000 0.000000 0.000000
2.369951 -0.830387 0.612319 0.000000 0.000000 0.000000
2.361028 -0.830264 0.611085 0.000000 0.000000 0.000000
2.348103 -0.777598 0.677241 0.000000 0.000000 0.000000
1.839066 -0.814846 0.427523 0.000000 0.000000 0.000000
1.734491 -0.792390 0.454165 0.000000 0.000000 0.000000
2.380568 -0.831080 0.621925 0.000000 0.000000 0.000000
2.398504 -0.816719 0.683418 0.000000 0.000000 0.000000
1.820344 -0.786249 0.538086 0.000000 0.000000 0.000000
1.907320 -0.750224 0.620572 0.000000 0.000000 0.000000
2.398422 -0.806197 0.683434 0.000000 0.000000 0.000000
1.912027 -0.800876 0.629574 0.000000 0.000000 0.000000
2.188776 -0.779180 0.581587 0.000000 0.000000 0.000000
1.928805 -0.770831 0.636405 0.000000 0.000000 0.000000
1.851087 -0.819271 0.423786 0.000000 0.000000 0.000000
2.369996 -0.827783 0.623552 0.000000 0.000000 0.000000
2.360178 -0.827766 0.617387 0.000000 0.000000 0.000000
2.370258 -0.827482 0.634749 0.000000 0.000000 0.000000
2.374319 -0.829623 0.619489 0.000000 0.000000 0.000000
2.372890 -0.828255 0.621350 0.000000 0.000000 0.000000
2.118204 -0.739671 0.684173 0.000000 0.000000 0.000000
1.764960 -0.796990 0.447055 0.000000 0.000000 0.000000
2.377337 -0.831691 0.617020 0.000000 0.000000 0.000000
1.801751 -0.827830 0.452684 0.000000 0.000000 0.000000
2.364918 -0.826039 0.606626 0.000000 0.000000 0.000000
2.373634 -0.790423 0.679852 0.000000 0.000000 0.000000
1.733245 -0.793331 0.454441 0.000000 0.000000 0.000000
2.374787 -0.833991 0.618192 0.000000 0.000000 0.000000
2.404811 -0.817597 0.682422 0.000000 0.000000 0.000000
1.821901 -0.772851 0.548580 0.000000 0.000000 0.000000
2.393833 -0.805059 0.681297 0.000000 0.000000 0.000000
1.915241 -0.804236 0.626377 0.000000 0.000000 0.000000
1.731627 -0.798007 0.457068 0.000000 0.000000 0.000000
1.925947 -0.775045 0.633381 0.000000 0.000000 0.000000
1.843818 -0.815317 0.425815 0.000000 0.000000 0.000000
1.797386 -0.778098 0.425666 0.000000 0.000000 0.000000
1.803156 -0.771800 0.419716 0.000000 0.000000 0.000000
1.769991 -0.739551 0.443171 0.000000 0.000000 0.000000
1.735721 -0.800764 0.458010 0.000000 0.000000 0.000000
1.791367 -0.774452 0.416572 0.000000 0.000000 0.000000
2.022712 -0.844001 0.605020 0.000000 0.000000 0.000000
2.116016 -0.849819 0.470159 0.000000 0.000000 0.000000
1.893573 -0.760439 0.617186 0.000000 0.000000 0.000000
2.273741 -0.754584 0.686833 0.000000 0.000000 0.000000
1.957437 -0.742831 0.647839 0.000000 0.000000 0.000000
1.961636 -0.759748 0.650367 0.000000 0.000000 0.000000
1.876735 -0.757360 0.604882 0.000000 0.000000 0.000000
1.878489 -0.760530 0.607842 0.000000 0.000000 0.000000
1.837078 -0.794636 0.491088 0.000000 0.000000 0.000000
1.880304 -0.754572 0.607376 0.000000 0.000000 0.000000
2.353529 -0.831296 0.595359 0.000000 0.000000 0.000000
1.988697 -0.864295 0.428852 0.000000 0.000000 0.000000
1.962993 -0.752841 0.635464 0.000000 0.000000 0.000000
2.000373 -0.744371 0.654392 0.000000 0.000000 0.000000
2.159292 -0.777188 0.573458 0.000000 0.000000 0.000000
2.360529 -0.834278 0.597096 0.000000 0.000000 0.000000
1.990475 -0.804950 0.639103 0.000000 0.000000 0.000000
2.113969 -0.850649 0.466264 0.000000 0.000000 0.000000
1.902213 -0.766348 0.621439 0.000000 0.000000 0.000000
2.129892 -0.849638 0.479016 0.000000 0.000000 0.000000
1.933842 -0.854955 0.434717 0.000000 0.000000 0.000000
1.960772 -0.858670 0.426205 0.000000 0.000000 0.000000
2.280683 -0.763385 0.688211 0.000000 0.000000 0.000000
1.965234 -0.746110 0.649650 0.000000 0.000000 0.000000
1.995034 -0.750635 0.663326 0.000000 0.000000 0.000000
1.911600 -0.774218 0.628432 0.000000 0.000000 0.000000
1.875067 -0.759564 0.607311 0.000000 0.000000 0.000000
1.911307 -0.753311 0.618856 0.000000 0.000000 0.000000
2.351429 -0.828197 0.599996 0.000000 0.000000 0.000000
2.134516 -0.775614 0.564008 0.000000 0.000000 0.000000
1.734900 -0.786964 0.444554 0.000000 0.000000 0.000000
1.806718 -0.779320 0.431783 0.000000 0.000000 0.000000
1.791999 -0.790772 0.438657 0.000000 0.000000 0.000000
1.808129 -0.775741 0.411097 0.000000 0.000000 0.000000
1.789193 -0.773561 0.507191 0.000000 0.000000 0.000000
1.730752 -0.787608 0.442705 0.000000 0.000000 0.000000
1.790687 -0.772123 0.514055 0.000000 0.000000 0.000000
1.736083 -0.767642 0.435903 0.000000 0.000000 0.000000
1.799486 -0.782662 0.428816 0.000000 0.000000 0.000000
1.981022 -0.864755 0.433994 0.000000 0.000000 0.000000
1.963152 -0.859326 0.430625 0.000000 0.000000 0.000000
1.975241 -0.867772 0.428746 0.000000 0.000000 0.000000
1.733002 -0.777586 0.446416 0.000000 0.000000 0.000000
2.202622 -0.756538 0.699950 0.000000 0.000000 0.000000
1.787876 -0.770538 0.503594 0.000000 0.000000 0.000000
2.200149 -0.756163 0.696085 0.000000 0.000000 0.000000
1.790409 -0.772073 0.508269 0.000000 0.000000 0.000000
1.730804 -0.782527 0.443366 0.000000 0.000000 0.000000
1.950438 -0.741885 0.644977 0.000000 0.000000 0.000000
2.004239 -0.861895 0.440129 0.000000 0.000000 0.000000
2.066928 -0.838466 0.469735 0.000000 0.000000 0.000000
2.381362 -0.825307 0.631019 0.000000 0.000000 0.000000
2.267718 -0.772642 0.694553 0.000000 0.000000 0.000000
2.136802 -0.846142 0.479372 0.000000 0.000000 0.000000
1.740084 -0.777113 0.439560 0.000000 0.000000 0.000000
1.728229 -0.772772 0.440846 0.000000 0.000000 0.000000
1.819815 -0.803201 0.476055 0.000000 0.000000 0.000000
1.765774 -0.790827 0.468438 0.000000 0.000000 0.000000
1.774172 -0.797208 0.439166 0.000000 0.000000 0.000000
2.116574 -0.852264 0.472726 0.000000 0.000000 0.000000
1.979745 -0.865537 0.427883 0.000000 0.000000 0.000000
1.985782 -0.853266 0.438136 0.000000 0.000000 0.000000
2.364497 -0.829437 0.613052 0.000000 0.000000 0.000000
2.267474 -0.770772 0.693487 0.000000 0.000000 0.000000
2.140713 -0.848142 0.479733 0.000000 0.000000 0.000000
1.741848 -0.769811 0.445574 0.000000 0.000000 0.000000
1.734645 -0.778184 0.442452 0.000000 0.000000 0.000000
1.812408 -0.802836 0.469275 0.000000 0.000000 0.000000
2.190556 -0.837691 0.507054 0.000000 0.000000 0.000000
1.767888 -0.798205 0.443683 0.000000 0.000000 0.000000
1.991734 -0.860963 0.432615 0.000000 0.000000 0.000000
1.953660 -0.862635 0.426130 0.000000 0.000000 0.000000
1.811984 -0.781548 0.542485 0.000000 0.000000 0.000000
1.790651 -0.772854 0.509429 0.000000 0.000000 0.000000
1.797981 -0.785572 0.517159 0.000000 0.000000 0.000000
1.783487 -0.773359 0.431482 0.000000 0.000000 0.000000
1.799574 -0.789670 0.526219 0.000000 0.000000 0.000000
1.803810 -0.780016 0.549265 0.000000 0.000000 0.000000
1.806863 -0.780617 0.543743 0.000000 0.000000 0.000000
1.741581 -0.796329 0.456025 0.000000 0.000000 0.000000
1.794031 -0.791197 0.522089 0.000000 0.000000 0.000000
2.018676 -0.746254 0.638220 0.000000 0.000000 0.000000
2.151230 -0.777732 0.568467 0.000000 0.000000 0.000000
1.998700 -0.746702 0.668836 0.000000 0.000000 0.000000
2.131130 -0.851849 0.469480 0.000000 0.000000 0.000000
2.071834 -0.766622 0.673904 0.000000 0.000000 0.000000
1.803488 -0.781570 0.525414 0.000000 0.000000 0.000000
2.007371 -0.756113 0.635964 0.000000 0.000000 0.000000
1.947667 -0.786971 0.630949 0.000000 0.000000 0.000000
2.174297 -0.776567 0.573397 0.000000 0.000000 0.000000
2.142777 -0.850429 0.475850 0.000000 0.000000 0.000000
2.048550 -0.742275 0.674903 0.000000 0.000000 0.000000
1.867898 -0.841146 0.422825 0.000000 0.000000 0.000000
2.070994 -0.864778 0.466149 0.000000 0.000000 0.000000
2.104477 -0.856687 0.458750 0.000000 0.000000 0.000000
1.770185 -0.798687 0.471917 0.000000 0.000000 0.000000
1.804634 -0.787045 0.548073 0.000000 0.000000 0.000000
2.076676 -0.865262 0.454361 0.000000 0.000000 0.000000
2.397408 -0.828918 0.635734 0.000000 0.000000 0.000000
2.008580 -0.866265 0.426408 0.000000 0.000000 0.000000
1.770562 -0.793138 0.467373 0.000000 0.000000 0.000000
2.097953 -0.811322 0.625127 0.000000 0.000000 0.000000
2.060768 -0.835132 0.629544 0.000000 0.000000 0.000000
1.989383 -0.847526 0.597824 0.000000 0.000000 0.000000
1.775449 -0.801158 0.477282 0.000000 0.000000 0.000000
1.759480 -0.803916 0.461629 0.000000 0.000000 0.000000
2.027915 -0.863303 0.443167 0.000000 0.000000 0.000000
2.029104 -0.843808 0.614358 0.000000 0.000000 0.000000
2.015202 -0.848574 0.606394 0.000000 0.000000 0.000000
2.048113 -0.793058 0.668276 0.000000 0.000000 0.000000
2.003418 -0.863381 0.430097 0.000000 0.000000 0.000000
2.041898 -0.866272 0.435987 0.000000 0.000000 0.000000
2.011331 -0.834622 0.629521 0.000000 0.000000 0.000000
2.022595 -0.815800 0.646407 0.000000 0.000000 0.000000
2.097249 -0.779005 0.666665 0.000000 0.000000 0.000000
1.996612 -0.863782 0.428953 0.000000 0.000000 0.000000
2.177326 -0.846610 0.489801 0.000000 0.000000 0.000000
1.821426 -0.774035 0.515413 0.000000 0.000000 0.000000
1.768790 -0.802296 0.478725 0.000000 0.000000 0.000000
1.850001 -0.796585 0.479921 0.000000 0.000000 0.000000
1.768552 -0.800536 0.464617 0.000000 0.000000 0.000000
1.769590 -0.800314 0.468361 0.000000 0.000000 0.000000
1.986648 -0.746441 0.666325 0.000000 0.000000 0.000000
1.745518 -0.794093 0.454427 0.000000 0.000000 0.000000
1.830330 -0.841799 0.510319 0.000000 0.000000 0.000000
1.764119 -0.807146 0.464425 0.000000 0.000000 0.000000
2.034339 -0.864339 0.438459 0.000000 0.000000 0.000000
2.018139 -0.848150 0.606773 0.000000 0.000000 0.000000
2.003923 -0.850007 0.581583 0.000000 0.000000 0.000000
1.781031 -0.790025 0.470501 0.000000 0.000000 0.000000
1.722618 -0.800462 0.455525 0.000000 0.000000 0.000000
1.999789 -0.866244 0.428611 0.000000 0.000000 0.000000
2.014629 -0.869810 0.424935 0.000000 0.000000 0.000000
1.996189 -0.831587 0.620356 0.000000 0.000000 0.000000
2.037295 -0.839014 0.624213 0.000000 0.000000 0.000000
2.026803 -0.789556 0.664023 0.000000 0.000000 0.000000
2.021682 -0.865672 0.431977 0.000000 0.000000 0.000000
1.780047 -0.795412 0.486255 0.000000 0.000000 0.000000
2.136302 -0.736398 0.683192 0.000000 0.000000 0.000000
1.775030 -0.809514 0.472276 0.000000 0.000000 0.000000
1.760601 -0.805067 0.469937 0.000000 0.000000 0.000000
1.983907 -0.759535 0.667504 0.000000 0.000000 0.000000
1.741707 -0.783742 0.442056 0.000000 0.000000 0.000000
1.779550 -0.773309 0.489845 0.000000 0.000000 0.000000
1.776675 -0.776111 0.493699 0.000000 0.000000 0.000000
2.190949 -0.749579 0.689309 0.000000 0.000000 0.000000
1.784286 -0.770301 0.496199 0.000000 0.000000 0.000000
1.767237 -0.808406 0.478147 0.000000 0.000000 0.000000
1.789011 -0.774999 0.493102 0.000000 0.000000 0.000000
2.158969 -0.848460 0.484296 0.000000 0.000000 0.000000
2.202216 -0.755143 0.697544 0.000000 0.000000 0.000000
1.910138 -0.851325 0.422080 0.000000 0.000000 0.000000
2.197854 -0.753586 0.693213 0.000000 0.000000 0.000000
1.780683 -0.797056 0.442893 0.000000 0.000000 0.000000
2.185683 -0.746988 0.683150 0.000000 0.000000 0.000000
1.747055 -0.780147 0.440966 0.000000 0.000000 0.000000
2.105667 -0.853635 0.469605 0.000000 0.000000 0.000000
2.130567 -0.745831 0.674863 0.000000 0.000000 0.000000
1.812812 -0.821540 0.447078 0.000000 0.000000 0.000000
2.174375 -0.740491 0.683018 0.000000 0.000000 0.000000
1.782966 -0.773651 0.496608 0.000000 0.000000 0.000000
1.929105 -0.803459 0.640348 0.000000 0.000000 0.000000
2.123423 -0.770335 0.682307 0.000000 0.000000 0.000000
2.115939 -0.740313 0.673589 0.000000 0.000000 0.000000
1.898210 -0.854161 0.431581 0.000000 0.000000 0.000000
2.204374 -0.749780 0.690936 0.000000 0.000000 0.000000
1.896851 -0.848281 0.431217 0.000000 0.000000 0.000000
2.207416 -0.757267 0.690335 0.000000 0.000000 0.000000
1.889956 -0.851796 0.429187 0.000000 0.000000 0.000000
2.187154 -0.836133 0.505327 0.000000 0.000000 0.000000
2.045423 -0.791434 0.664361 0.000000 0.000000 0.000000
2.025342 -0.834557 0.594759 0.000000 0.000000 0.000000
2.197227 -0.749540 0.677374 0.000000 0.000000 0.000000
1.744271 -0.784228 0.443498 0.000000 0.000000 0.000000
2.107072 -0.853120 0.466348 0.000000 0.000000 0.000000
1.831642 -0.828431 0.445239 0.000000 0.000000 0.000000
1.788920 -0.767536 0.497246 0.000000 0.000000 0.000000
1.996496 -0.760594 0.662134 0.000000 0.000000 0.000000
1.927181 -0.802554 0.624988 0.000000 0.000000 0.000000
2.147681 -0.759908 0.688696 0.000000 0.000000 0.000000
2.162524 -0.756165 0.683889 0.000000 0.000000 0.000000
1.912382 -0.861449 0.437941 0.000000 0.000000 0.000000
2.213471 -0.753698 0.692046 0.000000 0.000000 0.000000
2.217634 -0.759664 0.695364 0.000000 0.000000 0.000000
1.805085 -0.774552 0.420167 0.000000 0.000000 0.000000
2.036793 -0.742029 0.654237 0.000000 0.000000 0.000000
2.175710 -0.836611 0.492733 0.000000 0.000000 0.000000
1.786936 -0.767575 0.506591 0.000000 0.000000 0.000000
1.724077 -0.773936 0.444428 0.000000 0.000000 0.000000
1.789137 -0.785485 0.434273 0.000000 0.000000 0.000000
1.792237 -0.768704 0.518980 0.000000 0.000000 0.000000
1.846465 -0.821496 0.425733 0.000000 0.000000 0.000000
1.937692 -0.790786 0.635622 0.000000 0.000000 0.000000
1.852640 -0.821605 0.424712 0.000000 0.000000 0.000000
1.722068 -0.778539 0.446092 0.000000 0.000000 0.000000
1.733197 -0.768253 0.440835 0.000000 0.000000 0.000000
1.932402 -0.799638 0.633191 0.000000 0.000000 0.000000
2.215837 -0.783435 0.605543 0.000000 0.000000 0.000000
2.029019 -0.751347 0.663795 0.000000 0.000000 0.000000
1.850601 -0.818821 0.426812 0.000000 0.000000 0.000000
2.022899 -0.739875 0.653226 0.000000 0.000000 0.000000
1.851510 -0.821308 0.425513 0.000000 0.000000 0.000000
1.919338 -0.774124 0.632232 0.000000 0.000000 0.000000
1.784303 -0.792039 0.508283 0.000000 0.000000 0.000000
1.950237 -0.819697 0.625566 0.000000 0.000000 0.000000
1.876714 -0.797352 0.600177 0.000000 0.000000 0.000000
2.049808 -0.738381 0.665777 0.000000 0.000000 0.000000
1.860069 -0.825362 0.425998 0.000000 0.000000 0.000000
2.056678 -0.738722 0.671663 0.000000 0.000000 0.000000
1.865426 -0.832328 0.431733 0.000000 0.000000 0.000000
1.861538 -0.823672 0.420707 0.000000 0.000000 0.000000
1.965577 -0.796001 0.625136 0.000000 0.000000 0.000000
2.086514 -0.777252 0.690707 0.000000 0.000000 0.000000
2.157737 -0.753180 0.684201 0.000000 0.000000 0.000000
2.027962 -0.740817 0.672215 0.000000 0.000000 0.000000
1.930370 -0.809070 0.621476 0.000000 0.000000 0.000000
1.839246 -0.822775 0.431642 0.000000 0.000000 0.000000
2.054400 -0.736781 0.669207 0.000000 0.000000 0.000000
1.846465 -0.819410 0.425939 0.000000 0.000000 0.000000
1.912950 -0.783102 0.631802 0.000000 0.000000 0.000000
1.781783 -0.796029 0.500169 0.000000 0.000000 0.000000
1.788383 -0.783163 0.426947 0.000000 0.000000 0.000000
1.934065 -0.812599 0.629467 0.000000 0.000000 0.000000
1.855844 -0.808697 0.570747 0.000000 0.000000 0.000000
2.057654 -0.738528 0.673469 0.000000 0.000000 0.000000
1.860016 -0.822923 0.427805 0.000000 0.000000 0.000000
2.039683 -0.740774 0.669735 0.000000 0.000000 0.000000
1.860985 -0.834284 0.423021 0.000000 0.000000 0.000000
1.841846 -0.816020 0.425326 0.000000 0.000000 0.000000
2.068882 -0.789529 0.677163 0.000000 0.000000 0.000000
1.777919 -0.782610 0.439025 0.000000 0.000000 0.000000
1.790796 -0.772396 0.412239 0.000000 0.000000 0.000000
1.797405 -0.782700 0.427643 0.000000 0.000000 0.000000
1.796113 -0.773452 0.408627 0.000000 0.000000 0.000000
1.797475 -0.774818 0.410499 0.000000 0.000000 0.000000
2.172513 -0.836969 0.492633 0.000000 0.000000 0.000000
2.182420 -0.839197 0.501468 0.000000 0.000000 0.000000
2.419418 -0.829299 0.657153 0.000000 0.000000 0.000000
1.836873 -0.770715 0.576562 0.000000 0.000000 0.000000
2.005126 -0.746767 0.669689 0.000000 0.000000 0.000000
1.909123 -0.750826 0.623848 0.000000 0.000000 0.000000
1.993125 -0.742825 0.667106 0.000000 0.000000 0.000000
1.852313 -0.825576 0.426165 0.000000 0.000000 0.000000
1.791855 -0.781691 0.431509 0.000000 0.000000 0.000000
1.840456 -0.850949 0.510994 0.000000 0.000000 0.000000
2.186713 -0.838097 0.498164 0.000000 0.000000 0.000000
2.148966 -0.824489 0.504313 0.000000 0.000000 0.000000
2.194263 -0.837680 0.499174 0.000000 0.000000 0.000000
2.177440 -0.839966 0.491679 0.000000 0.000000 0.000000
1.995185 -0.740245 0.658338 0.000000 0.000000 0.000000
1.915551 -0.782583 0.516716 0.000000 0.000000 0.000000
2.157856 -0.736566 0.685072 0.000000 0.000000 0.000000
1.834155 -0.774274 0.547835 0.000000 0.000000 0.000000
2.324540 -0.761327 0.672236 0.000000 0.000000 0.000000
1.929745 -0.745278 0.627022 0.000000 0.000000 0.000000
1.949183 -0.747095 0.634473 0.000000 0.000000 0.000000
1.982009 -0.745429 0.666098 0.000000 0.000000 0.000000
2.357793 -0.833041 0.595027 0.000000 0.000000 0.000000
1.770374 -0.808404 0.468539 0.000000 0.000000 0.000000
1.775430 -0.790474 0.440318 0.000000 0.000000 0.000000
1.777132 -0.777802 0.423360 0.000000 0.000000 0.000000
2.238136 -0.796084 0.582672 0.000000 0.000000 0.000000
2.163930 -0.829183 0.504385 0.000000 0.000000 0.000000
2.188198 -0.835037 0.497515 0.000000 0.000000 0.000000
2.171408 -0.843947 0.487703 0.000000 0.000000 0.000000
1.998236 -0.736934 0.654837 0.000000 0.000000 0.000000
1.877967 -0.787404 0.503509 0.000000 0.000000 0.000000
2.147891 -0.739457 0.681119 0.000000 0.000000 0.000000
1.876550 -0.754116 0.574559 0.000000 0.000000 0.000000
2.329342 -0.768462 0.682686 0.000000 0.000000 0.000000
1.931012 -0.749801 0.629375 0.000000 0.000000 0.000000
1.980947 -0.740268 0.657760 0.000000 0.000000 0.000000
1.780233 -0.784715 0.429124 0.000000 0.000000 0.000000
1.746260 -0.798065 0.463703 0.000000 0.000000 0.000000
1.952588 -0.857834 0.426140 0.000000 0.000000 0.000000
1.967362 -0.863762 0.431158 0.000000 0.000000 0.000000
1.956852 -0.860575 0.431843 0.000000 0.000000 0.000000
1.742309 -0.800637 0.461236 0.000000 0.000000 0.000000
1.733784 -0.801373 0.460424 0.000000 0.000000 0.000000
1.748411 -0.792568 0.446005 0.000000 0.000000 0.000000
1.858345 -0.821499 0.424675 0.000000 0.000000 0.000000
1.872998 -0.825763 0.579439 0.000000 0.000000 0.000000
1.857998 -0.855134 0.522039 0.000000 0.000000 0.000000
1.869607 -0.850608 0.543252 0.000000 0.000000 0.000000
2.417277 -0.830737 0.648663 0.000000 0.000000 0.000000
1.822202 -0.822123 0.515920 0.000000 0.000000 0.000000
2.008656 -0.872555 0.449227 0.000000 0.000000 0.000000
1.913664 -0.874448 0.474479 0.000000 0.000000 0.000000
1.860989 -0.809917 0.575108 0.000000 0.000000 0.000000
1.939539 -0.742664 0.645153 0.000000 0.000000 0.000000
1.941734 -0.750912 0.639715 0.000000 0.000000 0.000000
1.910154 -0.872184 0.468502 0.000000 0.000000 0.000000
1.819140 -0.825156 0.445415 0.000000 0.000000 0.000000
1.825940 -0.811319 0.542376 0.000000 0.000000 0.000000
1.723105 -0.799231 0.453737 0.000000 0.000000 0.000000
1.726138 -0.800277 0.455108 0.000000 0.000000 0.000000
2.246287 -0.794423 0.580521 0.000000 0.000000 0.000000
1.866474 -0.841923 0.553415 0.000000 0.000000 0.000000
1.841519 -0.837116 0.536034 0.000000 0.000000 0.000000
2.411975 -0.831397 0.644045 0.000000 0.000000 0.000000
2.011681 -0.871339 0.461207 0.000000 0.000000 0.000000
1.826321 -0.818785 0.535522 0.000000 0.000000 0.000000
2.013238 -0.872936 0.455968 0.000000 0.000000 0.000000
1.820498 -0.776354 0.566870 0.000000 0.000000 0.000000
1.919609 -0.875310 0.470654 0.000000 0.000000 0.000000
1.941461 -0.758927 0.640058 0.000000 0.000000 0.000000
1.935766 -0.747159 0.645021 0.000000 0.000000 0.000000
1.837148 -0.841892 0.455977 0.000000 0.000000 0.000000
1.924312 -0.879440 0.489556 0.000000 0.000000 0.000000
1.848257 -0.835826 0.439170 0.000000 0.000000 0.000000
1.954434 -0.856953 0.421104 0.000000 0.000000 0.000000
2.264157 -0.802283 0.576787 0.000000 0.000000 0.000000
1.779909 -0.763289 0.422545 0.000000 0.000000 0.000000
1.784105 -0.781190 0.482593 0.000000 0.000000 0.000000
1.776278 -0.766435 0.417213 0.000000 0.000000 0.000000
2.407852 -0.833231 0.681638 0.000000 0.000000 0.000000
1.809293 -0.772589 0.419940 0.000000 0.000000 0.000000
1.736096 -0.773912 0.434470 0.000000 0.000000 0.000000
1.777217 -0.764357 0.418957 0.000000 0.000000 0.000000
1.803492 -0.775952 0.421503 0.000000 0.000000 0.000000
2.384985 -0.831560 0.622158 0.000000 0.000000 0.000000
1.778834 -0.772291 0.415028 0.000000 0.000000 0.000000
1.730986 -0.781573 0.442516 0.000000 0.000000 0.000000
1.779027 -0.795816 0.442053 0.000000 0.000000 0.000000
1.728097 -0.766366 0.440404 0.000000 0.000000 0.000000
2.425413 -0.828522 0.677395 0.000000 0.000000 0.000000
2.420941 -0.824819 0.675234 0.000000 0.000000 0.000000
1.909726 -0.872151 0.488716 0.000000 0.000000 0.000000
1.922759 -0.875536 0.501704 0.000000 0.000000 0.000000
2.231634 -0.781113 0.598748 0.000000 0.000000 0.000000
1.971083 -0.867993 0.435528 0.000000 0.000000 0.000000
1.784662 -0.837964 0.471041 0.000000 0.000000 0.000000
2.413819 -0.823058 0.675547 0.000000 0.000000 0.000000
1.882110 -0.752457 0.570616 0.000000 0.000000 0.000000
1.805833 -0.781251 0.547042 0.000000 0.000000 0.000000
1.776207 -0.794798 0.489626 0.000000 0.000000 0.000000
1.799251 -0.838163 0.467433 0.000000 0.000000 0.000000
1.828103 -0.814128 0.428426 0.000000 0.000000 0.000000
1.814140 -0.807947 0.428559 0.000000 0.000000 0.000000
2.014009 -0.845989 0.608458 0.000000 0.000000 0.000000
2.423979 -0.826508 0.680387 0.000000 0.000000 0.000000
1.925372 -0.874205 0.491055 0.000000 0.000000 0.000000
1.940090 -0.872260 0.510606 0.000000 0.000000 0.000000
1.818969 -0.813577 0.431110 0.000000 0.000000 0.000000
2.216892 -0.778076 0.587436 0.000000 0.000000 0.000000
1.909324 -0.865661 0.445224 0.000000 0.000000 0.000000
1.782163 -0.829607 0.468083 0.000000 0.000000 0.000000
2.141514 -0.844997 0.481762 0.000000 0.000000 0.000000
2.365259 -0.788871 0.679819 0.000000 0.000000 0.000000
1.802958 -0.783317 0.536126 0.000000 0.000000 0.000000
1.779563 -0.793414 0.490630 0.000000 0.000000 0.000000
1.788387 -0.831585 0.467430 0.000000 0.000000 0.000000
1.981495 -0.742537 0.654763 0.000000 0.000000 0.000000
1.816937 -0.809587 0.428841 0.000000 0.000000 0.000000
1.763763 -0.813296 0.451780 0.000000 0.000000 0.000000
2.020531 -0.842310 0.622443 0.000000 0.000000 0.000000
1.917935 -0.864463 0.472590 0.000000 0.000000 0.000000
1.792830 -0.773367 0.411013 0.000000 0.000000 0.000000
1.781596 -0.775549 0.421066 0.000000 0.000000 0.000000
1.805269 -0.784107 0.437699 0.000000 0.000000 0.000000
1.809540 -0.806041 0.439316 0.000000 0.000000 0.000000
1.804427 -0.785114 0.435693 0.000000 0.000000 0.000000
1.806834 -0.786291 0.424283 0.000000 0.000000 0.000000
1.801131 -0.781155 0.435766 0.000000 0.000000 0.000000
2.420959 -0.833831 0.650921 0.000000 0.000000 0.000000
1.783767 -0.771853 0.410825 0.000000 0.000000 0.000000
1.764153 -0.767613 0.422100 0.000000 0.000000 0.000000
1.770311 -0.761602 0.416137 0.000000 0.000000 0.000000
1.785712 -0.769138 0.410117 0.000000 0.000000 0.000000
1.801138 -0.778462 0.417771 0.000000 0.000000 0.000000
1.861718 -0.850045 0.452035 0.000000 0.000000 0.000000
1.775650 -0.808877 0.452367 0.000000 0.000000 0.000000
1.769031 -0.809293 0.448740 0.000000 0.000000 0.000000
1.785285 -0.809099 0.450249 0.000000 0.000000 0.000000
1.833805 -0.783811 0.553797 0.000000 0.000000 0.000000
1.870470 -0.760930 0.562362 0.000000 0.000000 0.000000
1.822807 -0.775647 0.543775 0.000000 0.000000 0.000000
2.292948 -0.770277 0.690151 0.000000 0.000000 0.000000
1.800320 -0.842795 0.477315 0.000000 0.000000 0.000000
1.763693 -0.825482 0.482874 0.000000 0.000000 0.000000
1.806050 -0.834049 0.464891 0.000000 0.000000 0.000000
2.199336 -0.835574 0.499687 0.000000 0.000000 0.000000
1.825937 -0.774728 0.564715 0.000000 0.000000 0.000000
1.775666 -0.768334 0.424240 0.000000 0.000000 0.000000
2.114419 -0.740430 0.673971 0.000000 0.000000 0.000000
1.797596 -0.840327 0.473480 0.000000 0.000000 0.000000
1.927514 -0.856627 0.425508 0.000000 0.000000 0.000000
1.822658 -0.774093 0.559487 0.000000 0.000000 0.000000
1.806962 -0.847334 0.471463 0.000000 0.000000 0.000000
1.810634 -0.842916 0.464552 0.000000 0.000000 0.000000
1.956081 -0.856043 0.428513 0.000000 0.000000 0.000000
1.790224 -0.817098 0.450456 0.000000 0.000000 0.000000
1.783691 -0.811887 0.451764 0.000000 0.000000 0.000000
1.772973 -0.804380 0.446567 0.000000 0.000000 0.000000
1.795755 -0.808173 0.436689 0.000000 0.000000 0.000000
2.105127 -0.737739 0.674485 0.000000 0.000000 0.000000
1.898031 -0.749907 0.620721 0.000000 0.000000 0.000000
1.824838 -0.830832 0.451880 0.000000 0.000000 0.000000
1.770408 -0.811107 0.446333 0.000000 0.000000 0.000000
1.787731 -0.819495 0.438778 0.000000 0.000000 0.000000
1.776740 -0.810124 0.460597 0.000000 0.000000 0.000000
1.784883 -0.818259 0.448718 0.000000 0.000000 0.000000
1.824922 -0.772931 0.557943 0.000000 0.000000 0.000000
1.817762 -0.777439 0.538167 0.000000 0.000000 0.000000
2.295163 -0.773430 0.687751 0.000000 0.000000 0.000000
1.767200 -0.817396 0.474528 0.000000 0.000000 0.000000
1.781022 -0.823166 0.472557 0.000000 0.000000 0.000000
2.207682 -0.830577 0.498951 0.000000 0.000000 0.000000
1.827067 -0.773959 0.560420 0.000000 0.000000 0.000000
1.773845 -0.770426 0.413443 0.000000 0.000000 0.000000
2.112830 -0.738716 0.676083 0.000000 0.000000 0.000000
1.790737 -0.838044 0.460165 0.000000 0.000000 0.000000
1.918977 -0.857459 0.431341 0.000000 0.000000 0.000000
1.824243 -0.776140 0.563406 0.000000 0.000000 0.000000
1.813235 -0.846438 0.468136 0.000000 0.000000 0.000000
1.845876 -0.856393 0.477906 0.000000 0.000000 0.000000
1.785895 -0.814414 0.449231 0.000000 0.000000 0.000000
1.789198 -0.813702 0.449913 0.000000 0.000000 0.000000
1.784193 -0.803292 0.442915 0.000000 0.000000 0.000000
1.804540 -0.807778 0.436471 0.000000 0.000000 0.000000
2.096402 -0.738275 0.674724 0.000000 0.000000 0.000000
1.896049 -0.750307 0.611136 0.000000 0.000000 0.000000
1.749352 -0.779641 0.449810 0.000000 0.000000 0.000000
2.193117 -0.841114 0.503120 0.000000 0.000000 0.000000
2.086348 -0.857937 0.451581 0.000000 0.000000 0.000000
1.730773 -0.784353 0.443189 0.000000 0.000000 0.000000
2.095412 -0.857004 0.454083 0.000000 0.000000 0.000000
1.763586 -0.821193 0.480638 0.000000 0.000000 0.000000
1.743667 -0.801676 0.466109 0.000000 0.000000 0.000000
2.197362 -0.839106 0.500136 0.000000 0.000000 0.000000
1.764146 -0.799278 0.469777 0.000000 0.000000 0.000000
2.210451 -0.843237 0.505683 0.000000 0.000000 0.000000
2.403299 -0.828784 0.639953 0.000000 0.000000 0.000000
1.745112 -0.798239 0.459688 0.000000 0.000000 0.000000
1.731492 -0.789927 0.451050 0.000000 0.000000 0.000000
1.866448 -0.838394 0.430284 0.000000 0.000000 0.000000
1.758354 -0.803672 0.463670 0.000000 0.000000 0.000000
1.830535 -0.773699 0.567469 0.000000 0.000000 0.000000
1.786871 -0.839720 0.465027 0.000000 0.000000 0.000000
2.422042 -0.830839 0.652923 0.000000 0.000000 0.000000
2.197214 -0.834711 0.507096 0.000000 0.000000 0.000000
1.787336 -0.832324 0.467101 0.000000 0.000000 0.000000
2.334334 -0.791165 0.690633 0.000000 0.000000 0.000000
1.835874 -0.824153 0.431929 0.000000 0.000000 0.000000
2.183866 -0.833533 0.500653 0.000000 0.000000 0.000000
2.078185 -0.855825 0.452552 0.000000 0.000000 0.000000
2.045944 -0.856731 0.477814 0.000000 0.000000 0.000000
1.992050 -0.782737 0.552514 0.000000 0.000000 0.000000
1.738714 -0.793974 0.459662 0.000000 0.000000 0.000000
1.805421 -0.816224 0.513113 0.000000 0.000000 0.000000
1.860918 -0.830938 0.427106 0.000000 0.000000 0.000000
1.799385 -0.797580 0.514056 0.000000 0.000000 0.000000
1.977173 -0.746939 0.654822 0.000000 0.000000 0.000000
1.883826 -0.783940 0.508108 0.000000 0.000000 0.000000
1.816968 -0.839732 0.475437 0.000000 0.000000 0.000000
1.863458 -0.832116 0.428385 0.000000 0.000000 0.000000
1.846143 -0.768452 0.575208 0.000000 0.000000 0.000000
1.840284 -0.814302 0.425213 0.000000 0.000000 0.000000
2.209179 -0.832720 0.502678 0.000000 0.000000 0.000000
1.960981 -0.788687 0.627100 0.000000 0.000000 0.000000
1.793924 -0.788184 0.491278 0.000000 0.000000 0.000000
1.831672 -0.811706 0.426356 0.000000 0.000000 0.000000
1.852287 -0.817263 0.421549 0.000000 0.000000 0.000000
1.823168 -0.833487 0.524408 0.000000 0.000000 0.000000
1.821800 -0.806889 0.532937 0.000000 0.000000 0.000000
1.833756 -0.812651 0.427589 0.000000 0.000000 0.000000
1.791767 -0.784479 0.446540 0.000000 0.000000 0.000000
2.206122 -0.835136 0.507538 0.000000 0.000000 0.000000
1.786050 -0.827289 0.464465 0.000000 0.000000 0.000000
2.331025 -0.790456 0.693403 0.000000 0.000000 0.000000
2.333380 -0.789276 0.680677 0.000000 0.000000 0.000000
1.848788 -0.832958 0.433232 0.000000 0.000000 0.000000
2.095070 -0.853279 0.458493 0.000000 0.000000 0.000000
2.027111 -0.864628 0.474902 0.000000 0.000000 0.000000
2.070920 -0.781640 0.569133 0.000000 0.000000 0.000000
1.738678 -0.781922 0.449388 0.000000 0.000000 0.000000
1.806985 -0.815831 0.526228 0.000000 0.000000 0.000000
1.859177 -0.831102 0.428686 0.000000 0.000000 0.000000
1.792847 -0.801305 0.502405 0.000000 0.000000 0.000000
1.977260 -0.742726 0.650242 0.000000 0.000000 0.000000
1.898440 -0.788485 0.514041 0.000000 0.000000 0.000000
1.800142 -0.842765 0.469536 0.000000 0.000000 0.000000
1.867196 -0.834633 0.430270 0.000000 0.000000 0.000000
1.842660 -0.770385 0.582297 0.000000 0.000000 0.000000
1.839263 -0.816155 0.426205 0.000000 0.000000 0.000000
2.213650 -0.833692 0.505590 0.000000 0.000000 0.000000
1.769499 -0.793507 0.475583 0.000000 0.000000 0.000000
1.957237 -0.783236 0.627355 0.000000 0.000000 0.000000
1.786331 -0.791845 0.484957 0.000000 0.000000 0.000000
1.843646 -0.815216 0.423577 0.000000 0.000000 0.000000
1.843514 -0.813617 0.422979 0.000000 0.000000 0.000000
1.836442 -0.827113 0.543472 0.000000 0.000000 0.000000
1.817024 -0.803859 0.536257 0.000000 0.000000 0.000000
1.824414 -0.811936 0.430489 0.000000 0.000000 0.000000
2.360118 -0.830951 0.605139 0.000000 0.000000 0.000000
2.359367 -0.831034 0.600867 0.000000 0.000000 0.000000
2.366713 -0.831231 0.609634 0.000000 0.000000 0.000000
2.370948 -0.832176 0.610595 0.000000 0.000000 0.000000
2.217403 -0.836541 0.514759 0.000000 0.000000 0.000000
2.432802 -0.835295 0.666739 0.000000 0.000000 0.000000
2.163121 -0.840757 0.489880 0.000000 0.000000 0.000000
2.366172 -0.837109 0.602040 0.000000 0.000000 0.000000
2.261971 -0.761529 0.690129 0.000000 0.000000 0.000000
2.354342 -0.833029 0.592062 0.000000 0.000000 0.000000
1.790992 -0.838025 0.469320 0.000000 0.000000 0.000000
1.833432 -0.814582 0.430100 0.000000 0.000000 0.000000
2.158130 -0.819604 0.508536 0.000000 0.000000 0.000000
2.340800 -0.826884 0.584980 0.000000 0.000000 0.000000
2.209455 -0.757717 0.689073 0.000000 0.000000 0.000000
2.356371 -0.827970 0.619407 0.000000 0.000000 0.000000
2.361807 -0.832811 0.599257 0.000000 0.000000 0.000000
2.176505 -0.801216 0.544132 0.000000 0.000000 0.000000
2.352367 -0.836139 0.588532 0.000000 0.000000 0.000000
2.183748 -0.797690 0.610998 0.000000 0.000000 0.000000
2.359550 -0.832361 0.598975 0.000000 0.000000 0.000000
2.162026 -0.842673 0.489930 0.000000 0.000000 0.000000
2.344074 -0.833941 0.586964 0.000000 0.000000 0.000000
2.347381 -0.831464 0.588837 0.000000 0.000000 0.000000
1.726793 -0.800870 0.454318 0.000000 0.000000 0.000000
2.360641 -0.831401 0.607413 0.000000 0.000000 0.000000
1.769168 -0.821096 0.478593 0.000000 0.000000 0.000000
1.779445 -0.794790 0.477069 0.000000 0.000000 0.000000
2.373787 -0.832991 0.613232 0.000000 0.000000 0.000000
1.905585 -0.838927 0.442320 0.000000 0.000000 0.000000
2.185362 -0.834214 0.504536 0.000000 0.000000 0.000000
1.978297 -0.811900 0.478866 0.000000 0.000000 0.000000
2.365322 -0.833626 0.603979 0.000000 0.000000 0.000000
1.759593 -0.795271 0.465476 0.000000 0.000000 0.000000
2.207188 -0.830843 0.511906 0.000000 0.000000 0.000000
2.363117 -0.829953 0.605806 0.000000 0.000000 0.000000
2.220877 -0.754478 0.681039 0.000000 0.000000 0.000000
2.370176 -0.825379 0.626541 0.000000 0.000000 0.000000
2.357262 -0.831905 0.602720 0.000000 0.000000 0.000000
2.163948 -0.798091 0.549772 0.000000 0.000000 0.000000
2.355880 -0.835006 0.591182 0.000000 0.000000 0.000000
2.263042 -0.791964 0.636678 0.000000 0.000000 0.000000
2.350917 -0.831277 0.591453 0.000000 0.000000 0.000000
2.160375 -0.844322 0.489442 0.000000 0.000000 0.000000
2.346748 -0.831867 0.587305 0.000000 0.000000 0.000000
2.364788 -0.833504 0.603036 0.000000 0.000000 0.000000
1.734371 -0.798509 0.451297 0.000000 0.000000 0.000000
2.373682 -0.831320 0.617259 0.000000 0.000000 0.000000
1.777388 -0.790709 0.485893 0.000000 0.000000 0.000000
2.376843 -0.831832 0.607077 0.000000 0.000000 0.000000
2.194380 -0.833113 0.508473 0.000000 0.000000 0.000000
1.961034 -0.807897 0.479948 0.000000 0.000000 0.000000
2.371583 -0.832727 0.606662 0.000000 0.000000 0.000000
1.767733 -0.791897 0.468136 0.000000 0.000000 0.000000
1.741676 -0.800966 0.457321 0.000000 0.000000 0.000000
1.787626 -0.773376 0.420625 0.000000 0.000000 0.000000
1.798240 -0.774569 0.422952 0.000000 0.000000 0.000000
1.940568 -0.862403 0.425460 0.000000 0.000000 0.000000
1.785967 -0.766083 0.508584 0.000000 0.000000 0.000000
1.907291 -0.853312 0.428549 0.000000 0.000000 0.000000
2.220849 -0.837950 0.516090 0.000000 0.000000 0.000000
1.786484 -0.770800 0.510191 0.000000 0.000000 0.000000
1.854225 -0.819897 0.422766 0.000000 0.000000 0.000000
1.729679 -0.799825 0.449893 0.000000 0.000000 0.000000
1.889936 -0.754906 0.575602 0.000000 0.000000 0.000000
1.963649 -0.871471 0.429983 0.000000 0.000000 0.000000
1.872695 -0.847180 0.438453 0.000000 0.000000 0.000000
1.891377 -0.752474 0.583724 0.000000 0.000000 0.000000
1.905491 -0.752781 0.587731 0.000000 0.000000 0.000000
1.886818 -0.754012 0.578069 0.000000 0.000000 0.000000
1.914839 -0.747202 0.599537 0.000000 0.000000 0.000000
1.939610 -0.857818 0.425854 0.000000 0.000000 0.000000
1.891505 -0.749673 0.583460 0.000000 0.000000 0.000000
1.821651 -0.822891 0.438586 0.000000 0.000000 0.000000
1.903146 -0.756023 0.584769 0.000000 0.000000 0.000000
1.896933 -0.787667 0.511966 0.000000 0.000000 0.000000
1.951819 -0.863215 0.431875 0.000000 0.000000 0.000000
1.855411 -0.788408 0.496218 0.000000 0.000000 0.000000
1.940801 -0.852979 0.436020 0.000000 0.000000 0.000000
1.959533 -0.863799 0.427116 0.000000 0.000000 0.000000
1.929201 -0.856513 0.423849 0.000000 0.000000 0.000000
1.793129 -0.782771 0.482896 0.000000 0.000000 0.000000
1.787679 -0.785075 0.479359 0.000000 0.000000 0.000000
1.938534 -0.865818 0.431500 0.000000 0.000000 0.000000
1.950739 -0.858675 0.428334 0.000000 0.000000 0.000000
1.880983 -0.843575 0.427129 0.000000 0.000000 0.000000
1.915364 -0.854263 0.428472 0.000000 0.000000 0.000000
1.921328 -0.856475 0.427467 0.000000 0.000000 0.000000
1.906040 -0.852300 0.427874 0.000000 0.000000 0.000000
2.262801 -0.853005 0.542742 0.000000 0.000000 0.000000
1.889588 -0.755015 0.573229 0.000000 0.000000 0.000000
1.912610 -0.759822 0.592919 0.000000 0.000000 0.000000
1.934576 -0.863302 0.430483 0.000000 0.000000 0.000000
1.834322 -0.836130 0.447859 0.000000 0.000000 0.000000
1.915568 -0.747190 0.599723 0.000000 0.000000 0.000000
1.897129 -0.748786 0.595764 0.000000 0.000000 0.000000
1.897488 -0.864789 0.449726 0.000000 0.000000 0.000000
1.912596 -0.748515 0.595912 0.000000 0.000000 0.000000
1.948897 -0.858953 0.427220 0.000000 0.000000 0.000000
2.298793 -0.826121 0.558514 0.000000 0.000000 0.000000
1.971899 -0.866349 0.431000 0.000000 0.000000 0.000000
1.910757 -0.748838 0.597578 0.000000 0.000000 0.000000
1.812478 -0.821684 0.438958 0.000000 0.000000 0.000000
1.869474 -0.790600 0.505967 0.000000 0.000000 0.000000
1.887733 -0.788007 0.509446 0.000000 0.000000 0.000000
1.959017 -0.856145 0.426516 0.000000 0.000000 0.000000
1.952714 -0.859584 0.423588 0.000000 0.000000 0.000000
1.895902 -0.849963 0.427305 0.000000 0.000000 0.000000
1.786528 -0.798346 0.476466 0.000000 0.000000 0.000000
1.797952 -0.781982 0.497953 0.000000 0.000000 0.000000
1.918002 -0.863205 0.430651 0.000000 0.000000 0.000000
1.878944 -0.844679 0.428043 0.000000 0.000000 0.000000
1.903849 -0.852145 0.429238 0.000000 0.000000 0.000000
1.932676 -0.858265 0.428733 0.000000 0.000000 0.000000
1.924279 -0.856472 0.424342 0.000000 0.000000 0.000000
2.252942 -0.852390 0.538796 0.000000 0.000000 0.000000
1.886851 -0.754857 0.572933 0.000000 0.000000 0.000000
1.750972 -0.796779 0.447956 0.000000 0.000000 0.000000
1.801781 -0.774454 0.414158 0.000000 0.000000 0.000000
1.809890 -0.770094 0.420447 0.000000 0.000000 0.000000
1.773564 -0.803585 0.456702 0.000000 0.000000 0.000000
1.884966 -0.848040 0.431057 0.000000 0.000000 0.000000
1.945778 -0.746036 0.638060 0.000000 0.000000 0.000000
1.836721 -0.811360 0.429626 0.000000 0.000000 0.000000
1.946458 -0.745439 0.646326 0.000000 0.000000 0.000000
1.960339 -0.740072 0.647491 0.000000 0.000000 0.000000
1.946172 -0.750967 0.644930 0.000000 0.000000 0.000000
1.939499 -0.747899 0.643186 0.000000 0.000000 0.000000
1.731629 -0.768078 0.437520 0.000000 0.000000 0.000000
1.792413 -0.834505 0.465296 0.000000 0.000000 0.000000
1.818841 -0.811398 0.433233 0.000000 0.000000 0.000000
1.797334 -0.841841 0.467690 0.000000 0.000000 0.000000
1.724201 -0.806311 0.462142 0.000000 0.000000 0.000000
2.017445 -0.746260 0.677510 0.000000 0.000000 0.000000
1.873841 -0.817392 0.587288 0.000000 0.000000 0.000000
1.942088 -0.745049 0.641331 0.000000 0.000000 0.000000
1.980726 -0.753580 0.659333 0.000000 0.000000 0.000000
1.934811 -0.748092 0.639599 0.000000 0.000000 0.000000
1.881392 -0.841913 0.426657 0.000000 0.000000 0.000000
1.780259 -0.788789 0.478817 0.000000 0.000000 0.000000
1.957583 -0.748892 0.652145 0.000000 0.000000 0.000000
1.941387 -0.743630 0.639590 0.000000 0.000000 0.000000
1.946679 -0.741909 0.640777 0.000000 0.000000 0.000000
1.730756 -0.805769 0.456301 0.000000 0.000000 0.000000
1.816213 -0.836332 0.456448 0.000000 0.000000 0.000000
1.723015 -0.803250 0.457990 0.000000 0.000000 0.000000
1.849769 -0.860092 0.481230 0.000000 0.000000 0.000000
1.807552 -0.844861 0.474438 0.000000 0.000000 0.000000
1.794367 -0.838645 0.470724 0.000000 0.000000 0.000000
2.332317 -0.828825 0.581573 0.000000 0.000000 0.000000
1.720124 -0.798397 0.454283 0.000000 0.000000 0.000000
2.029208 -0.749373 0.679165 0.000000 0.000000 0.000000
1.904984 -0.798323 0.621180 0.000000 0.000000 0.000000
1.942162 -0.745914 0.637327 0.000000 0.000000 0.000000
1.968700 -0.751459 0.648651 0.000000 0.000000 0.000000
1.947557 -0.748991 0.638929 0.000000 0.000000 0.000000
1.886093 -0.845723 0.426037 0.000000 0.000000 0.000000
1.784449 -0.790620 0.479711 0.000000 0.000000 0.000000
1.931997 -0.747858 0.636410 0.000000 0.000000 0.000000
1.961095 -0.746664 0.652764 0.000000 0.000000 0.000000
1.933493 -0.744559 0.634649 0.000000 0.000000 0.000000
1.940968 -0.741679 0.642938 0.000000 0.000000 0.000000
1.831705 -0.842810 0.456539 0.000000 0.000000 0.000000
1.720162 -0.803368 0.457468 0.000000 0.000000 0.000000
1.812817 -0.847915 0.477250 0.000000 0.000000 0.000000
1.786911 -0.833784 0.472682 0.000000 0.000000 0.000000
1.792078 -0.836993 0.466696 0.000000 0.000000 0.000000
2.331755 -0.828525 0.579874 0.000000 0.000000 0.000000
1.736752 -0.785080 0.451270 0.000000 0.000000 0.000000
1.767536 -0.761723 0.410995 0.000000 0.000000 0.000000
1.965622 -0.865387 0.423180 0.000000 0.000000 0.000000
1.771405 -0.762347 0.411536 0.000000 0.000000 0.000000
2.020136 -0.738471 0.650974 0.000000 0.000000 0.000000
1.951613 -0.856814 0.422918 0.000000 0.000000 0.000000
1.965625 -0.754881 0.629323 0.000000 0.000000 0.000000
1.932236 -0.742580 0.618555 0.000000 0.000000 0.000000
1.808136 -0.794051 0.522992 0.000000 0.000000 0.000000
1.858383 -0.848546 0.443141 0.000000 0.000000 0.000000
2.066898 -0.783940 0.568920 0.000000 0.000000 0.000000
1.817721 -0.826916 0.526692 0.000000 0.000000 0.000000
2.393787 -0.831788 0.631423 0.000000 0.000000 0.000000
2.011654 -0.738898 0.646271 0.000000 0.000000 0.000000
2.040718 -0.740440 0.674753 0.000000 0.000000 0.000000
1.992634 -0.870969 0.418360 0.000000 0.000000 0.000000
1.918724 -0.751166 0.628545 0.000000 0.000000 0.000000
2.002306 -0.866903 0.420860 0.000000 0.000000 0.000000
1.912444 -0.748441 0.617443 0.000000 0.000000 0.000000
1.894975 -0.752655 0.619674 0.000000 0.000000 0.000000
1.936514 -0.854461 0.425154 0.000000 0.000000 0.000000
1.938284 -0.742851 0.633019 0.000000 0.000000 0.000000
1.934970 -0.858984 0.430534 0.000000 0.000000 0.000000
1.922795 -0.754068 0.629640 0.000000 0.000000 0.000000
2.018192 -0.740289 0.649573 0.000000 0.000000 0.000000
1.948952 -0.856953 0.420477 0.000000 0.000000 0.000000
1.997885 -0.742153 0.648300 0.000000 0.000000 0.000000
1.926118 -0.748616 0.615054 0.000000 0.000000 0.000000
1.784983 -0.801496 0.495375 0.000000 0.000000 0.000000
1.875403 -0.857006 0.440126 0.000000 0.000000 0.000000
2.225686 -0.779216 0.607416 0.000000 0.000000 0.000000
1.818109 -0.834284 0.508448 0.000000 0.000000 0.000000
2.023714 -0.738088 0.657368 0.000000 0.000000 0.000000
2.022725 -0.740609 0.670543 0.000000 0.000000 0.000000
1.976808 -0.847933 0.415268 0.000000 0.000000 0.000000
1.919088 -0.749140 0.627008 0.000000 0.000000 0.000000
1.991319 -0.854995 0.417395 0.000000 0.000000 0.000000
1.914341 -0.746952 0.625843 0.000000 0.000000 0.000000
1.900600 -0.752964 0.621210 0.000000 0.000000 0.000000
1.963301 -0.871785 0.419457 0.000000 0.000000 0.000000
1.975611 -0.861787 0.439452 0.000000 0.000000 0.000000
1.954089 -0.742390 0.645120 0.000000 0.000000 0.000000
1.932356 -0.859592 0.427911 0.000000 0.000000 0.000000
1.933231 -0.744992 0.635941 0.000000 0.000000 0.000000
1.784293 -0.777359 0.429269 0.000000 0.000000 0.000000
1.781846 -0.774434 0.499804 0.000000 0.000000 0.000000
1.779150 -0.766975 0.417090 0.000000 0.000000 0.000000
1.785389 -0.773842 0.501743 0.000000 0.000000 0.000000
1.802825 -0.777300 0.411412 0.000000 0.000000 0.000000
1.782908 -0.780201 0.432188 0.000000 0.000000 0.000000
1.775578 -0.773743 0.432090 0.000000 0.000000 0.000000
1.789533 -0.774491 0.501408 0.000000 0.000000 0.000000
1.748242 -0.800081 0.467252 0.000000 0.000000 0.000000
1.784253 -0.765566 0.419540 0.000000 0.000000 0.000000
1.778475 -0.764614 0.419712 0.000000 0.000000 0.000000
1.781561 -0.765976 0.420874 0.000000 0.000000 0.000000
1.785725 -0.823710 0.475939 0.000000 0.000000 0.000000
1.799411 -0.785177 0.543292 0.000000 0.000000 0.000000
2.192115 -0.836365 0.494838 0.000000 0.000000 0.000000
1.954015 -0.859524 0.422566 0.000000 0.000000 0.000000
1.887480 -0.756416 0.617449 0.000000 0.000000 0.000000
1.854190 -0.795212 0.498288 0.000000 0.000000 0.000000
1.964302 -0.862946 0.434465 0.000000 0.000000 0.000000
1.746087 -0.798488 0.457090 0.000000 0.000000 0.000000
2.387171 -0.813006 0.682421 0.000000 0.000000 0.000000
1.999558 -0.781635 0.544121 0.000000 0.000000 0.000000
2.096511 -0.759233 0.684710 0.000000 0.000000 0.000000
1.796861 -0.783763 0.524077 0.000000 0.000000 0.000000
2.053632 -0.747217 0.679404 0.000000 0.000000 0.000000
2.064407 -0.747215 0.680772 0.000000 0.000000 0.000000
2.062792 -0.752716 0.678868 0.000000 0.000000 0.000000
2.094591 -0.770543 0.673054 0.000000 0.000000 0.000000
2.010760 -0.842252 0.614037 0.000000 0.000000 0.000000
1.974123 -0.784300 0.524445 0.000000 0.000000 0.000000
2.080186 -0.757571 0.684701 0.000000 0.000000 0.000000
1.791255 -0.773789 0.504030 0.000000 0.000000 0.000000
1.806702 -0.780554 0.505877 0.000000 0.000000 0.000000
2.038736 -0.743163 0.674562 0.000000 0.000000 0.000000
2.045922 -0.742173 0.678634 0.000000 0.000000 0.000000
2.039689 -0.762282 0.675389 0.000000 0.000000 0.000000
2.068714 -0.787696 0.672544 0.000000 0.000000 0.000000
2.085143 -0.754943 0.671310 0.000000 0.000000 0.000000
2.070123 -0.747048 0.681685 0.000000 0.000000 0.000000
2.121702 -0.794419 0.670044 0.000000 0.000000 0.000000
1.967280 -0.811226 0.624746 0.000000 0.000000 0.000000
2.104061 -0.747522 0.685491 0.000000 0.000000 0.000000
1.887499 -0.753715 0.615362 0.000000 0.000000 0.000000
2.401278 -0.831854 0.631461 0.000000 0.000000 0.000000
1.891540 -0.757998 0.615486 0.000000 0.000000 0.000000
1.814350 -0.790545 0.485410 0.000000 0.000000 0.000000
2.024789 -0.867110 0.435120 0.000000 0.000000 0.000000
1.751489 -0.801629 0.456419 0.000000 0.000000 0.000000
2.408395 -0.825492 0.678202 0.000000 0.000000 0.000000
1.996678 -0.786165 0.541191 0.000000 0.000000 0.000000
2.044893 -0.742907 0.669685 0.000000 0.000000 0.000000
1.791448 -0.785129 0.512710 0.000000 0.000000 0.000000
2.038188 -0.749624 0.676125 0.000000 0.000000 0.000000
2.082583 -0.757076 0.685013 0.000000 0.000000 0.000000
2.085744 -0.760512 0.681054 0.000000 0.000000 0.000000
2.074227 -0.771657 0.679229 0.000000 0.000000 0.000000
1.964497 -0.833602 0.605582 0.000000 0.000000 0.000000
1.966978 -0.783281 0.520831 0.000000 0.000000 0.000000
2.067308 -0.758481 0.682275 0.000000 0.000000 0.000000
1.788809 -0.771501 0.499227 0.000000 0.000000 0.000000
1.807783 -0.778516 0.502197 0.000000 0.000000 0.000000
2.048186 -0.758858 0.668672 0.000000 0.000000 0.000000
2.045330 -0.757935 0.677323 0.000000 0.000000 0.000000
2.043055 -0.774197 0.669949 0.000000 0.000000 0.000000
2.057147 -0.750848 0.672238 0.000000 0.000000 0.000000
2.085854 -0.750218 0.683132 0.000000 0.000000 0.000000
2.085193 -0.791734 0.670862 0.000000 0.000000 0.000000
1.972221 -0.829508 0.622882 0.000000 0.000000 0.000000
1.883339 -0.755010 0.595733 0.000000 0.000000 0.000000
2.402471 -0.830338 0.637648 0.000000 0.000000 0.000000
1.887215 -0.753850 0.613134 0.000000 0.000000 0.000000
1.773510 -0.786396 0.438267 0.000000 0.000000 0.000000
1.797800 -0.778927 0.428964 0.000000 0.000000 0.000000
1.797779 -0.774094 0.420113 0.000000 0.000000 0.000000
1.746771 -0.758155 0.442322 0.000000 0.000000 0.000000
1.798080 -0.776334 0.413081 0.000000 0.000000 0.000000
