ply
format ascii 1.0
comment VCGLIB generated
obj_info Generated by SPFormer!
element vertex 854
property float x
property float y
property float z
property float nx
property float ny
property float nz
end_header
-0.149232 -1.065443 1.839989 0.000000 0.000000 0.000000
-0.168794 -1.069768 1.821553 0.000000 0.000000 0.000000
-0.225150 -1.027240 2.019298 0.000000 0.000000 0.000000
-0.134753 -1.072806 1.811143 0.000000 0.000000 0.000000
-0.107183 -1.092534 2.022551 0.000000 0.000000 0.000000
-0.250616 -1.017420 2.137148 0.000000 0.000000 0.000000
-0.230526 -1.018938 1.998742 0.000000 0.000000 0.000000
-0.179889 -1.057428 1.853706 0.000000 0.000000 0.000000
-0.028365 -1.134825 1.859325 0.000000 0.000000 0.000000
-0.000515 -1.146899 1.718765 0.000000 0.000000 0.000000
-0.225571 -1.028373 2.097994 0.000000 0.000000 0.000000
-0.221373 -1.020416 1.987686 0.000000 0.000000 0.000000
-0.139785 -1.074002 2.049055 0.000000 0.000000 0.000000
-0.145307 -1.067129 1.811458 0.000000 0.000000 0.000000
-0.247777 -1.018138 2.023334 0.000000 0.000000 0.000000
-0.246280 -1.014871 2.120597 0.000000 0.000000 0.000000
-0.241168 -1.017109 2.106323 0.000000 0.000000 0.000000
-0.254568 -1.012753 2.120576 0.000000 0.000000 0.000000
0.012925 -1.131073 1.686266 0.000000 0.000000 0.000000
-0.211494 -1.034258 1.958505 0.000000 0.000000 0.000000
-0.102471 -1.080234 1.882182 0.000000 0.000000 0.000000
-0.056586 -1.096967 1.766782 0.000000 0.000000 0.000000
-0.066482 -1.111155 1.848630 0.000000 0.000000 0.000000
-0.091490 -1.107569 1.991167 0.000000 0.000000 0.000000
-0.058134 -1.097471 1.696340 0.000000 0.000000 0.000000
-0.110093 -1.098607 2.001182 0.000000 0.000000 0.000000
-0.066971 -1.093963 1.705912 0.000000 0.000000 0.000000
-0.241282 -1.020741 2.024798 0.000000 0.000000 0.000000
-0.113842 -1.076856 1.816104 0.000000 0.000000 0.000000
0.009303 -1.128163 1.668441 0.000000 0.000000 0.000000
-0.117781 -1.076521 1.823824 0.000000 0.000000 0.000000
-0.124924 -1.075780 1.767985 0.000000 0.000000 0.000000
-0.110793 -1.098514 2.001094 0.000000 0.000000 0.000000
-0.240442 -1.024973 1.998214 0.000000 0.000000 0.000000
-0.057271 -1.096810 1.707349 0.000000 0.000000 0.000000
-0.050383 -1.099205 1.704268 0.000000 0.000000 0.000000
0.005954 -1.117432 1.668814 0.000000 0.000000 0.000000
-0.224632 -1.027780 2.109606 0.000000 0.000000 0.000000
-0.112540 -1.092566 2.021759 0.000000 0.000000 0.000000
-0.093170 -1.087409 1.746805 0.000000 0.000000 0.000000
-0.243755 -1.020909 2.115903 0.000000 0.000000 0.000000
-0.225146 -1.022586 1.947279 0.000000 0.000000 0.000000
-0.223565 -1.024655 1.941049 0.000000 0.000000 0.000000
-0.034158 -1.133265 1.923094 0.000000 0.000000 0.000000
-0.238270 -1.018826 2.130996 0.000000 0.000000 0.000000
-0.115158 -1.075245 1.804686 0.000000 0.000000 0.000000
-0.088016 -1.086754 1.723474 0.000000 0.000000 0.000000
-0.153418 -1.068480 1.822184 0.000000 0.000000 0.000000
0.016516 -1.125300 1.674396 0.000000 0.000000 0.000000
-0.227174 -1.023117 2.061804 0.000000 0.000000 0.000000
-0.030016 -1.135627 1.866988 0.000000 0.000000 0.000000
-0.150881 -1.065541 1.938120 0.000000 0.000000 0.000000
-0.083167 -1.096155 1.836745 0.000000 0.000000 0.000000
-0.134313 -1.072964 1.820441 0.000000 0.000000 0.000000
-0.253893 -1.017185 2.077609 0.000000 0.000000 0.000000
-0.145681 -1.071536 1.821400 0.000000 0.000000 0.000000
-0.014026 -1.143598 1.794015 0.000000 0.000000 0.000000
-0.055250 -1.097304 1.721301 0.000000 0.000000 0.000000
-0.083079 -1.114022 1.971319 0.000000 0.000000 0.000000
-0.074038 -1.093468 1.716625 0.000000 0.000000 0.000000
-0.247130 -1.018572 2.130897 0.000000 0.000000 0.000000
-0.248671 -1.017036 2.029505 0.000000 0.000000 0.000000
-0.250168 -1.018616 2.083038 0.000000 0.000000 0.000000
-0.050669 -1.121668 1.912634 0.000000 0.000000 0.000000
0.012190 -1.126384 1.676281 0.000000 0.000000 0.000000
-0.081058 -1.089978 1.722673 0.000000 0.000000 0.000000
-0.185111 -1.042719 1.953418 0.000000 0.000000 0.000000
-0.130302 -1.078169 1.786348 0.000000 0.000000 0.000000
-0.156147 -1.067674 1.779344 0.000000 0.000000 0.000000
-0.133578 -1.062632 1.770871 0.000000 0.000000 0.000000
-0.150770 -1.073049 1.789503 0.000000 0.000000 0.000000
-0.214425 -1.028005 2.032575 0.000000 0.000000 0.000000
-0.078703 -1.091603 1.714866 0.000000 0.000000 0.000000
-0.021375 -1.137165 1.812649 0.000000 0.000000 0.000000
-0.242728 -1.018238 2.100330 0.000000 0.000000 0.000000
-0.131691 -1.073858 1.790841 0.000000 0.000000 0.000000
-0.139189 -1.071545 1.773795 0.000000 0.000000 0.000000
-0.141213 -1.074250 1.793323 0.000000 0.000000 0.000000
-0.225507 -1.024851 2.031298 0.000000 0.000000 0.000000
-0.016882 -1.132925 1.768605 0.000000 0.000000 0.000000
-0.058823 -1.110086 1.807184 0.000000 0.000000 0.000000
-0.031120 -1.136391 1.811530 0.000000 0.000000 0.000000
-0.101161 -1.099065 2.007836 0.000000 0.000000 0.000000
-0.238404 -1.019359 2.045084 0.000000 0.000000 0.000000
-0.252865 -1.015351 2.112185 0.000000 0.000000 0.000000
-0.231092 -1.028340 2.007941 0.000000 0.000000 0.000000
-0.210987 -1.032900 1.936558 0.000000 0.000000 0.000000
-0.067719 -1.093599 1.741360 0.000000 0.000000 0.000000
-0.220552 -1.029104 1.984713 0.000000 0.000000 0.000000
-0.225790 -1.028280 1.959831 0.000000 0.000000 0.000000
-0.191696 -1.042482 2.082316 0.000000 0.000000 0.000000
-0.171437 -1.062204 1.842615 0.000000 0.000000 0.000000
-0.216439 -1.031013 1.939208 0.000000 0.000000 0.000000
-0.080664 -1.114604 1.953662 0.000000 0.000000 0.000000
-0.173793 -1.047400 2.080872 0.000000 0.000000 0.000000
-0.159299 -1.053141 2.085590 0.000000 0.000000 0.000000
-0.245935 -1.017439 2.096805 0.000000 0.000000 0.000000
-0.174070 -1.050941 1.930799 0.000000 0.000000 0.000000
-0.220802 -1.026486 2.028090 0.000000 0.000000 0.000000
-0.186746 -1.040991 1.916312 0.000000 0.000000 0.000000
-0.170134 -1.056182 2.049655 0.000000 0.000000 0.000000
-0.180400 -1.050383 2.081521 0.000000 0.000000 0.000000
-0.223934 -1.036054 1.987401 0.000000 0.000000 0.000000
-0.043656 -1.099500 1.752200 0.000000 0.000000 0.000000
-0.073526 -1.091437 1.723441 0.000000 0.000000 0.000000
-0.192839 -1.047654 1.987227 0.000000 0.000000 0.000000
-0.219363 -1.025800 1.938367 0.000000 0.000000 0.000000
-0.211591 -1.029836 1.922576 0.000000 0.000000 0.000000
-0.254565 -1.016103 2.071464 0.000000 0.000000 0.000000
-0.252917 -1.017246 2.061850 0.000000 0.000000 0.000000
-0.234617 -1.023502 2.022224 0.000000 0.000000 0.000000
-0.221277 -1.030108 1.968579 0.000000 0.000000 0.000000
-0.068056 -1.093229 1.718548 0.000000 0.000000 0.000000
-0.027298 -1.133818 1.828817 0.000000 0.000000 0.000000
-0.215903 -1.030964 2.039147 0.000000 0.000000 0.000000
-0.077371 -1.092942 1.799477 0.000000 0.000000 0.000000
-0.241696 -1.022187 2.123303 0.000000 0.000000 0.000000
-0.033277 -1.135034 1.856898 0.000000 0.000000 0.000000
-0.016983 -1.143904 1.816576 0.000000 0.000000 0.000000
-0.023304 -1.137419 1.833063 0.000000 0.000000 0.000000
-0.238311 -1.020911 2.096145 0.000000 0.000000 0.000000
-0.088529 -1.088003 1.721095 0.000000 0.000000 0.000000
-0.215780 -1.038555 1.999419 0.000000 0.000000 0.000000
-0.021505 -1.145572 1.849331 0.000000 0.000000 0.000000
-0.224446 -1.029444 2.115372 0.000000 0.000000 0.000000
-0.257716 -1.012964 2.078842 0.000000 0.000000 0.000000
-0.234307 -1.020115 2.051619 0.000000 0.000000 0.000000
-0.245796 -1.018778 2.139848 0.000000 0.000000 0.000000
-0.030461 -1.132645 1.871947 0.000000 0.000000 0.000000
-0.028387 -1.137443 1.847897 0.000000 0.000000 0.000000
-0.014133 -1.150798 1.791276 0.000000 0.000000 0.000000
-0.156417 -1.071774 1.793715 0.000000 0.000000 0.000000
-0.140522 -1.068436 2.052844 0.000000 0.000000 0.000000
-0.223208 -1.036717 1.967856 0.000000 0.000000 0.000000
-0.241826 -1.021840 2.138619 0.000000 0.000000 0.000000
-0.191904 -1.051171 1.967367 0.000000 0.000000 0.000000
-0.209882 -1.035614 1.961770 0.000000 0.000000 0.000000
-0.003039 -1.113197 1.698960 0.000000 0.000000 0.000000
-0.063641 -1.104511 1.885933 0.000000 0.000000 0.000000
-0.137397 -1.073763 2.049819 0.000000 0.000000 0.000000
-0.152232 -1.057062 2.079483 0.000000 0.000000 0.000000
-0.110625 -1.080006 1.733572 0.000000 0.000000 0.000000
-0.132025 -1.070189 1.870355 0.000000 0.000000 0.000000
-0.164232 -1.063333 2.052603 0.000000 0.000000 0.000000
-0.145684 -1.071434 2.047137 0.000000 0.000000 0.000000
-0.008974 -1.141164 1.791137 0.000000 0.000000 0.000000
-0.105929 -1.081612 1.731771 0.000000 0.000000 0.000000
-0.183564 -1.041766 1.925696 0.000000 0.000000 0.000000
-0.195091 -1.036019 2.116718 0.000000 0.000000 0.000000
-0.018037 -1.150161 1.822698 0.000000 0.000000 0.000000
-0.048396 -1.126385 1.928190 0.000000 0.000000 0.000000
-0.188157 -1.038246 2.098491 0.000000 0.000000 0.000000
-0.104321 -1.102127 1.949502 0.000000 0.000000 0.000000
-0.215700 -1.027358 1.929906 0.000000 0.000000 0.000000
-0.199641 -1.038500 2.113275 0.000000 0.000000 0.000000
-0.103745 -1.079918 1.739378 0.000000 0.000000 0.000000
-0.112775 -1.097421 2.013857 0.000000 0.000000 0.000000
-0.065796 -1.122458 1.956686 0.000000 0.000000 0.000000
-0.219574 -1.032097 2.102577 0.000000 0.000000 0.000000
-0.207673 -1.034649 2.107297 0.000000 0.000000 0.000000
-0.186825 -1.040152 2.106910 0.000000 0.000000 0.000000
-0.167993 -1.063553 1.838835 0.000000 0.000000 0.000000
-0.078352 -1.091859 1.711079 0.000000 0.000000 0.000000
-0.092826 -1.104987 1.997154 0.000000 0.000000 0.000000
-0.239114 -1.019790 2.043094 0.000000 0.000000 0.000000
-0.253197 -1.016485 2.061187 0.000000 0.000000 0.000000
-0.169005 -1.048798 2.091325 0.000000 0.000000 0.000000
-0.126353 -1.083644 2.033676 0.000000 0.000000 0.000000
-0.134800 -1.081023 2.031982 0.000000 0.000000 0.000000
0.010120 -1.131652 1.674570 0.000000 0.000000 0.000000
-0.167363 -1.056608 1.860682 0.000000 0.000000 0.000000
-0.124066 -1.071805 1.744354 0.000000 0.000000 0.000000
-0.221492 -1.031362 2.014239 0.000000 0.000000 0.000000
-0.083997 -1.089771 1.716699 0.000000 0.000000 0.000000
-0.247785 -1.016870 2.117162 0.000000 0.000000 0.000000
-0.256260 -1.011877 2.145979 0.000000 0.000000 0.000000
-0.223178 -1.029875 2.100653 0.000000 0.000000 0.000000
-0.214105 -1.027866 2.033966 0.000000 0.000000 0.000000
-0.234932 -1.020932 2.111279 0.000000 0.000000 0.000000
-0.210181 -1.033657 2.100852 0.000000 0.000000 0.000000
-0.258677 -1.012734 2.111135 0.000000 0.000000 0.000000
-0.228211 -1.035034 2.112880 0.000000 0.000000 0.000000
0.011957 -1.136702 1.690426 0.000000 0.000000 0.000000
-0.237629 -1.024884 2.126766 0.000000 0.000000 0.000000
-0.220431 -1.025207 2.118827 0.000000 0.000000 0.000000
-0.124109 -1.069195 1.744313 0.000000 0.000000 0.000000
-0.211907 -1.036544 2.112079 0.000000 0.000000 0.000000
-0.017220 -1.139531 1.794744 0.000000 0.000000 0.000000
-0.255457 -1.013708 2.135859 0.000000 0.000000 0.000000
-0.005661 -1.116805 1.687394 0.000000 0.000000 0.000000
-0.184562 -1.044209 1.894740 0.000000 0.000000 0.000000
-0.001188 -1.132360 1.693803 0.000000 0.000000 0.000000
-0.253829 -1.015162 2.058046 0.000000 0.000000 0.000000
-0.249484 -1.015792 2.106712 0.000000 0.000000 0.000000
-0.206139 -1.033064 2.106843 0.000000 0.000000 0.000000
-0.258199 -1.010900 2.118365 0.000000 0.000000 0.000000
-0.236648 -1.029804 1.994654 0.000000 0.000000 0.000000
-0.166142 -1.049118 2.093337 0.000000 0.000000 0.000000
-0.231617 -1.026419 2.130389 0.000000 0.000000 0.000000
-0.122512 -1.068369 1.747214 0.000000 0.000000 0.000000
-0.013634 -1.111985 1.696202 0.000000 0.000000 0.000000
0.019641 -1.133819 1.679975 0.000000 0.000000 0.000000
-0.254093 -1.014196 2.102208 0.000000 0.000000 0.000000
-0.240532 -1.019968 2.047131 0.000000 0.000000 0.000000
-0.141455 -1.068077 1.792939 0.000000 0.000000 0.000000
-0.099898 -1.082011 1.734643 0.000000 0.000000 0.000000
-0.225284 -1.028463 2.015891 0.000000 0.000000 0.000000
-0.247726 -1.016035 2.053382 0.000000 0.000000 0.000000
-0.155513 -1.070591 1.821591 0.000000 0.000000 0.000000
0.009684 -1.143568 1.712355 0.000000 0.000000 0.000000
-0.078226 -1.089897 1.733179 0.000000 0.000000 0.000000
-0.221935 -1.033923 1.974312 0.000000 0.000000 0.000000
-0.224378 -1.020280 1.945192 0.000000 0.000000 0.000000
-0.239369 -1.017936 1.975000 0.000000 0.000000 0.000000
-0.239887 -1.021938 2.037061 0.000000 0.000000 0.000000
-0.065146 -1.094795 1.712223 0.000000 0.000000 0.000000
-0.039631 -1.138372 1.883293 0.000000 0.000000 0.000000
-0.194207 -1.045220 2.000428 0.000000 0.000000 0.000000
-0.209833 -1.029003 2.021658 0.000000 0.000000 0.000000
-0.168527 -1.060776 1.844929 0.000000 0.000000 0.000000
-0.132198 -1.079253 1.783018 0.000000 0.000000 0.000000
-0.235128 -1.023358 2.128057 0.000000 0.000000 0.000000
-0.141518 -1.073940 1.814601 0.000000 0.000000 0.000000
-0.146520 -1.073902 1.791823 0.000000 0.000000 0.000000
-0.235409 -1.020239 2.076752 0.000000 0.000000 0.000000
-0.165301 -1.060240 1.852376 0.000000 0.000000 0.000000
-0.199064 -1.039508 2.105161 0.000000 0.000000 0.000000
0.002393 -1.116582 1.682001 0.000000 0.000000 0.000000
-0.259653 -1.008002 2.172234 0.000000 0.000000 0.000000
-0.116828 -1.078479 1.736658 0.000000 0.000000 0.000000
-0.050860 -1.115668 1.871143 0.000000 0.000000 0.000000
-0.068345 -1.094854 1.732360 0.000000 0.000000 0.000000
-0.045975 -1.127571 1.860834 0.000000 0.000000 0.000000
-0.247976 -1.017406 2.140281 0.000000 0.000000 0.000000
-0.156634 -1.059703 1.852763 0.000000 0.000000 0.000000
-0.021418 -1.142167 1.851859 0.000000 0.000000 0.000000
-0.034988 -1.123518 1.859827 0.000000 0.000000 0.000000
-0.218458 -1.022789 1.948767 0.000000 0.000000 0.000000
-0.029269 -1.137356 1.874634 0.000000 0.000000 0.000000
-0.233746 -1.022182 1.990152 0.000000 0.000000 0.000000
-0.108776 -1.097155 2.005646 0.000000 0.000000 0.000000
0.003470 -1.123089 1.719614 0.000000 0.000000 0.000000
-0.253874 -1.011995 2.143939 0.000000 0.000000 0.000000
-0.233545 -1.027615 1.975169 0.000000 0.000000 0.000000
-0.251291 -1.014856 2.032876 0.000000 0.000000 0.000000
-0.257129 -1.010566 2.124013 0.000000 0.000000 0.000000
-0.212913 -1.032092 1.950780 0.000000 0.000000 0.000000
-0.037814 -1.133373 1.920449 0.000000 0.000000 0.000000
-0.138905 -1.071139 1.783850 0.000000 0.000000 0.000000
-0.148853 -1.062916 2.066970 0.000000 0.000000 0.000000
-0.162163 -1.061430 2.061985 0.000000 0.000000 0.000000
-0.165153 -1.053101 2.081084 0.000000 0.000000 0.000000
-0.239940 -1.018266 2.118784 0.000000 0.000000 0.000000
-0.256111 -1.014140 2.113159 0.000000 0.000000 0.000000
-0.140889 -1.066093 1.785755 0.000000 0.000000 0.000000
-0.055485 -1.097562 1.724388 0.000000 0.000000 0.000000
-0.197238 -1.032047 2.095586 0.000000 0.000000 0.000000
-0.215618 -1.031095 2.039504 0.000000 0.000000 0.000000
-0.189301 -1.050755 2.039966 0.000000 0.000000 0.000000
-0.235477 -1.021904 2.013790 0.000000 0.000000 0.000000
-0.250184 -1.017469 2.070616 0.000000 0.000000 0.000000
-0.078095 -1.119361 1.950993 0.000000 0.000000 0.000000
-0.055165 -1.097891 1.726177 0.000000 0.000000 0.000000
-0.119473 -1.089368 1.941833 0.000000 0.000000 0.000000
-0.040343 -1.105683 1.720198 0.000000 0.000000 0.000000
-0.111149 -1.097453 1.985512 0.000000 0.000000 0.000000
-0.234249 -1.027713 1.976523 0.000000 0.000000 0.000000
-0.156776 -1.053313 2.087886 0.000000 0.000000 0.000000
-0.184670 -1.038056 2.066236 0.000000 0.000000 0.000000
-0.241254 -1.025178 1.991701 0.000000 0.000000 0.000000
-0.156957 -1.060108 2.047129 0.000000 0.000000 0.000000
-0.227565 -1.021357 2.094665 0.000000 0.000000 0.000000
-0.226563 -1.025401 2.060080 0.000000 0.000000 0.000000
-0.103185 -1.093597 1.897281 0.000000 0.000000 0.000000
-0.023018 -1.141426 1.838079 0.000000 0.000000 0.000000
-0.106556 -1.084435 1.771184 0.000000 0.000000 0.000000
-0.103814 -1.084863 1.903406 0.000000 0.000000 0.000000
-0.109192 -1.098036 1.966046 0.000000 0.000000 0.000000
-0.128321 -1.086769 1.957503 0.000000 0.000000 0.000000
-0.117280 -1.092880 2.000059 0.000000 0.000000 0.000000
-0.113847 -1.092044 1.933076 0.000000 0.000000 0.000000
-0.160939 -1.061846 2.055916 0.000000 0.000000 0.000000
-0.130325 -1.079876 2.036775 0.000000 0.000000 0.000000
-0.146487 -1.064217 1.854304 0.000000 0.000000 0.000000
-0.171677 -1.054344 1.998052 0.000000 0.000000 0.000000
-0.124133 -1.090211 1.988845 0.000000 0.000000 0.000000
-0.194352 -1.036256 1.951297 0.000000 0.000000 0.000000
-0.210404 -1.027919 1.942573 0.000000 0.000000 0.000000
-0.192084 -1.046087 1.938493 0.000000 0.000000 0.000000
-0.110832 -1.075704 1.750970 0.000000 0.000000 0.000000
-0.013559 -1.142029 1.785260 0.000000 0.000000 0.000000
-0.188137 -1.041601 1.906043 0.000000 0.000000 0.000000
-0.020002 -1.123390 1.743467 0.000000 0.000000 0.000000
-0.256491 -1.011823 2.136576 0.000000 0.000000 0.000000
-0.232153 -1.024897 1.965016 0.000000 0.000000 0.000000
-0.004466 -1.115771 1.677458 0.000000 0.000000 0.000000
-0.011860 -1.148296 1.787603 0.000000 0.000000 0.000000
-0.042451 -1.101804 1.702931 0.000000 0.000000 0.000000
-0.240458 -1.020175 2.040454 0.000000 0.000000 0.000000
-0.204888 -1.036756 1.898170 0.000000 0.000000 0.000000
-0.148796 -1.069127 2.059599 0.000000 0.000000 0.000000
-0.210890 -1.031849 1.932873 0.000000 0.000000 0.000000
-0.156057 -1.055137 2.080655 0.000000 0.000000 0.000000
-0.234938 -1.021858 2.034246 0.000000 0.000000 0.000000
-0.025432 -1.131433 1.795352 0.000000 0.000000 0.000000
-0.150404 -1.063312 2.056410 0.000000 0.000000 0.000000
-0.183196 -1.046183 2.038960 0.000000 0.000000 0.000000
-0.245256 -1.019586 2.022638 0.000000 0.000000 0.000000
-0.187052 -1.037189 2.012604 0.000000 0.000000 0.000000
-0.225961 -1.022476 2.019581 0.000000 0.000000 0.000000
-0.046617 -1.108625 1.766316 0.000000 0.000000 0.000000
-0.066481 -1.122612 1.952701 0.000000 0.000000 0.000000
-0.108162 -1.096661 1.953840 0.000000 0.000000 0.000000
-0.028481 -1.109027 1.704793 0.000000 0.000000 0.000000
-0.198527 -1.037655 2.021500 0.000000 0.000000 0.000000
-0.077587 -1.117708 1.933644 0.000000 0.000000 0.000000
-0.200000 -1.041201 1.965441 0.000000 0.000000 0.000000
-0.168505 -1.045478 2.098521 0.000000 0.000000 0.000000
-0.232352 -1.020345 1.985322 0.000000 0.000000 0.000000
-0.185085 -1.051439 1.997726 0.000000 0.000000 0.000000
-0.225484 -1.027936 2.081792 0.000000 0.000000 0.000000
-0.100805 -1.102870 1.977734 0.000000 0.000000 0.000000
-0.190102 -1.038631 2.090125 0.000000 0.000000 0.000000
-0.166159 -1.062566 2.013323 0.000000 0.000000 0.000000
-0.097795 -1.107102 1.960017 0.000000 0.000000 0.000000
-0.146438 -1.065905 1.932649 0.000000 0.000000 0.000000
-0.087640 -1.112400 1.966183 0.000000 0.000000 0.000000
-0.136619 -1.077822 2.034762 0.000000 0.000000 0.000000
-0.134181 -1.079387 1.947722 0.000000 0.000000 0.000000
-0.097098 -1.098220 1.899491 0.000000 0.000000 0.000000
-0.211526 -1.026879 2.008960 0.000000 0.000000 0.000000
-0.222868 -1.034333 1.994840 0.000000 0.000000 0.000000
-0.076899 -1.119289 1.963660 0.000000 0.000000 0.000000
-0.015253 -1.131606 1.749075 0.000000 0.000000 0.000000
0.016551 -1.141865 1.718418 0.000000 0.000000 0.000000
-0.175990 -1.048127 1.942891 0.000000 0.000000 0.000000
-0.209274 -1.032075 1.929133 0.000000 0.000000 0.000000
-0.008159 -1.136754 1.760551 0.000000 0.000000 0.000000
-0.164442 -1.053518 1.881742 0.000000 0.000000 0.000000
-0.256479 -1.013422 2.122301 0.000000 0.000000 0.000000
-0.241090 -1.019973 1.996961 0.000000 0.000000 0.000000
0.002866 -1.118971 1.675506 0.000000 0.000000 0.000000
-0.038801 -1.131290 1.924882 0.000000 0.000000 0.000000
-0.136915 -1.067926 1.794089 0.000000 0.000000 0.000000
-0.244305 -1.019706 2.031981 0.000000 0.000000 0.000000
-0.224628 -1.034144 1.978642 0.000000 0.000000 0.000000
-0.251150 -1.017308 2.143057 0.000000 0.000000 0.000000
-0.202806 -1.028717 1.946048 0.000000 0.000000 0.000000
-0.166934 -1.051965 2.079301 0.000000 0.000000 0.000000
-0.176068 -1.056247 2.020038 0.000000 0.000000 0.000000
-0.162807 -1.044982 2.102828 0.000000 0.000000 0.000000
-0.169952 -1.049828 2.062087 0.000000 0.000000 0.000000
-0.037544 -1.131672 1.855260 0.000000 0.000000 0.000000
-0.234724 -1.020699 2.060953 0.000000 0.000000 0.000000
-0.239367 -1.021885 2.015536 0.000000 0.000000 0.000000
-0.253853 -1.011088 2.156086 0.000000 0.000000 0.000000
-0.238002 -1.022168 1.975600 0.000000 0.000000 0.000000
-0.004954 -1.122740 1.685932 0.000000 0.000000 0.000000
0.007342 -1.139666 1.695399 0.000000 0.000000 0.000000
-0.007600 -1.123323 1.698468 0.000000 0.000000 0.000000
-0.243834 -1.017159 2.053629 0.000000 0.000000 0.000000
-0.001055 -1.142472 1.752928 0.000000 0.000000 0.000000
-0.218481 -1.039381 2.006836 0.000000 0.000000 0.000000
-0.011139 -1.149297 1.771904 0.000000 0.000000 0.000000
0.009737 -1.138767 1.698597 0.000000 0.000000 0.000000
-0.099971 -1.077958 1.775291 0.000000 0.000000 0.000000
-0.083578 -1.089169 1.735415 0.000000 0.000000 0.000000
-0.163215 -1.049879 2.077717 0.000000 0.000000 0.000000
-0.181493 -1.048601 1.868285 0.000000 0.000000 0.000000
0.000391 -1.139816 1.728858 0.000000 0.000000 0.000000
-0.029402 -1.106868 1.693409 0.000000 0.000000 0.000000
-0.235822 -1.026435 1.990524 0.000000 0.000000 0.000000
-0.013117 -1.120365 1.712923 0.000000 0.000000 0.000000
-0.093021 -1.101101 2.004916 0.000000 0.000000 0.000000
-0.217034 -1.026315 2.032044 0.000000 0.000000 0.000000
-0.230169 -1.030507 1.979656 0.000000 0.000000 0.000000
-0.011092 -1.145083 1.769749 0.000000 0.000000 0.000000
-0.083317 -1.089702 1.718198 0.000000 0.000000 0.000000
-0.078098 -1.113018 1.996615 0.000000 0.000000 0.000000
-0.025885 -1.116600 1.722763 0.000000 0.000000 0.000000
-0.236735 -1.021323 2.039857 0.000000 0.000000 0.000000
-0.033508 -1.102656 1.722709 0.000000 0.000000 0.000000
-0.227357 -1.019313 1.951309 0.000000 0.000000 0.000000
0.001798 -1.131794 1.726369 0.000000 0.000000 0.000000
-0.113127 -1.095477 2.019745 0.000000 0.000000 0.000000
-0.035077 -1.140946 1.899501 0.000000 0.000000 0.000000
-0.253896 -1.015872 2.143433 0.000000 0.000000 0.000000
-0.205450 -1.035545 1.903164 0.000000 0.000000 0.000000
0.000568 -1.108225 1.666535 0.000000 0.000000 0.000000
-0.100862 -1.087327 1.973920 0.000000 0.000000 0.000000
0.001597 -1.117937 1.666111 0.000000 0.000000 0.000000
-0.091071 -1.101603 2.001950 0.000000 0.000000 0.000000
-0.025169 -1.109598 1.688934 0.000000 0.000000 0.000000
-0.232072 -1.019917 2.067753 0.000000 0.000000 0.000000
-0.000783 -1.122413 1.684922 0.000000 0.000000 0.000000
-0.056119 -1.123349 1.896066 0.000000 0.000000 0.000000
-0.159657 -1.056297 1.877624 0.000000 0.000000 0.000000
-0.036802 -1.128325 1.865954 0.000000 0.000000 0.000000
-0.219246 -1.031973 2.113496 0.000000 0.000000 0.000000
-0.079502 -1.111689 1.991487 0.000000 0.000000 0.000000
-0.146101 -1.071754 2.009144 0.000000 0.000000 0.000000
-0.230489 -1.023192 1.959574 0.000000 0.000000 0.000000
-0.028170 -1.109262 1.689555 0.000000 0.000000 0.000000
-0.090594 -1.087923 1.792621 0.000000 0.000000 0.000000
-0.210569 -1.029239 1.932710 0.000000 0.000000 0.000000
0.000956 -1.122274 1.694853 0.000000 0.000000 0.000000
-0.141047 -1.070984 2.061240 0.000000 0.000000 0.000000
-0.196106 -1.033812 1.987124 0.000000 0.000000 0.000000
-0.119160 -1.084965 2.031465 0.000000 0.000000 0.000000
-0.052659 -1.130553 1.936453 0.000000 0.000000 0.000000
0.002742 -1.117933 1.670716 0.000000 0.000000 0.000000
-0.027469 -1.108625 1.692399 0.000000 0.000000 0.000000
-0.039073 -1.138128 1.885969 0.000000 0.000000 0.000000
-0.214951 -1.032551 2.127610 0.000000 0.000000 0.000000
-0.106135 -1.100729 1.995069 0.000000 0.000000 0.000000
-0.224468 -1.024172 1.955006 0.000000 0.000000 0.000000
-0.029141 -1.113345 1.713649 0.000000 0.000000 0.000000
-0.159047 -1.065749 1.818774 0.000000 0.000000 0.000000
-0.158257 -1.056795 2.072062 0.000000 0.000000 0.000000
-0.240393 -1.018328 2.028569 0.000000 0.000000 0.000000
-0.231614 -1.024638 2.019176 0.000000 0.000000 0.000000
-0.135606 -1.077491 2.023948 0.000000 0.000000 0.000000
-0.201630 -1.037806 1.902159 0.000000 0.000000 0.000000
-0.118787 -1.092587 2.010620 0.000000 0.000000 0.000000
-0.060983 -1.128076 1.948092 0.000000 0.000000 0.000000
0.001250 -1.143908 1.734257 0.000000 0.000000 0.000000
-0.205950 -1.033497 1.911585 0.000000 0.000000 0.000000
-0.101327 -1.081246 1.737326 0.000000 0.000000 0.000000
-0.180769 -1.057068 1.857894 0.000000 0.000000 0.000000
-0.241557 -1.022690 2.008497 0.000000 0.000000 0.000000
-0.257727 -1.012210 2.075946 0.000000 0.000000 0.000000
-0.086565 -1.109797 1.984306 0.000000 0.000000 0.000000
-0.069839 -1.108024 1.914344 0.000000 0.000000 0.000000
-0.251731 -1.019817 2.083320 0.000000 0.000000 0.000000
-0.162313 -1.058025 1.861134 0.000000 0.000000 0.000000
-0.136127 -1.069759 1.798056 0.000000 0.000000 0.000000
-0.166540 -1.068970 1.828221 0.000000 0.000000 0.000000
-0.250775 -1.016726 2.048746 0.000000 0.000000 0.000000
-0.242801 -1.019821 2.137413 0.000000 0.000000 0.000000
-0.244841 -1.018298 2.142388 0.000000 0.000000 0.000000
-0.004475 -1.120000 1.706091 0.000000 0.000000 0.000000
-0.240674 -1.021587 2.017186 0.000000 0.000000 0.000000
-0.221766 -1.027732 1.973743 0.000000 0.000000 0.000000
-0.157093 -1.062595 2.064374 0.000000 0.000000 0.000000
-0.252961 -1.015503 2.057875 0.000000 0.000000 0.000000
-0.078981 -1.112572 1.990909 0.000000 0.000000 0.000000
-0.124208 -1.074401 1.751034 0.000000 0.000000 0.000000
-0.156312 -1.059433 1.862260 0.000000 0.000000 0.000000
-0.199967 -1.034582 1.970793 0.000000 0.000000 0.000000
-0.029495 -1.144882 1.885355 0.000000 0.000000 0.000000
-0.122230 -1.072492 1.752722 0.000000 0.000000 0.000000
-0.250368 -1.016054 2.029890 0.000000 0.000000 0.000000
-0.065117 -1.127663 1.934973 0.000000 0.000000 0.000000
-0.069873 -1.124300 1.938504 0.000000 0.000000 0.000000
-0.249114 -1.015985 2.153643 0.000000 0.000000 0.000000
-0.256622 -1.013680 2.102554 0.000000 0.000000 0.000000
-0.254289 -1.008332 2.141698 0.000000 0.000000 0.000000
-0.000634 -1.123923 1.690070 0.000000 0.000000 0.000000
-0.255013 -1.014432 2.148567 0.000000 0.000000 0.000000
-0.252881 -1.014641 2.037919 0.000000 0.000000 0.000000
-0.151559 -1.068585 1.781969 0.000000 0.000000 0.000000
-0.148618 -1.072554 1.784021 0.000000 0.000000 0.000000
-0.177708 -1.039151 2.104178 0.000000 0.000000 0.000000
-0.085546 -1.107131 1.990687 0.000000 0.000000 0.000000
-0.076195 -1.115590 1.987169 0.000000 0.000000 0.000000
-0.186811 -1.042097 2.102228 0.000000 0.000000 0.000000
-0.134010 -1.075408 1.783716 0.000000 0.000000 0.000000
-0.158114 -1.070743 1.818183 0.000000 0.000000 0.000000
-0.239946 -1.025750 1.982366 0.000000 0.000000 0.000000
-0.170539 -1.063293 1.833512 0.000000 0.000000 0.000000
-0.028632 -1.133412 1.904809 0.000000 0.000000 0.000000
-0.156347 -1.064036 1.845952 0.000000 0.000000 0.000000
-0.056572 -1.096131 1.728857 0.000000 0.000000 0.000000
-0.069479 -1.093853 1.721952 0.000000 0.000000 0.000000
-0.239723 -1.017075 1.999839 0.000000 0.000000 0.000000
-0.004023 -1.151196 1.761858 0.000000 0.000000 0.000000
-0.247301 -1.018538 2.095133 0.000000 0.000000 0.000000
-0.071217 -1.118736 1.977870 0.000000 0.000000 0.000000
-0.173440 -1.066866 1.828923 0.000000 0.000000 0.000000
-0.122381 -1.078627 1.774811 0.000000 0.000000 0.000000
-0.242056 -1.022168 2.114580 0.000000 0.000000 0.000000
-0.256615 -1.013000 2.128865 0.000000 0.000000 0.000000
-0.257755 -1.019434 2.101633 0.000000 0.000000 0.000000
-0.156209 -1.058942 2.074574 0.000000 0.000000 0.000000
-0.070701 -1.118940 1.979463 0.000000 0.000000 0.000000
-0.090731 -1.108534 1.975002 0.000000 0.000000 0.000000
-0.075929 -1.115900 1.979533 0.000000 0.000000 0.000000
-0.040738 -1.133757 1.928645 0.000000 0.000000 0.000000
-0.076445 -1.116156 1.985721 0.000000 0.000000 0.000000
-0.040633 -1.131314 1.878389 0.000000 0.000000 0.000000
-0.086222 -1.088678 1.720427 0.000000 0.000000 0.000000
-0.182021 -1.044938 2.097967 0.000000 0.000000 0.000000
-0.138098 -1.071054 1.797982 0.000000 0.000000 0.000000
-0.162649 -1.063802 1.839352 0.000000 0.000000 0.000000
-0.177690 -1.054044 1.870079 0.000000 0.000000 0.000000
-0.236987 -1.021820 1.984326 0.000000 0.000000 0.000000
-0.166524 -1.068963 1.816372 0.000000 0.000000 0.000000
-0.157630 -1.064804 1.834053 0.000000 0.000000 0.000000
-0.146909 -1.065764 2.048005 0.000000 0.000000 0.000000
-0.118989 -1.080079 1.882937 0.000000 0.000000 0.000000
-0.015079 -1.157060 1.845878 0.000000 0.000000 0.000000
-0.254371 -1.017089 2.090923 0.000000 0.000000 0.000000
-0.165054 -1.070233 1.815499 0.000000 0.000000 0.000000
-0.167681 -1.068294 1.831468 0.000000 0.000000 0.000000
-0.030844 -1.137193 1.905897 0.000000 0.000000 0.000000
-0.176059 -1.057227 1.853297 0.000000 0.000000 0.000000
-0.084425 -1.114195 1.976917 0.000000 0.000000 0.000000
-0.089460 -1.103741 2.008690 0.000000 0.000000 0.000000
-0.258287 -1.012810 2.096264 0.000000 0.000000 0.000000
-0.140966 -1.074458 1.777194 0.000000 0.000000 0.000000
-0.255263 -1.012645 2.137972 0.000000 0.000000 0.000000
-0.256521 -1.013729 2.120052 0.000000 0.000000 0.000000
0.000032 -1.156542 1.754441 0.000000 0.000000 0.000000
-0.252393 -1.011593 2.128742 0.000000 0.000000 0.000000
-0.252965 -1.015452 2.126796 0.000000 0.000000 0.000000
0.004180 -1.143035 1.704553 0.000000 0.000000 0.000000
-0.090084 -1.106021 1.997650 0.000000 0.000000 0.000000
-0.251084 -1.018127 2.089129 0.000000 0.000000 0.000000
-0.243935 -1.021501 1.994125 0.000000 0.000000 0.000000
0.003421 -1.148116 1.730827 0.000000 0.000000 0.000000
-0.057251 -1.124716 1.909389 0.000000 0.000000 0.000000
-0.028545 -1.133112 1.901896 0.000000 0.000000 0.000000
-0.035511 -1.138612 1.901328 0.000000 0.000000 0.000000
-0.253889 -1.012229 2.140889 0.000000 0.000000 0.000000
-0.082606 -1.085579 1.745325 0.000000 0.000000 0.000000
-0.258198 -1.012591 2.091268 0.000000 0.000000 0.000000
-0.067611 -1.092667 1.722758 0.000000 0.000000 0.000000
-0.126166 -1.080949 2.042214 0.000000 0.000000 0.000000
-0.089323 -1.101586 2.006600 0.000000 0.000000 0.000000
-0.101606 -1.087481 1.715800 0.000000 0.000000 0.000000
-0.075819 -1.090888 1.718711 0.000000 0.000000 0.000000
-0.152875 -1.073479 1.806007 0.000000 0.000000 0.000000
-0.188544 -1.046330 1.889826 0.000000 0.000000 0.000000
-0.241682 -1.019854 2.008657 0.000000 0.000000 0.000000
-0.139616 -1.067336 2.067120 0.000000 0.000000 0.000000
-0.104874 -1.104395 1.999469 0.000000 0.000000 0.000000
-0.125363 -1.069449 1.753190 0.000000 0.000000 0.000000
-0.235608 -1.014877 2.000495 0.000000 0.000000 0.000000
-0.072743 -1.117774 1.979735 0.000000 0.000000 0.000000
-0.090906 -1.101687 2.006766 0.000000 0.000000 0.000000
-0.256960 -1.012757 2.124738 0.000000 0.000000 0.000000
-0.140552 -1.070569 1.767231 0.000000 0.000000 0.000000
-0.083032 -1.088821 1.726174 0.000000 0.000000 0.000000
-0.247955 -1.016345 2.003783 0.000000 0.000000 0.000000
-0.148283 -1.070225 1.792773 0.000000 0.000000 0.000000
-0.172674 -1.063649 1.832701 0.000000 0.000000 0.000000
-0.129717 -1.074776 1.806782 0.000000 0.000000 0.000000
-0.253298 -1.015446 2.070318 0.000000 0.000000 0.000000
-0.155385 -1.072058 1.810598 0.000000 0.000000 0.000000
-0.184197 -1.046944 1.887831 0.000000 0.000000 0.000000
-0.142584 -1.071829 1.815677 0.000000 0.000000 0.000000
-0.214154 -1.033351 1.944173 0.000000 0.000000 0.000000
-0.251558 -1.016413 2.069148 0.000000 0.000000 0.000000
-0.244257 -1.019683 2.021417 0.000000 0.000000 0.000000
-0.195097 -1.044859 2.095359 0.000000 0.000000 0.000000
-0.014675 -1.149227 1.795051 0.000000 0.000000 0.000000
-0.144517 -1.075675 1.799664 0.000000 0.000000 0.000000
-0.147412 -1.074120 1.804763 0.000000 0.000000 0.000000
-0.127395 -1.073091 1.762407 0.000000 0.000000 0.000000
-0.150340 -1.072818 1.798066 0.000000 0.000000 0.000000
-0.158947 -1.069888 1.820276 0.000000 0.000000 0.000000
-0.236221 -1.018923 2.066334 0.000000 0.000000 0.000000
-0.151452 -1.073660 1.811505 0.000000 0.000000 0.000000
-0.000693 -1.146038 1.734118 0.000000 0.000000 0.000000
-0.107674 -1.076535 1.747418 0.000000 0.000000 0.000000
-0.205549 -1.045298 1.983728 0.000000 0.000000 0.000000
-0.107538 -1.080290 1.758038 0.000000 0.000000 0.000000
-0.250846 -1.018426 2.075472 0.000000 0.000000 0.000000
-0.181333 -1.053040 1.875577 0.000000 0.000000 0.000000
-0.151993 -1.075606 1.804871 0.000000 0.000000 0.000000
-0.129798 -1.075031 1.814788 0.000000 0.000000 0.000000
0.003114 -1.156371 1.738811 0.000000 0.000000 0.000000
-0.132214 -1.065971 1.774239 0.000000 0.000000 0.000000
-0.150617 -1.068716 1.805823 0.000000 0.000000 0.000000
-0.209909 -1.029641 1.920638 0.000000 0.000000 0.000000
-0.194046 -1.043537 2.094408 0.000000 0.000000 0.000000
-0.195712 -1.041152 1.909962 0.000000 0.000000 0.000000
-0.209903 -1.027218 1.928307 0.000000 0.000000 0.000000
-0.160588 -1.066694 1.785749 0.000000 0.000000 0.000000
-0.257876 -1.013124 2.119411 0.000000 0.000000 0.000000
-0.151631 -1.072439 1.806873 0.000000 0.000000 0.000000
-0.142208 -1.075472 1.999765 0.000000 0.000000 0.000000
-0.197563 -1.035451 1.915946 0.000000 0.000000 0.000000
-0.154010 -1.066384 1.830310 0.000000 0.000000 0.000000
-0.216914 -1.026605 1.937172 0.000000 0.000000 0.000000
-0.184657 -1.047636 2.089001 0.000000 0.000000 0.000000
-0.054317 -1.102019 1.700441 0.000000 0.000000 0.000000
-0.176672 -1.041271 2.104676 0.000000 0.000000 0.000000
-0.175529 -1.058575 1.847777 0.000000 0.000000 0.000000
-0.085958 -1.094875 1.719321 0.000000 0.000000 0.000000
-0.107758 -1.080071 1.735457 0.000000 0.000000 0.000000
-0.170366 -1.071043 1.814927 0.000000 0.000000 0.000000
-0.028613 -1.111758 1.745503 0.000000 0.000000 0.000000
-0.144645 -1.068125 2.064162 0.000000 0.000000 0.000000
-0.253294 -1.014462 2.045120 0.000000 0.000000 0.000000
0.003742 -1.150941 1.721698 0.000000 0.000000 0.000000
-0.130132 -1.081810 2.033262 0.000000 0.000000 0.000000
-0.093153 -1.089535 1.719844 0.000000 0.000000 0.000000
-0.160534 -1.070809 1.795904 0.000000 0.000000 0.000000
-0.155183 -1.067376 1.816344 0.000000 0.000000 0.000000
-0.005348 -1.116801 1.717630 0.000000 0.000000 0.000000
-0.034156 -1.107979 1.727625 0.000000 0.000000 0.000000
-0.099934 -1.085649 1.724927 0.000000 0.000000 0.000000
-0.168403 -1.056314 2.068406 0.000000 0.000000 0.000000
-0.139237 -1.073432 2.053274 0.000000 0.000000 0.000000
-0.028881 -1.141354 1.878131 0.000000 0.000000 0.000000
-0.203097 -1.037035 1.961502 0.000000 0.000000 0.000000
-0.087603 -1.110359 1.992419 0.000000 0.000000 0.000000
-0.200917 -1.036690 1.909283 0.000000 0.000000 0.000000
-0.214066 -1.027343 1.923758 0.000000 0.000000 0.000000
-0.099999 -1.104652 1.994905 0.000000 0.000000 0.000000
-0.161691 -1.068754 1.831562 0.000000 0.000000 0.000000
-0.232424 -1.025840 2.128478 0.000000 0.000000 0.000000
-0.009758 -1.154635 1.786165 0.000000 0.000000 0.000000
-0.005739 -1.146131 1.772768 0.000000 0.000000 0.000000
-0.248486 -1.018829 2.131505 0.000000 0.000000 0.000000
-0.013165 -1.151595 1.797899 0.000000 0.000000 0.000000
-0.001594 -1.155441 1.762887 0.000000 0.000000 0.000000
-0.093179 -1.089977 1.831928 0.000000 0.000000 0.000000
-0.097508 -1.105937 1.995519 0.000000 0.000000 0.000000
-0.010880 -1.149381 1.761638 0.000000 0.000000 0.000000
-0.012967 -1.146125 1.766969 0.000000 0.000000 0.000000
0.000682 -1.155581 1.780919 0.000000 0.000000 0.000000
-0.015520 -1.129303 1.754741 0.000000 0.000000 0.000000
-0.003910 -1.154764 1.766962 0.000000 0.000000 0.000000
-0.003322 -1.140487 1.767449 0.000000 0.000000 0.000000
-0.004070 -1.150315 1.760791 0.000000 0.000000 0.000000
-0.002634 -1.149594 1.750897 0.000000 0.000000 0.000000
-0.201440 -1.037079 1.911941 0.000000 0.000000 0.000000
-0.252443 -1.013890 2.081023 0.000000 0.000000 0.000000
-0.140572 -1.068697 1.765102 0.000000 0.000000 0.000000
-0.216303 -1.026882 1.932442 0.000000 0.000000 0.000000
-0.016198 -1.150968 1.859979 0.000000 0.000000 0.000000
-0.208070 -1.030283 1.918201 0.000000 0.000000 0.000000
-0.135548 -1.072243 2.056444 0.000000 0.000000 0.000000
-0.074166 -1.117836 1.971095 0.000000 0.000000 0.000000
-0.009769 -1.135523 1.788651 0.000000 0.000000 0.000000
-0.202992 -1.036464 1.897982 0.000000 0.000000 0.000000
-0.223010 -1.027388 2.126214 0.000000 0.000000 0.000000
-0.224839 -1.028378 2.123966 0.000000 0.000000 0.000000
-0.184561 -1.055241 1.870984 0.000000 0.000000 0.000000
-0.159592 -1.071583 1.814119 0.000000 0.000000 0.000000
-0.015028 -1.127309 1.728579 0.000000 0.000000 0.000000
0.008759 -1.141948 1.695901 0.000000 0.000000 0.000000
-0.253903 -1.014569 2.150277 0.000000 0.000000 0.000000
-0.182833 -1.045177 1.900779 0.000000 0.000000 0.000000
-0.231390 -1.025124 2.127203 0.000000 0.000000 0.000000
-0.221650 -1.029819 2.119824 0.000000 0.000000 0.000000
-0.178097 -1.054238 1.879904 0.000000 0.000000 0.000000
-0.001796 -1.149752 1.754880 0.000000 0.000000 0.000000
0.001133 -1.135243 1.707820 0.000000 0.000000 0.000000
0.011214 -1.134061 1.706853 0.000000 0.000000 0.000000
-0.201949 -1.038556 1.902365 0.000000 0.000000 0.000000
-0.021812 -1.142397 1.881474 0.000000 0.000000 0.000000
-0.259672 -1.006810 2.155910 0.000000 0.000000 0.000000
-0.096741 -1.098100 2.011672 0.000000 0.000000 0.000000
0.010118 -1.128512 1.720851 0.000000 0.000000 0.000000
-0.182459 -1.054624 1.858268 0.000000 0.000000 0.000000
-0.231756 -1.013612 1.978599 0.000000 0.000000 0.000000
-0.247814 -1.018537 2.018772 0.000000 0.000000 0.000000
-0.185730 -1.053319 1.874264 0.000000 0.000000 0.000000
-0.004452 -1.146804 1.766301 0.000000 0.000000 0.000000
-0.017840 -1.132613 1.776574 0.000000 0.000000 0.000000
0.015684 -1.148397 1.723305 0.000000 0.000000 0.000000
-0.229610 -1.024690 2.127568 0.000000 0.000000 0.000000
-0.254353 -1.016873 2.152064 0.000000 0.000000 0.000000
-0.028481 -1.108809 1.691536 0.000000 0.000000 0.000000
-0.061848 -1.122548 1.960883 0.000000 0.000000 0.000000
-0.185432 -1.047129 1.881375 0.000000 0.000000 0.000000
-0.148677 -1.064379 2.067722 0.000000 0.000000 0.000000
-0.116160 -1.088328 2.031153 0.000000 0.000000 0.000000
-0.006872 -1.147924 1.777356 0.000000 0.000000 0.000000
-0.154891 -1.060306 2.061349 0.000000 0.000000 0.000000
0.012318 -1.143889 1.702472 0.000000 0.000000 0.000000
-0.224275 -1.027679 2.130434 0.000000 0.000000 0.000000
-0.029064 -1.107066 1.721580 0.000000 0.000000 0.000000
-0.252230 -1.015652 2.148671 0.000000 0.000000 0.000000
-0.146895 -1.062860 2.072426 0.000000 0.000000 0.000000
-0.123324 -1.090681 2.018961 0.000000 0.000000 0.000000
-0.166833 -1.070086 1.827247 0.000000 0.000000 0.000000
-0.252137 -1.013949 2.099464 0.000000 0.000000 0.000000
-0.206315 -1.031211 1.916885 0.000000 0.000000 0.000000
-0.037921 -1.134855 1.914238 0.000000 0.000000 0.000000
-0.244820 -1.017949 2.088676 0.000000 0.000000 0.000000
-0.024938 -1.110539 1.697935 0.000000 0.000000 0.000000
-0.249748 -1.017640 2.148952 0.000000 0.000000 0.000000
-0.159597 -1.069824 1.824343 0.000000 0.000000 0.000000
-0.258583 -1.012266 2.116319 0.000000 0.000000 0.000000
-0.219640 -1.030218 1.953695 0.000000 0.000000 0.000000
-0.034221 -1.135045 1.915113 0.000000 0.000000 0.000000
-0.248025 -1.018516 2.015949 0.000000 0.000000 0.000000
-0.252642 -1.015260 2.140819 0.000000 0.000000 0.000000
-0.157097 -1.067769 1.834459 0.000000 0.000000 0.000000
-0.257307 -1.006950 2.155008 0.000000 0.000000 0.000000
-0.123727 -1.083203 2.030388 0.000000 0.000000 0.000000
-0.246995 -1.017395 2.102182 0.000000 0.000000 0.000000
-0.148417 -1.054310 2.086331 0.000000 0.000000 0.000000
-0.110607 -1.082834 1.728270 0.000000 0.000000 0.000000
-0.118305 -1.088567 2.022804 0.000000 0.000000 0.000000
-0.256340 -1.013701 2.097524 0.000000 0.000000 0.000000
-0.079419 -1.090547 1.712028 0.000000 0.000000 0.000000
-0.158637 -1.068711 1.818612 0.000000 0.000000 0.000000
-0.191376 -1.041167 1.915097 0.000000 0.000000 0.000000
-0.252656 -1.013466 2.020211 0.000000 0.000000 0.000000
-0.172869 -1.055291 1.861513 0.000000 0.000000 0.000000
0.000200 -1.142063 1.740854 0.000000 0.000000 0.000000
-0.007244 -1.121671 1.700879 0.000000 0.000000 0.000000
-0.110872 -1.081632 1.734277 0.000000 0.000000 0.000000
-0.098721 -1.080764 1.739160 0.000000 0.000000 0.000000
-0.138283 -1.066886 2.071624 0.000000 0.000000 0.000000
-0.007834 -1.152040 1.781118 0.000000 0.000000 0.000000
-0.208033 -1.032668 1.910278 0.000000 0.000000 0.000000
-0.106186 -1.093879 2.026558 0.000000 0.000000 0.000000
-0.164458 -1.058162 2.072862 0.000000 0.000000 0.000000
-0.250090 -1.014967 2.062558 0.000000 0.000000 0.000000
-0.155438 -1.068926 1.817325 0.000000 0.000000 0.000000
-0.182323 -1.047823 1.894428 0.000000 0.000000 0.000000
-0.248421 -1.017812 2.028600 0.000000 0.000000 0.000000
0.001795 -1.154894 1.735257 0.000000 0.000000 0.000000
-0.096183 -1.084571 1.729416 0.000000 0.000000 0.000000
-0.101102 -1.085436 1.725288 0.000000 0.000000 0.000000
-0.137232 -1.069855 2.065377 0.000000 0.000000 0.000000
-0.095366 -1.083954 1.725862 0.000000 0.000000 0.000000
-0.012748 -1.153232 1.799627 0.000000 0.000000 0.000000
-0.202503 -1.032723 1.915345 0.000000 0.000000 0.000000
-0.117428 -1.092100 2.019881 0.000000 0.000000 0.000000
-0.211870 -1.028553 2.127913 0.000000 0.000000 0.000000
-0.232466 -1.024938 1.974342 0.000000 0.000000 0.000000
-0.094989 -1.103984 2.001424 0.000000 0.000000 0.000000
-0.216478 -1.025800 1.932071 0.000000 0.000000 0.000000
-0.151344 -1.069124 1.785105 0.000000 0.000000 0.000000
-0.141577 -1.075828 1.799524 0.000000 0.000000 0.000000
-0.131750 -1.072217 1.804141 0.000000 0.000000 0.000000
-0.149089 -1.074059 1.816354 0.000000 0.000000 0.000000
-0.240882 -1.026383 2.009471 0.000000 0.000000 0.000000
-0.166331 -1.041458 2.104955 0.000000 0.000000 0.000000
-0.211326 -1.027779 1.914642 0.000000 0.000000 0.000000
-0.119399 -1.086170 2.024158 0.000000 0.000000 0.000000
-0.144222 -1.072765 1.811566 0.000000 0.000000 0.000000
-0.146580 -1.072709 1.780619 0.000000 0.000000 0.000000
-0.241966 -1.022558 1.984584 0.000000 0.000000 0.000000
-0.144987 -1.075200 1.804191 0.000000 0.000000 0.000000
-0.250800 -1.019832 2.013167 0.000000 0.000000 0.000000
-0.097816 -1.085820 1.729842 0.000000 0.000000 0.000000
-0.250262 -1.016829 2.039186 0.000000 0.000000 0.000000
-0.206463 -1.033426 1.915602 0.000000 0.000000 0.000000
-0.255625 -1.010989 2.148126 0.000000 0.000000 0.000000
-0.210898 -1.026317 1.919800 0.000000 0.000000 0.000000
-0.151149 -1.054978 2.094278 0.000000 0.000000 0.000000
-0.155285 -1.066094 1.823590 0.000000 0.000000 0.000000
0.005067 -1.151492 1.711330 0.000000 0.000000 0.000000
-0.219047 -1.020704 1.932051 0.000000 0.000000 0.000000
-0.071519 -1.094242 1.779302 0.000000 0.000000 0.000000
-0.152142 -1.062406 1.920174 0.000000 0.000000 0.000000
-0.019238 -1.144987 1.827207 0.000000 0.000000 0.000000
-0.180247 -1.054910 1.912335 0.000000 0.000000 0.000000
-0.170282 -1.061792 1.844342 0.000000 0.000000 0.000000
-0.239258 -1.025524 2.006056 0.000000 0.000000 0.000000
-0.034683 -1.129225 1.834862 0.000000 0.000000 0.000000
-0.002068 -1.125219 1.681377 0.000000 0.000000 0.000000
-0.259162 -1.011429 2.111444 0.000000 0.000000 0.000000
-0.208359 -1.032158 1.925050 0.000000 0.000000 0.000000
-0.193853 -1.045559 1.889126 0.000000 0.000000 0.000000
-0.032532 -1.112473 1.744300 0.000000 0.000000 0.000000
-0.132297 -1.067328 1.904249 0.000000 0.000000 0.000000
-0.019168 -1.144147 1.839513 0.000000 0.000000 0.000000
-0.195108 -1.042461 1.902719 0.000000 0.000000 0.000000
-0.155199 -1.059325 1.871485 0.000000 0.000000 0.000000
-0.205305 -1.034304 1.912066 0.000000 0.000000 0.000000
-0.169192 -1.065680 1.834626 0.000000 0.000000 0.000000
-0.243419 -1.019478 2.150668 0.000000 0.000000 0.000000
-0.205789 -1.037938 1.898831 0.000000 0.000000 0.000000
-0.135196 -1.075795 2.047717 0.000000 0.000000 0.000000
0.019631 -1.131094 1.667359 0.000000 0.000000 0.000000
-0.256114 -1.014239 2.087595 0.000000 0.000000 0.000000
-0.238874 -1.014921 1.972694 0.000000 0.000000 0.000000
0.018674 -1.130941 1.672016 0.000000 0.000000 0.000000
-0.036211 -1.108518 1.765558 0.000000 0.000000 0.000000
-0.186855 -1.048475 2.025259 0.000000 0.000000 0.000000
0.011207 -1.120734 1.668235 0.000000 0.000000 0.000000
-0.019299 -1.145082 1.802161 0.000000 0.000000 0.000000
-0.243876 -1.017773 2.077218 0.000000 0.000000 0.000000
-0.125153 -1.073472 1.753035 0.000000 0.000000 0.000000
-0.122853 -1.068470 1.734215 0.000000 0.000000 0.000000
-0.234506 -1.025459 2.109433 0.000000 0.000000 0.000000
-0.154545 -1.065352 1.956076 0.000000 0.000000 0.000000
0.011900 -1.121465 1.669261 0.000000 0.000000 0.000000
-0.251744 -1.017336 2.075582 0.000000 0.000000 0.000000
-0.125985 -1.073065 1.744362 0.000000 0.000000 0.000000
-0.242829 -1.017069 2.066378 0.000000 0.000000 0.000000
-0.018349 -1.119713 1.711316 0.000000 0.000000 0.000000
0.020142 -1.129637 1.670134 0.000000 0.000000 0.000000
-0.056520 -1.127772 1.950114 0.000000 0.000000 0.000000
-0.256113 -1.010227 2.053497 0.000000 0.000000 0.000000
-0.248645 -1.017537 2.015299 0.000000 0.000000 0.000000
-0.016448 -1.144765 1.863398 0.000000 0.000000 0.000000
-0.205930 -1.039826 2.101127 0.000000 0.000000 0.000000
-0.114253 -1.075602 1.873377 0.000000 0.000000 0.000000
-0.248232 -1.015399 2.033861 0.000000 0.000000 0.000000
-0.250130 -1.018283 2.146892 0.000000 0.000000 0.000000
-0.175141 -1.051104 2.084216 0.000000 0.000000 0.000000
-0.255509 -1.010775 2.041838 0.000000 0.000000 0.000000
-0.190308 -1.049258 1.880321 0.000000 0.000000 0.000000
-0.182803 -1.058944 1.848731 0.000000 0.000000 0.000000
-0.018231 -1.150792 1.857712 0.000000 0.000000 0.000000
-0.176996 -1.059672 1.848620 0.000000 0.000000 0.000000
-0.177758 -1.054344 1.861438 0.000000 0.000000 0.000000
-0.249983 -1.016940 2.038231 0.000000 0.000000 0.000000
-0.254779 -1.020206 2.142453 0.000000 0.000000 0.000000
-0.180030 -1.046233 2.090812 0.000000 0.000000 0.000000
-0.017882 -1.113027 1.683127 0.000000 0.000000 0.000000
-0.255877 -1.013354 2.072452 0.000000 0.000000 0.000000
0.004509 -1.162441 1.746272 0.000000 0.000000 0.000000
-0.087365 -1.107135 2.006034 0.000000 0.000000 0.000000
-0.150227 -1.069200 1.776033 0.000000 0.000000 0.000000
-0.150905 -1.063035 2.061365 0.000000 0.000000 0.000000
-0.142033 -1.066580 2.068298 0.000000 0.000000 0.000000
-0.253323 -1.015608 2.040021 0.000000 0.000000 0.000000
-0.093708 -1.089079 1.826604 0.000000 0.000000 0.000000
0.007214 -1.153062 1.732764 0.000000 0.000000 0.000000
-0.225048 -1.018002 1.967373 0.000000 0.000000 0.000000
-0.009552 -1.124744 1.770256 0.000000 0.000000 0.000000
-0.245861 -1.020561 2.124097 0.000000 0.000000 0.000000
-0.148580 -1.069767 1.772397 0.000000 0.000000 0.000000
-0.018859 -1.137291 1.820391 0.000000 0.000000 0.000000
-0.011393 -1.134657 1.810111 0.000000 0.000000 0.000000
-0.016325 -1.148119 1.803124 0.000000 0.000000 0.000000
-0.016632 -1.149980 1.812853 0.000000 0.000000 0.000000
-0.176231 -1.051862 1.873615 0.000000 0.000000 0.000000
-0.089885 -1.085958 1.830597 0.000000 0.000000 0.000000
-0.002620 -1.133717 1.768538 0.000000 0.000000 0.000000
0.004697 -1.142210 1.701979 0.000000 0.000000 0.000000
-0.258300 -1.010080 2.162902 0.000000 0.000000 0.000000
0.001486 -1.140778 1.726079 0.000000 0.000000 0.000000
-0.153147 -1.068485 1.782536 0.000000 0.000000 0.000000
-0.243853 -1.019754 2.001306 0.000000 0.000000 0.000000
0.009730 -1.150186 1.710418 0.000000 0.000000 0.000000
0.007597 -1.148875 1.715209 0.000000 0.000000 0.000000
-0.132703 -1.072631 1.753410 0.000000 0.000000 0.000000
-0.015088 -1.154374 1.807278 0.000000 0.000000 0.000000
-0.173974 -1.056708 1.858694 0.000000 0.000000 0.000000
-0.089084 -1.102721 2.003541 0.000000 0.000000 0.000000
-0.251228 -1.015438 2.151541 0.000000 0.000000 0.000000
-0.088693 -1.089776 1.715656 0.000000 0.000000 0.000000
-0.056728 -1.099422 1.696423 0.000000 0.000000 0.000000
-0.108828 -1.098416 2.004746 0.000000 0.000000 0.000000
0.005429 -1.152390 1.722155 0.000000 0.000000 0.000000
-0.183753 -1.055300 1.858476 0.000000 0.000000 0.000000
-0.076849 -1.089218 1.724095 0.000000 0.000000 0.000000
0.004772 -1.147911 1.713626 0.000000 0.000000 0.000000
-0.255818 -1.012835 2.091412 0.000000 0.000000 0.000000
-0.181527 -1.057569 1.848654 0.000000 0.000000 0.000000
-0.094487 -1.098916 2.014328 0.000000 0.000000 0.000000
-0.227942 -1.021364 1.948990 0.000000 0.000000 0.000000
