ply
format ascii 1.0
comment VCGLIB generated
obj_info Generated by SPFormer!
element vertex 868
property float x
property float y
property float z
property float nx
property float ny
property float nz
end_header
0.204528 -1.236757 1.929650 0.000000 0.000000 0.000000
0.337037 -1.181471 1.930845 0.000000 0.000000 0.000000
0.175046 -1.259433 1.897338 0.000000 0.000000 0.000000
0.198828 -1.268823 1.973136 0.000000 0.000000 0.000000
0.268298 -1.267582 1.947292 0.000000 0.000000 0.000000
0.311526 -1.262730 1.922501 0.000000 0.000000 0.000000
0.188730 -1.266762 1.988920 0.000000 0.000000 0.000000
0.343458 -1.200850 1.896621 0.000000 0.000000 0.000000
0.312554 -1.191518 1.899018 0.000000 0.000000 0.000000
0.317312 -1.245742 1.947142 0.000000 0.000000 0.000000
0.180265 -1.257137 1.895960 0.000000 0.000000 0.000000
0.208615 -1.279364 1.992242 0.000000 0.000000 0.000000
0.267402 -1.176732 1.855991 0.000000 0.000000 0.000000
0.264737 -1.178121 1.848641 0.000000 0.000000 0.000000
0.239298 -1.275256 1.944633 0.000000 0.000000 0.000000
0.143990 -1.231736 1.869003 0.000000 0.000000 0.000000
0.280716 -1.264983 1.948125 0.000000 0.000000 0.000000
0.209909 -1.236752 1.937448 0.000000 0.000000 0.000000
0.266655 -1.169367 1.839159 0.000000 0.000000 0.000000
0.291341 -1.251762 1.944510 0.000000 0.000000 0.000000
0.191752 -1.283647 1.954833 0.000000 0.000000 0.000000
0.131425 -1.236541 1.870018 0.000000 0.000000 0.000000
0.355990 -1.175223 1.897185 0.000000 0.000000 0.000000
0.172516 -1.166777 1.845585 0.000000 0.000000 0.000000
0.143623 -1.206383 1.890294 0.000000 0.000000 0.000000
0.202659 -1.281039 1.984478 0.000000 0.000000 0.000000
0.192486 -1.149211 1.801175 0.000000 0.000000 0.000000
0.329522 -1.162911 1.884845 0.000000 0.000000 0.000000
0.286472 -1.173808 1.858719 0.000000 0.000000 0.000000
0.191817 -1.204433 1.851905 0.000000 0.000000 0.000000
0.198314 -1.245288 1.874006 0.000000 0.000000 0.000000
0.190289 -1.162199 1.800878 0.000000 0.000000 0.000000
0.214884 -1.278111 1.964283 0.000000 0.000000 0.000000
0.241626 -1.255086 1.900634 0.000000 0.000000 0.000000
0.180368 -1.176438 1.825577 0.000000 0.000000 0.000000
0.199428 -1.290968 1.996349 0.000000 0.000000 0.000000
0.345493 -1.189077 1.878085 0.000000 0.000000 0.000000
0.210519 -1.287226 1.982903 0.000000 0.000000 0.000000
0.133657 -1.243782 1.866033 0.000000 0.000000 0.000000
0.143925 -1.241180 1.868415 0.000000 0.000000 0.000000
0.249527 -1.241282 1.877123 0.000000 0.000000 0.000000
0.210450 -1.250233 1.882074 0.000000 0.000000 0.000000
0.217185 -1.276321 1.963083 0.000000 0.000000 0.000000
0.334509 -1.178853 1.918910 0.000000 0.000000 0.000000
0.276189 -1.271386 1.963781 0.000000 0.000000 0.000000
0.152556 -1.138434 1.798600 0.000000 0.000000 0.000000
0.201032 -1.287920 1.979955 0.000000 0.000000 0.000000
0.200556 -1.280037 1.990299 0.000000 0.000000 0.000000
0.143064 -1.152358 1.827645 0.000000 0.000000 0.000000
0.221917 -1.196264 1.840898 0.000000 0.000000 0.000000
0.120660 -1.191952 1.875087 0.000000 0.000000 0.000000
0.258960 -1.263404 1.961328 0.000000 0.000000 0.000000
0.180435 -1.266577 1.984005 0.000000 0.000000 0.000000
0.124749 -1.245482 1.885372 0.000000 0.000000 0.000000
0.111231 -1.303803 1.985417 0.000000 0.000000 0.000000
0.197569 -1.291937 1.998366 0.000000 0.000000 0.000000
0.121578 -1.227222 1.911362 0.000000 0.000000 0.000000
0.222663 -1.271449 1.986423 0.000000 0.000000 0.000000
0.195641 -1.208082 1.837390 0.000000 0.000000 0.000000
0.216791 -1.279754 1.982079 0.000000 0.000000 0.000000
0.232476 -1.274842 1.979411 0.000000 0.000000 0.000000
0.284712 -1.267684 1.952435 0.000000 0.000000 0.000000
0.356517 -1.197413 1.932531 0.000000 0.000000 0.000000
0.300267 -1.241486 1.944220 0.000000 0.000000 0.000000
0.326505 -1.234830 1.918820 0.000000 0.000000 0.000000
0.267834 -1.275931 1.965565 0.000000 0.000000 0.000000
0.208430 -1.281983 1.952221 0.000000 0.000000 0.000000
0.190578 -1.293658 1.981275 0.000000 0.000000 0.000000
0.270122 -1.269555 1.949010 0.000000 0.000000 0.000000
0.135716 -1.157327 1.825958 0.000000 0.000000 0.000000
0.194387 -1.139583 1.796269 0.000000 0.000000 0.000000
0.202493 -1.284235 2.003955 0.000000 0.000000 0.000000
0.295732 -1.161144 1.850341 0.000000 0.000000 0.000000
0.234873 -1.234916 1.864598 0.000000 0.000000 0.000000
0.197227 -1.282018 1.990676 0.000000 0.000000 0.000000
0.237438 -1.265845 1.964948 0.000000 0.000000 0.000000
0.265977 -1.239325 1.933042 0.000000 0.000000 0.000000
0.191412 -1.279133 1.988135 0.000000 0.000000 0.000000
0.181866 -1.257352 1.960800 0.000000 0.000000 0.000000
0.345415 -1.193360 1.945705 0.000000 0.000000 0.000000
0.182245 -1.262628 1.910989 0.000000 0.000000 0.000000
0.206856 -1.277132 1.993522 0.000000 0.000000 0.000000
0.297879 -1.250538 1.926915 0.000000 0.000000 0.000000
0.146462 -1.156407 1.814498 0.000000 0.000000 0.000000
0.358705 -1.186515 1.923969 0.000000 0.000000 0.000000
0.305814 -1.177486 1.879150 0.000000 0.000000 0.000000
0.095991 -1.269136 1.957302 0.000000 0.000000 0.000000
0.317615 -1.240877 1.935138 0.000000 0.000000 0.000000
0.194384 -1.244528 1.887475 0.000000 0.000000 0.000000
0.207872 -1.202093 1.870107 0.000000 0.000000 0.000000
0.203680 -1.299504 1.979088 0.000000 0.000000 0.000000
0.133710 -1.223622 1.872648 0.000000 0.000000 0.000000
0.242347 -1.247159 1.918774 0.000000 0.000000 0.000000
0.179284 -1.294402 1.961025 0.000000 0.000000 0.000000
0.123664 -1.242002 1.878154 0.000000 0.000000 0.000000
0.290240 -1.254567 1.975205 0.000000 0.000000 0.000000
0.359875 -1.174764 1.908999 0.000000 0.000000 0.000000
0.193407 -1.179970 1.850380 0.000000 0.000000 0.000000
0.199556 -1.247017 1.873604 0.000000 0.000000 0.000000
0.160979 -1.210880 1.906515 0.000000 0.000000 0.000000
0.183443 -1.295401 1.964808 0.000000 0.000000 0.000000
0.163645 -1.138691 1.796104 0.000000 0.000000 0.000000
0.156645 -1.303638 1.994237 0.000000 0.000000 0.000000
0.210512 -1.276758 1.979120 0.000000 0.000000 0.000000
0.177341 -1.136428 1.788175 0.000000 0.000000 0.000000
0.213029 -1.232637 1.866919 0.000000 0.000000 0.000000
0.225876 -1.255571 1.966210 0.000000 0.000000 0.000000
0.352851 -1.189606 1.914580 0.000000 0.000000 0.000000
0.220825 -1.248615 1.868392 0.000000 0.000000 0.000000
0.175483 -1.205925 1.845488 0.000000 0.000000 0.000000
0.198445 -1.290609 1.993241 0.000000 0.000000 0.000000
0.224909 -1.252399 1.886934 0.000000 0.000000 0.000000
0.141857 -1.240536 1.863550 0.000000 0.000000 0.000000
0.142923 -1.249935 1.878734 0.000000 0.000000 0.000000
0.160666 -1.138211 1.808076 0.000000 0.000000 0.000000
0.213744 -1.281864 1.977017 0.000000 0.000000 0.000000
0.233385 -1.250477 1.891975 0.000000 0.000000 0.000000
0.343042 -1.199484 1.933819 0.000000 0.000000 0.000000
0.316876 -1.226076 1.952300 0.000000 0.000000 0.000000
0.281841 -1.267248 1.958043 0.000000 0.000000 0.000000
0.185492 -1.287938 1.999579 0.000000 0.000000 0.000000
0.201730 -1.281531 2.006937 0.000000 0.000000 0.000000
0.169701 -1.129758 1.781268 0.000000 0.000000 0.000000
0.193454 -1.203774 1.826002 0.000000 0.000000 0.000000
0.289645 -1.262613 1.974836 0.000000 0.000000 0.000000
0.132869 -1.245457 1.869051 0.000000 0.000000 0.000000
0.102981 -1.299253 1.981770 0.000000 0.000000 0.000000
0.209759 -1.293076 1.979023 0.000000 0.000000 0.000000
0.112845 -1.226201 1.906850 0.000000 0.000000 0.000000
0.118239 -1.200666 1.881914 0.000000 0.000000 0.000000
0.226236 -1.268811 1.990027 0.000000 0.000000 0.000000
0.237685 -1.278150 1.965849 0.000000 0.000000 0.000000
0.214767 -1.277372 1.991799 0.000000 0.000000 0.000000
0.196606 -1.208099 1.851870 0.000000 0.000000 0.000000
0.257508 -1.255757 1.983989 0.000000 0.000000 0.000000
0.331179 -1.234584 1.920251 0.000000 0.000000 0.000000
0.333830 -1.222033 1.966705 0.000000 0.000000 0.000000
0.271956 -1.261008 1.979674 0.000000 0.000000 0.000000
0.198827 -1.291147 1.955798 0.000000 0.000000 0.000000
0.197242 -1.129495 1.807965 0.000000 0.000000 0.000000
0.271835 -1.272492 1.955692 0.000000 0.000000 0.000000
0.188420 -1.289393 2.003015 0.000000 0.000000 0.000000
0.196693 -1.285630 2.001259 0.000000 0.000000 0.000000
0.137956 -1.168479 1.857796 0.000000 0.000000 0.000000
0.111345 -1.216325 1.886640 0.000000 0.000000 0.000000
0.091936 -1.294749 1.978073 0.000000 0.000000 0.000000
0.098042 -1.328313 1.999072 0.000000 0.000000 0.000000
0.261917 -1.256552 1.999998 0.000000 0.000000 0.000000
0.115383 -1.319004 2.004748 0.000000 0.000000 0.000000
0.135750 -1.165754 1.868035 0.000000 0.000000 0.000000
0.210448 -1.299903 1.971584 0.000000 0.000000 0.000000
0.258498 -1.269677 1.952388 0.000000 0.000000 0.000000
0.210933 -1.274445 1.984234 0.000000 0.000000 0.000000
0.251428 -1.234126 1.864787 0.000000 0.000000 0.000000
0.231363 -1.241206 1.869033 0.000000 0.000000 0.000000
0.098159 -1.286732 1.976313 0.000000 0.000000 0.000000
0.316978 -1.224673 1.921002 0.000000 0.000000 0.000000
0.264198 -1.178695 1.855958 0.000000 0.000000 0.000000
0.237839 -1.274208 1.977321 0.000000 0.000000 0.000000
0.318932 -1.197928 1.949959 0.000000 0.000000 0.000000
0.243237 -1.267912 1.968357 0.000000 0.000000 0.000000
0.323103 -1.219442 1.900347 0.000000 0.000000 0.000000
0.213292 -1.280537 1.999874 0.000000 0.000000 0.000000
0.126067 -1.174706 1.870270 0.000000 0.000000 0.000000
0.233039 -1.266908 1.990348 0.000000 0.000000 0.000000
0.176167 -1.217767 1.850085 0.000000 0.000000 0.000000
0.185976 -1.180537 1.832548 0.000000 0.000000 0.000000
0.101029 -1.267603 1.901835 0.000000 0.000000 0.000000
0.184559 -1.233417 1.859151 0.000000 0.000000 0.000000
0.184565 -1.291163 2.009406 0.000000 0.000000 0.000000
0.201445 -1.285235 1.999892 0.000000 0.000000 0.000000
0.198589 -1.288302 2.007098 0.000000 0.000000 0.000000
0.269223 -1.231993 1.964761 0.000000 0.000000 0.000000
0.228860 -1.255375 1.948606 0.000000 0.000000 0.000000
0.150815 -1.152926 1.804735 0.000000 0.000000 0.000000
0.164058 -1.158692 1.837408 0.000000 0.000000 0.000000
0.214373 -1.194059 1.866668 0.000000 0.000000 0.000000
0.317105 -1.146134 1.859214 0.000000 0.000000 0.000000
0.201362 -1.257404 1.953978 0.000000 0.000000 0.000000
0.168574 -1.147960 1.823067 0.000000 0.000000 0.000000
0.189975 -1.152177 1.827637 0.000000 0.000000 0.000000
0.194913 -1.238061 1.856682 0.000000 0.000000 0.000000
0.146568 -1.158508 1.834207 0.000000 0.000000 0.000000
0.223619 -1.255144 1.950903 0.000000 0.000000 0.000000
0.327121 -1.212691 1.933657 0.000000 0.000000 0.000000
0.256385 -1.266396 1.949768 0.000000 0.000000 0.000000
0.157334 -1.189833 1.853972 0.000000 0.000000 0.000000
0.276253 -1.242422 1.936509 0.000000 0.000000 0.000000
0.110301 -1.320446 2.003349 0.000000 0.000000 0.000000
0.149318 -1.162007 1.838401 0.000000 0.000000 0.000000
0.207889 -1.302207 1.969907 0.000000 0.000000 0.000000
0.098432 -1.283397 1.972866 0.000000 0.000000 0.000000
0.235328 -1.280447 1.955027 0.000000 0.000000 0.000000
0.211906 -1.264228 1.967889 0.000000 0.000000 0.000000
0.234159 -1.255128 1.880268 0.000000 0.000000 0.000000
0.266036 -1.244886 1.895800 0.000000 0.000000 0.000000
0.268838 -1.235126 1.872807 0.000000 0.000000 0.000000
0.349713 -1.191100 1.939370 0.000000 0.000000 0.000000
0.245690 -1.266689 1.998718 0.000000 0.000000 0.000000
0.284927 -1.269773 1.938052 0.000000 0.000000 0.000000
0.226521 -1.278994 1.969914 0.000000 0.000000 0.000000
0.204907 -1.284265 2.001227 0.000000 0.000000 0.000000
0.134741 -1.165833 1.864357 0.000000 0.000000 0.000000
0.158767 -1.236806 1.864623 0.000000 0.000000 0.000000
0.305254 -1.217071 1.965375 0.000000 0.000000 0.000000
0.100840 -1.272515 1.911705 0.000000 0.000000 0.000000
0.304373 -1.254959 1.943320 0.000000 0.000000 0.000000
0.147519 -1.240211 1.864039 0.000000 0.000000 0.000000
0.132171 -1.162000 1.829095 0.000000 0.000000 0.000000
0.184763 -1.300256 2.002995 0.000000 0.000000 0.000000
0.255408 -1.259402 1.971960 0.000000 0.000000 0.000000
0.229587 -1.250524 1.938202 0.000000 0.000000 0.000000
0.172438 -1.144256 1.788032 0.000000 0.000000 0.000000
0.148952 -1.164687 1.859060 0.000000 0.000000 0.000000
0.241950 -1.164116 1.837812 0.000000 0.000000 0.000000
0.243819 -1.275367 1.960268 0.000000 0.000000 0.000000
0.341209 -1.200449 1.941875 0.000000 0.000000 0.000000
0.155855 -1.129038 1.783353 0.000000 0.000000 0.000000
0.146427 -1.162226 1.855876 0.000000 0.000000 0.000000
0.195276 -1.278053 1.963245 0.000000 0.000000 0.000000
0.289644 -1.225660 1.917773 0.000000 0.000000 0.000000
0.292636 -1.181980 1.873949 0.000000 0.000000 0.000000
0.210943 -1.169897 1.841717 0.000000 0.000000 0.000000
0.158298 -1.166700 1.809121 0.000000 0.000000 0.000000
0.235676 -1.276596 1.963024 0.000000 0.000000 0.000000
0.198394 -1.186134 1.855331 0.000000 0.000000 0.000000
0.185740 -1.149125 1.826058 0.000000 0.000000 0.000000
0.354907 -1.197283 1.948758 0.000000 0.000000 0.000000
0.257429 -1.265725 1.976681 0.000000 0.000000 0.000000
0.318831 -1.250310 1.962471 0.000000 0.000000 0.000000
0.098425 -1.270226 1.914471 0.000000 0.000000 0.000000
0.315830 -1.214778 1.967227 0.000000 0.000000 0.000000
0.317378 -1.250814 1.953156 0.000000 0.000000 0.000000
0.333095 -1.176746 1.884965 0.000000 0.000000 0.000000
0.373033 -1.166797 1.866559 0.000000 0.000000 0.000000
0.342788 -1.233549 1.936274 0.000000 0.000000 0.000000
0.378690 -1.175223 1.874025 0.000000 0.000000 0.000000
0.146630 -1.249387 1.873152 0.000000 0.000000 0.000000
0.260368 -1.261861 1.984926 0.000000 0.000000 0.000000
0.251236 -1.266822 1.983792 0.000000 0.000000 0.000000
0.245759 -1.270431 1.988222 0.000000 0.000000 0.000000
0.261228 -1.268875 1.983455 0.000000 0.000000 0.000000
0.345256 -1.207667 1.953706 0.000000 0.000000 0.000000
0.270917 -1.268104 1.939836 0.000000 0.000000 0.000000
0.143365 -1.162829 1.840575 0.000000 0.000000 0.000000
0.268247 -1.260857 1.986215 0.000000 0.000000 0.000000
0.293566 -1.254902 1.939801 0.000000 0.000000 0.000000
0.249124 -1.276757 1.963098 0.000000 0.000000 0.000000
0.156590 -1.147103 1.817472 0.000000 0.000000 0.000000
0.244639 -1.267013 1.985108 0.000000 0.000000 0.000000
0.246286 -1.256768 1.951257 0.000000 0.000000 0.000000
0.345429 -1.235343 1.947346 0.000000 0.000000 0.000000
0.387030 -1.171888 1.876829 0.000000 0.000000 0.000000
0.373426 -1.170427 1.871831 0.000000 0.000000 0.000000
0.132348 -1.251977 1.880094 0.000000 0.000000 0.000000
0.316192 -1.254698 1.955779 0.000000 0.000000 0.000000
0.265457 -1.269247 1.981001 0.000000 0.000000 0.000000
0.244076 -1.269960 1.982225 0.000000 0.000000 0.000000
0.262064 -1.266889 1.940677 0.000000 0.000000 0.000000
0.308508 -1.257238 1.937267 0.000000 0.000000 0.000000
0.251179 -1.270185 1.975613 0.000000 0.000000 0.000000
0.265944 -1.248600 1.954676 0.000000 0.000000 0.000000
0.151716 -1.160715 1.823065 0.000000 0.000000 0.000000
0.234353 -1.264463 1.980499 0.000000 0.000000 0.000000
0.359451 -1.191441 1.936410 0.000000 0.000000 0.000000
0.238675 -1.267578 1.988624 0.000000 0.000000 0.000000
0.235371 -1.259961 1.972889 0.000000 0.000000 0.000000
0.179860 -1.223075 1.839373 0.000000 0.000000 0.000000
0.182074 -1.294144 2.012259 0.000000 0.000000 0.000000
0.179668 -1.301830 2.002946 0.000000 0.000000 0.000000
0.145733 -1.309305 1.960491 0.000000 0.000000 0.000000
0.177866 -1.285495 2.008473 0.000000 0.000000 0.000000
0.156122 -1.124383 1.774903 0.000000 0.000000 0.000000
0.167966 -1.254298 1.910720 0.000000 0.000000 0.000000
0.130530 -1.155157 1.831370 0.000000 0.000000 0.000000
0.146623 -1.148368 1.799196 0.000000 0.000000 0.000000
0.342386 -1.185603 1.874069 0.000000 0.000000 0.000000
0.214166 -1.284487 1.972221 0.000000 0.000000 0.000000
0.139318 -1.151376 1.832244 0.000000 0.000000 0.000000
0.146864 -1.164403 1.844855 0.000000 0.000000 0.000000
0.149902 -1.157352 1.820707 0.000000 0.000000 0.000000
0.192791 -1.187504 1.822112 0.000000 0.000000 0.000000
0.347548 -1.222648 1.958423 0.000000 0.000000 0.000000
0.159549 -1.158791 1.820977 0.000000 0.000000 0.000000
0.315392 -1.230198 1.937223 0.000000 0.000000 0.000000
0.385961 -1.171006 1.871200 0.000000 0.000000 0.000000
0.174812 -1.253523 1.888663 0.000000 0.000000 0.000000
0.336806 -1.185365 1.919448 0.000000 0.000000 0.000000
0.230910 -1.281903 1.960320 0.000000 0.000000 0.000000
0.143202 -1.159429 1.833638 0.000000 0.000000 0.000000
0.154574 -1.159739 1.838272 0.000000 0.000000 0.000000
0.268960 -1.234723 1.872480 0.000000 0.000000 0.000000
0.345004 -1.224817 1.956484 0.000000 0.000000 0.000000
0.322259 -1.222450 1.938776 0.000000 0.000000 0.000000
0.373267 -1.179991 1.877383 0.000000 0.000000 0.000000
0.120095 -1.173665 1.866348 0.000000 0.000000 0.000000
0.230596 -1.271838 2.002820 0.000000 0.000000 0.000000
0.101528 -1.290678 1.982801 0.000000 0.000000 0.000000
0.187169 -1.146467 1.792896 0.000000 0.000000 0.000000
0.182580 -1.129551 1.801873 0.000000 0.000000 0.000000
0.178602 -1.133448 1.785641 0.000000 0.000000 0.000000
0.175266 -1.126138 1.794386 0.000000 0.000000 0.000000
0.177465 -1.142868 1.801805 0.000000 0.000000 0.000000
0.184375 -1.159462 1.809172 0.000000 0.000000 0.000000
0.098466 -1.271768 1.902463 0.000000 0.000000 0.000000
0.234172 -1.267403 1.981867 0.000000 0.000000 0.000000
0.217180 -1.164566 1.835589 0.000000 0.000000 0.000000
0.269363 -1.255188 1.973841 0.000000 0.000000 0.000000
0.166007 -1.232709 1.851219 0.000000 0.000000 0.000000
0.139791 -1.239133 1.930610 0.000000 0.000000 0.000000
0.187268 -1.130617 1.806207 0.000000 0.000000 0.000000
0.165238 -1.133104 1.797154 0.000000 0.000000 0.000000
0.114185 -1.229886 1.895682 0.000000 0.000000 0.000000
0.163334 -1.142371 1.786867 0.000000 0.000000 0.000000
0.181140 -1.123084 1.789830 0.000000 0.000000 0.000000
0.179841 -1.125955 1.788523 0.000000 0.000000 0.000000
0.139376 -1.155023 1.829578 0.000000 0.000000 0.000000
0.100451 -1.271703 1.902797 0.000000 0.000000 0.000000
0.228103 -1.269494 1.988773 0.000000 0.000000 0.000000
0.171498 -1.139462 1.812060 0.000000 0.000000 0.000000
0.247887 -1.254984 1.984353 0.000000 0.000000 0.000000
0.281351 -1.253798 1.954734 0.000000 0.000000 0.000000
0.170112 -1.236318 1.868936 0.000000 0.000000 0.000000
0.359736 -1.232121 1.955672 0.000000 0.000000 0.000000
0.108601 -1.239432 1.909308 0.000000 0.000000 0.000000
0.336200 -1.238016 1.958718 0.000000 0.000000 0.000000
0.320978 -1.236253 1.967812 0.000000 0.000000 0.000000
0.285363 -1.246983 1.983307 0.000000 0.000000 0.000000
0.204433 -1.287622 2.007454 0.000000 0.000000 0.000000
0.119816 -1.252194 1.900359 0.000000 0.000000 0.000000
0.350562 -1.214421 1.940571 0.000000 0.000000 0.000000
0.112333 -1.210081 1.885539 0.000000 0.000000 0.000000
0.098204 -1.318192 1.984884 0.000000 0.000000 0.000000
0.160181 -1.174695 1.820595 0.000000 0.000000 0.000000
0.108650 -1.326179 2.002965 0.000000 0.000000 0.000000
0.343652 -1.196177 1.942187 0.000000 0.000000 0.000000
0.196282 -1.285608 2.004561 0.000000 0.000000 0.000000
0.156427 -1.133289 1.791972 0.000000 0.000000 0.000000
0.200010 -1.285810 1.997106 0.000000 0.000000 0.000000
0.196200 -1.218303 1.830003 0.000000 0.000000 0.000000
0.123194 -1.168184 1.859525 0.000000 0.000000 0.000000
0.316080 -1.267545 1.913188 0.000000 0.000000 0.000000
0.115464 -1.228729 1.904694 0.000000 0.000000 0.000000
0.343126 -1.214856 1.944780 0.000000 0.000000 0.000000
0.090918 -1.329209 1.991611 0.000000 0.000000 0.000000
0.105280 -1.257003 1.902970 0.000000 0.000000 0.000000
0.117427 -1.321912 2.002713 0.000000 0.000000 0.000000
0.338845 -1.185834 1.922028 0.000000 0.000000 0.000000
0.211956 -1.274962 2.003344 0.000000 0.000000 0.000000
0.225215 -1.276964 1.972605 0.000000 0.000000 0.000000
0.202253 -1.285029 2.001120 0.000000 0.000000 0.000000
0.327700 -1.217490 1.971217 0.000000 0.000000 0.000000
0.203688 -1.286028 2.001951 0.000000 0.000000 0.000000
0.312237 -1.248685 1.961726 0.000000 0.000000 0.000000
0.098255 -1.272056 1.917627 0.000000 0.000000 0.000000
0.294204 -1.255582 1.916787 0.000000 0.000000 0.000000
0.321195 -1.269977 1.911712 0.000000 0.000000 0.000000
0.136883 -1.152388 1.832080 0.000000 0.000000 0.000000
0.114325 -1.263821 1.953896 0.000000 0.000000 0.000000
0.129872 -1.169770 1.861252 0.000000 0.000000 0.000000
0.156933 -1.129434 1.786897 0.000000 0.000000 0.000000
0.202210 -1.287300 2.006633 0.000000 0.000000 0.000000
0.324307 -1.242126 1.962947 0.000000 0.000000 0.000000
0.217430 -1.223328 1.839941 0.000000 0.000000 0.000000
0.111919 -1.257568 1.881167 0.000000 0.000000 0.000000
0.299886 -1.234348 1.959042 0.000000 0.000000 0.000000
0.287109 -1.253538 1.949364 0.000000 0.000000 0.000000
0.185305 -1.292788 2.011416 0.000000 0.000000 0.000000
0.194276 -1.294777 2.013615 0.000000 0.000000 0.000000
0.371746 -1.160882 1.856903 0.000000 0.000000 0.000000
0.313237 -1.250021 1.962119 0.000000 0.000000 0.000000
0.124835 -1.165798 1.853254 0.000000 0.000000 0.000000
0.359948 -1.171230 1.863336 0.000000 0.000000 0.000000
0.178266 -1.131551 1.778510 0.000000 0.000000 0.000000
0.186524 -1.188079 1.814365 0.000000 0.000000 0.000000
0.178281 -1.231062 1.858610 0.000000 0.000000 0.000000
0.215747 -1.242155 1.860532 0.000000 0.000000 0.000000
0.129296 -1.253767 1.883188 0.000000 0.000000 0.000000
0.094349 -1.282393 1.928292 0.000000 0.000000 0.000000
0.303915 -1.251182 1.942377 0.000000 0.000000 0.000000
0.307208 -1.259709 1.942964 0.000000 0.000000 0.000000
0.191724 -1.294030 2.004141 0.000000 0.000000 0.000000
0.350770 -1.193819 1.926524 0.000000 0.000000 0.000000
0.179148 -1.286460 2.012734 0.000000 0.000000 0.000000
0.304156 -1.244639 1.956670 0.000000 0.000000 0.000000
0.127016 -1.161303 1.844545 0.000000 0.000000 0.000000
0.133947 -1.157740 1.848634 0.000000 0.000000 0.000000
0.256636 -1.268491 1.987222 0.000000 0.000000 0.000000
0.184560 -1.137489 1.785925 0.000000 0.000000 0.000000
0.172452 -1.228663 1.850891 0.000000 0.000000 0.000000
0.096760 -1.270858 1.904929 0.000000 0.000000 0.000000
0.104109 -1.272193 1.904272 0.000000 0.000000 0.000000
0.315339 -1.256597 1.960445 0.000000 0.000000 0.000000
0.103934 -1.261891 1.895090 0.000000 0.000000 0.000000
0.352618 -1.179900 1.923746 0.000000 0.000000 0.000000
0.156381 -1.213347 1.839887 0.000000 0.000000 0.000000
0.099688 -1.265422 1.899405 0.000000 0.000000 0.000000
0.200854 -1.197022 1.819324 0.000000 0.000000 0.000000
0.159925 -1.205477 1.833590 0.000000 0.000000 0.000000
0.152574 -1.156928 1.802639 0.000000 0.000000 0.000000
0.316257 -1.243574 1.960128 0.000000 0.000000 0.000000
0.141058 -1.152971 1.821253 0.000000 0.000000 0.000000
0.119964 -1.314559 2.001274 0.000000 0.000000 0.000000
0.123749 -1.303596 2.007386 0.000000 0.000000 0.000000
0.099073 -1.283622 1.973787 0.000000 0.000000 0.000000
0.089747 -1.332652 1.999080 0.000000 0.000000 0.000000
0.207666 -1.279640 1.992655 0.000000 0.000000 0.000000
0.110378 -1.228205 1.900891 0.000000 0.000000 0.000000
0.205607 -1.284051 2.000528 0.000000 0.000000 0.000000
0.327799 -1.217429 1.974770 0.000000 0.000000 0.000000
0.098102 -1.290218 1.957372 0.000000 0.000000 0.000000
0.359451 -1.189835 1.954954 0.000000 0.000000 0.000000
0.096817 -1.283646 1.968012 0.000000 0.000000 0.000000
0.112693 -1.290907 1.951322 0.000000 0.000000 0.000000
0.095890 -1.279194 1.938886 0.000000 0.000000 0.000000
0.122863 -1.307837 1.999863 0.000000 0.000000 0.000000
0.094398 -1.288411 1.938497 0.000000 0.000000 0.000000
0.193641 -1.285441 1.994174 0.000000 0.000000 0.000000
0.112424 -1.315846 1.999507 0.000000 0.000000 0.000000
0.212300 -1.278829 1.995563 0.000000 0.000000 0.000000
0.092740 -1.275465 1.947700 0.000000 0.000000 0.000000
0.089244 -1.290641 1.959900 0.000000 0.000000 0.000000
0.321535 -1.221845 1.967545 0.000000 0.000000 0.000000
0.086605 -1.293579 1.944988 0.000000 0.000000 0.000000
0.116764 -1.241078 1.876464 0.000000 0.000000 0.000000
0.198722 -1.288027 2.008978 0.000000 0.000000 0.000000
0.124861 -1.241781 1.865866 0.000000 0.000000 0.000000
0.121747 -1.251113 1.872264 0.000000 0.000000 0.000000
0.097212 -1.279262 1.965231 0.000000 0.000000 0.000000
0.100026 -1.293793 1.935435 0.000000 0.000000 0.000000
0.116296 -1.318688 1.998991 0.000000 0.000000 0.000000
0.129208 -1.300150 2.000229 0.000000 0.000000 0.000000
0.094913 -1.288158 1.944738 0.000000 0.000000 0.000000
0.210864 -1.278231 1.997198 0.000000 0.000000 0.000000
0.095559 -1.279093 1.931576 0.000000 0.000000 0.000000
0.113336 -1.320946 2.001436 0.000000 0.000000 0.000000
0.116913 -1.318836 2.007884 0.000000 0.000000 0.000000
0.087881 -1.279744 1.938602 0.000000 0.000000 0.000000
0.347878 -1.217011 1.968104 0.000000 0.000000 0.000000
0.086304 -1.294621 1.964994 0.000000 0.000000 0.000000
0.104163 -1.266714 1.892816 0.000000 0.000000 0.000000
0.200538 -1.286680 2.003194 0.000000 0.000000 0.000000
0.118115 -1.249519 1.877928 0.000000 0.000000 0.000000
0.121705 -1.250054 1.872339 0.000000 0.000000 0.000000
0.118203 -1.317141 2.005619 0.000000 0.000000 0.000000
0.105538 -1.327291 2.000744 0.000000 0.000000 0.000000
0.198704 -1.285484 2.001149 0.000000 0.000000 0.000000
0.384282 -1.175254 1.875082 0.000000 0.000000 0.000000
0.259503 -1.264249 1.983102 0.000000 0.000000 0.000000
0.198053 -1.284838 2.001157 0.000000 0.000000 0.000000
0.088410 -1.282223 1.936291 0.000000 0.000000 0.000000
0.347897 -1.206980 1.895749 0.000000 0.000000 0.000000
0.101342 -1.331065 2.000426 0.000000 0.000000 0.000000
0.355053 -1.199326 1.956643 0.000000 0.000000 0.000000
0.095071 -1.285934 1.944909 0.000000 0.000000 0.000000
0.133910 -1.152653 1.787141 0.000000 0.000000 0.000000
0.365623 -1.167632 1.874420 0.000000 0.000000 0.000000
0.313578 -1.262164 1.909830 0.000000 0.000000 0.000000
0.097982 -1.277122 1.908690 0.000000 0.000000 0.000000
0.347960 -1.179730 1.874470 0.000000 0.000000 0.000000
0.096010 -1.330405 2.005937 0.000000 0.000000 0.000000
0.094159 -1.291785 1.940435 0.000000 0.000000 0.000000
0.132518 -1.157239 1.787657 0.000000 0.000000 0.000000
0.129443 -1.162450 1.806023 0.000000 0.000000 0.000000
0.102271 -1.270982 1.899973 0.000000 0.000000 0.000000
0.276837 -1.276471 1.981175 0.000000 0.000000 0.000000
0.312003 -1.152080 1.858592 0.000000 0.000000 0.000000
0.180170 -1.239427 1.860390 0.000000 0.000000 0.000000
0.155323 -1.131686 1.787220 0.000000 0.000000 0.000000
0.308565 -1.265457 1.911822 0.000000 0.000000 0.000000
0.276388 -1.277258 1.977330 0.000000 0.000000 0.000000
0.093576 -1.281963 1.922430 0.000000 0.000000 0.000000
0.307701 -1.251047 1.907845 0.000000 0.000000 0.000000
0.275519 -1.237353 1.883078 0.000000 0.000000 0.000000
0.297528 -1.231802 1.889147 0.000000 0.000000 0.000000
0.107593 -1.268520 1.904613 0.000000 0.000000 0.000000
0.185809 -1.230806 1.854045 0.000000 0.000000 0.000000
0.154216 -1.232558 1.858636 0.000000 0.000000 0.000000
0.113428 -1.273698 1.904088 0.000000 0.000000 0.000000
0.265277 -1.257721 1.970792 0.000000 0.000000 0.000000
0.271142 -1.262683 1.989370 0.000000 0.000000 0.000000
0.275143 -1.265745 1.972250 0.000000 0.000000 0.000000
0.149714 -1.228990 1.851548 0.000000 0.000000 0.000000
0.145237 -1.227205 1.850940 0.000000 0.000000 0.000000
0.163154 -1.224631 1.847322 0.000000 0.000000 0.000000
0.181331 -1.223345 1.840380 0.000000 0.000000 0.000000
0.093443 -1.290347 1.933896 0.000000 0.000000 0.000000
0.253806 -1.276203 1.968360 0.000000 0.000000 0.000000
0.236495 -1.264508 1.928757 0.000000 0.000000 0.000000
0.178281 -1.209715 1.831379 0.000000 0.000000 0.000000
0.134436 -1.154343 1.806517 0.000000 0.000000 0.000000
0.105314 -1.287718 1.931883 0.000000 0.000000 0.000000
0.296886 -1.242202 1.897535 0.000000 0.000000 0.000000
0.300629 -1.238871 1.894920 0.000000 0.000000 0.000000
0.278612 -1.251434 1.904495 0.000000 0.000000 0.000000
0.274790 -1.238120 1.884793 0.000000 0.000000 0.000000
0.109414 -1.264968 1.893490 0.000000 0.000000 0.000000
0.188501 -1.234040 1.852693 0.000000 0.000000 0.000000
0.160397 -1.226176 1.854137 0.000000 0.000000 0.000000
0.105991 -1.293852 1.964040 0.000000 0.000000 0.000000
0.100166 -1.281806 1.918394 0.000000 0.000000 0.000000
0.337933 -1.195480 1.883387 0.000000 0.000000 0.000000
0.275714 -1.262620 1.971195 0.000000 0.000000 0.000000
0.151906 -1.216112 1.847418 0.000000 0.000000 0.000000
0.170392 -1.237647 1.859598 0.000000 0.000000 0.000000
0.095283 -1.285677 1.921549 0.000000 0.000000 0.000000
0.254296 -1.273144 1.975559 0.000000 0.000000 0.000000
0.243361 -1.274850 1.951693 0.000000 0.000000 0.000000
0.268459 -1.274777 1.973344 0.000000 0.000000 0.000000
0.228069 -1.215540 1.861378 0.000000 0.000000 0.000000
0.114294 -1.307407 2.002967 0.000000 0.000000 0.000000
0.280133 -1.261720 1.991583 0.000000 0.000000 0.000000
0.213293 -1.279564 1.999401 0.000000 0.000000 0.000000
0.093478 -1.284084 1.919571 0.000000 0.000000 0.000000
0.213914 -1.276464 2.000828 0.000000 0.000000 0.000000
0.164881 -1.126434 1.779963 0.000000 0.000000 0.000000
0.340617 -1.220722 1.958902 0.000000 0.000000 0.000000
0.153973 -1.132506 1.780795 0.000000 0.000000 0.000000
0.249647 -1.265064 1.980889 0.000000 0.000000 0.000000
0.292608 -1.269110 1.930789 0.000000 0.000000 0.000000
0.300186 -1.157329 1.854189 0.000000 0.000000 0.000000
0.183750 -1.142747 1.789284 0.000000 0.000000 0.000000
0.135427 -1.157851 1.778840 0.000000 0.000000 0.000000
0.107901 -1.225811 1.903500 0.000000 0.000000 0.000000
0.091416 -1.291939 1.932510 0.000000 0.000000 0.000000
0.095796 -1.288720 1.957443 0.000000 0.000000 0.000000
0.151251 -1.135394 1.792215 0.000000 0.000000 0.000000
0.349520 -1.202800 1.953408 0.000000 0.000000 0.000000
0.160980 -1.133231 1.780334 0.000000 0.000000 0.000000
0.282734 -1.256734 1.977270 0.000000 0.000000 0.000000
0.279815 -1.269904 1.945050 0.000000 0.000000 0.000000
0.189338 -1.151226 1.818270 0.000000 0.000000 0.000000
0.109673 -1.221447 1.896524 0.000000 0.000000 0.000000
0.095893 -1.286964 1.952233 0.000000 0.000000 0.000000
0.166527 -1.301153 2.012532 0.000000 0.000000 0.000000
0.108288 -1.307598 1.996719 0.000000 0.000000 0.000000
0.113510 -1.314524 2.003628 0.000000 0.000000 0.000000
0.153415 -1.296365 2.004765 0.000000 0.000000 0.000000
0.104175 -1.307567 2.000131 0.000000 0.000000 0.000000
0.163483 -1.296039 2.008086 0.000000 0.000000 0.000000
0.159599 -1.129841 1.786854 0.000000 0.000000 0.000000
0.158143 -1.129321 1.781983 0.000000 0.000000 0.000000
0.150728 -1.310402 2.005903 0.000000 0.000000 0.000000
0.168738 -1.295788 2.001016 0.000000 0.000000 0.000000
0.099838 -1.312996 2.002560 0.000000 0.000000 0.000000
0.156008 -1.291456 2.013624 0.000000 0.000000 0.000000
0.120598 -1.310184 1.996413 0.000000 0.000000 0.000000
0.093361 -1.275687 1.963645 0.000000 0.000000 0.000000
0.146914 -1.302253 1.995785 0.000000 0.000000 0.000000
0.170070 -1.295688 2.006730 0.000000 0.000000 0.000000
0.157973 -1.287459 2.014615 0.000000 0.000000 0.000000
0.153598 -1.302417 2.006484 0.000000 0.000000 0.000000
0.126766 -1.307974 1.997742 0.000000 0.000000 0.000000
0.141491 -1.296564 2.009013 0.000000 0.000000 0.000000
0.095240 -1.285537 1.970739 0.000000 0.000000 0.000000
0.137758 -1.143060 1.805948 0.000000 0.000000 0.000000
0.103555 -1.323520 2.007768 0.000000 0.000000 0.000000
0.259729 -1.251318 1.986879 0.000000 0.000000 0.000000
0.160047 -1.131856 1.783746 0.000000 0.000000 0.000000
0.109439 -1.322104 2.000862 0.000000 0.000000 0.000000
0.090225 -1.304027 1.971239 0.000000 0.000000 0.000000
0.105880 -1.324255 2.005426 0.000000 0.000000 0.000000
0.109847 -1.310668 2.004927 0.000000 0.000000 0.000000
0.102544 -1.325499 2.003520 0.000000 0.000000 0.000000
0.109072 -1.218567 1.884585 0.000000 0.000000 0.000000
0.177566 -1.304184 1.964440 0.000000 0.000000 0.000000
0.138781 -1.152824 1.846677 0.000000 0.000000 0.000000
0.136618 -1.157891 1.840102 0.000000 0.000000 0.000000
0.136132 -1.155398 1.842628 0.000000 0.000000 0.000000
0.104601 -1.315770 2.009061 0.000000 0.000000 0.000000
0.129586 -1.306710 1.948333 0.000000 0.000000 0.000000
0.111188 -1.230635 1.897924 0.000000 0.000000 0.000000
0.136546 -1.158734 1.859057 0.000000 0.000000 0.000000
0.137434 -1.156277 1.837920 0.000000 0.000000 0.000000
0.135687 -1.161115 1.854358 0.000000 0.000000 0.000000
0.094646 -1.286781 1.971628 0.000000 0.000000 0.000000
0.157421 -1.128979 1.778914 0.000000 0.000000 0.000000
0.118110 -1.177410 1.864062 0.000000 0.000000 0.000000
0.329101 -1.239927 1.958178 0.000000 0.000000 0.000000
0.156809 -1.130260 1.782500 0.000000 0.000000 0.000000
0.306348 -1.234667 1.955273 0.000000 0.000000 0.000000
0.157293 -1.231283 1.854512 0.000000 0.000000 0.000000
0.108478 -1.317545 1.999238 0.000000 0.000000 0.000000
0.352673 -1.201236 1.959894 0.000000 0.000000 0.000000
0.359988 -1.204569 1.964678 0.000000 0.000000 0.000000
0.172505 -1.201920 1.824104 0.000000 0.000000 0.000000
0.141713 -1.140599 1.817890 0.000000 0.000000 0.000000
0.270275 -1.258832 1.945702 0.000000 0.000000 0.000000
0.314369 -1.237900 1.946627 0.000000 0.000000 0.000000
0.153917 -1.131610 1.784196 0.000000 0.000000 0.000000
0.354776 -1.183057 1.947654 0.000000 0.000000 0.000000
0.302698 -1.250279 1.953695 0.000000 0.000000 0.000000
0.296706 -1.250227 1.946942 0.000000 0.000000 0.000000
0.179551 -1.209242 1.826995 0.000000 0.000000 0.000000
0.165811 -1.124469 1.783142 0.000000 0.000000 0.000000
0.303296 -1.251087 1.958810 0.000000 0.000000 0.000000
0.316475 -1.251722 1.953116 0.000000 0.000000 0.000000
0.162158 -1.190488 1.808363 0.000000 0.000000 0.000000
0.184755 -1.194479 1.816672 0.000000 0.000000 0.000000
0.190599 -1.189896 1.815719 0.000000 0.000000 0.000000
0.149164 -1.225001 1.847911 0.000000 0.000000 0.000000
0.143620 -1.232349 1.857584 0.000000 0.000000 0.000000
0.143918 -1.134356 1.788877 0.000000 0.000000 0.000000
0.358427 -1.202198 1.972656 0.000000 0.000000 0.000000
0.358308 -1.192771 1.959121 0.000000 0.000000 0.000000
0.357341 -1.195675 1.959313 0.000000 0.000000 0.000000
0.145787 -1.137984 1.803697 0.000000 0.000000 0.000000
0.282525 -1.245333 1.950540 0.000000 0.000000 0.000000
0.159399 -1.127923 1.781425 0.000000 0.000000 0.000000
0.300220 -1.249742 1.952710 0.000000 0.000000 0.000000
0.301100 -1.252196 1.953473 0.000000 0.000000 0.000000
0.119457 -1.169907 1.865860 0.000000 0.000000 0.000000
0.148458 -1.219843 1.844208 0.000000 0.000000 0.000000
0.159483 -1.129857 1.790544 0.000000 0.000000 0.000000
0.312304 -1.252291 1.958137 0.000000 0.000000 0.000000
0.146376 -1.220085 1.844540 0.000000 0.000000 0.000000
0.165597 -1.194723 1.817484 0.000000 0.000000 0.000000
0.177029 -1.192656 1.817658 0.000000 0.000000 0.000000
0.126548 -1.181066 1.824845 0.000000 0.000000 0.000000
0.176644 -1.194429 1.811149 0.000000 0.000000 0.000000
0.145962 -1.229699 1.845614 0.000000 0.000000 0.000000
0.163420 -1.219044 1.842520 0.000000 0.000000 0.000000
0.136813 -1.313944 2.011237 0.000000 0.000000 0.000000
0.115833 -1.186197 1.877539 0.000000 0.000000 0.000000
0.294098 -1.246608 1.972177 0.000000 0.000000 0.000000
0.121205 -1.188617 1.869729 0.000000 0.000000 0.000000
0.350938 -1.196475 1.902430 0.000000 0.000000 0.000000
0.292101 -1.245275 1.960496 0.000000 0.000000 0.000000
0.342739 -1.231154 1.960824 0.000000 0.000000 0.000000
0.116981 -1.176561 1.873061 0.000000 0.000000 0.000000
0.286370 -1.257004 1.980295 0.000000 0.000000 0.000000
0.123905 -1.183183 1.877813 0.000000 0.000000 0.000000
0.116637 -1.193093 1.873627 0.000000 0.000000 0.000000
0.181308 -1.302312 1.989077 0.000000 0.000000 0.000000
0.351315 -1.209899 1.923223 0.000000 0.000000 0.000000
0.115636 -1.176647 1.868806 0.000000 0.000000 0.000000
0.294446 -1.248027 1.964003 0.000000 0.000000 0.000000
0.295704 -1.258008 1.973413 0.000000 0.000000 0.000000
0.212931 -1.276278 2.001323 0.000000 0.000000 0.000000
0.216775 -1.276069 2.000128 0.000000 0.000000 0.000000
0.150163 -1.312794 2.010483 0.000000 0.000000 0.000000
0.156664 -1.301850 2.000692 0.000000 0.000000 0.000000
0.154678 -1.302667 2.008954 0.000000 0.000000 0.000000
0.285670 -1.252655 1.977517 0.000000 0.000000 0.000000
0.096754 -1.286555 1.979325 0.000000 0.000000 0.000000
0.199149 -1.235015 1.857193 0.000000 0.000000 0.000000
0.154412 -1.307243 2.001987 0.000000 0.000000 0.000000
0.273077 -1.243081 1.966528 0.000000 0.000000 0.000000
0.194354 -1.242440 1.869906 0.000000 0.000000 0.000000
0.094533 -1.290056 1.971894 0.000000 0.000000 0.000000
0.328583 -1.246226 1.962470 0.000000 0.000000 0.000000
0.313326 -1.258213 1.911487 0.000000 0.000000 0.000000
0.089850 -1.286768 1.972250 0.000000 0.000000 0.000000
0.358874 -1.211887 1.965649 0.000000 0.000000 0.000000
0.124228 -1.301972 1.946343 0.000000 0.000000 0.000000
0.226695 -1.238775 1.857194 0.000000 0.000000 0.000000
0.105563 -1.281886 1.919283 0.000000 0.000000 0.000000
0.095303 -1.292488 1.933347 0.000000 0.000000 0.000000
0.103373 -1.284274 1.920365 0.000000 0.000000 0.000000
0.130171 -1.271173 1.911363 0.000000 0.000000 0.000000
0.093935 -1.279426 1.917870 0.000000 0.000000 0.000000
0.091912 -1.291662 1.977893 0.000000 0.000000 0.000000
0.106553 -1.284421 1.924165 0.000000 0.000000 0.000000
0.092166 -1.289334 1.977933 0.000000 0.000000 0.000000
0.095998 -1.274867 1.915980 0.000000 0.000000 0.000000
0.341038 -1.216797 1.961409 0.000000 0.000000 0.000000
0.245708 -1.276254 1.962565 0.000000 0.000000 0.000000
0.212270 -1.234526 1.848916 0.000000 0.000000 0.000000
0.318363 -1.259327 1.964982 0.000000 0.000000 0.000000
0.250739 -1.277084 1.964361 0.000000 0.000000 0.000000
0.355392 -1.210755 1.970913 0.000000 0.000000 0.000000
0.313815 -1.270048 1.918223 0.000000 0.000000 0.000000
0.098412 -1.287277 1.931559 0.000000 0.000000 0.000000
0.107411 -1.279710 1.915578 0.000000 0.000000 0.000000
0.093123 -1.287726 1.932492 0.000000 0.000000 0.000000
0.098566 -1.283671 1.918868 0.000000 0.000000 0.000000
0.125590 -1.300892 1.955587 0.000000 0.000000 0.000000
0.093349 -1.284700 1.923435 0.000000 0.000000 0.000000
0.093088 -1.287686 1.941329 0.000000 0.000000 0.000000
0.095682 -1.322181 1.992647 0.000000 0.000000 0.000000
0.105451 -1.274886 1.905457 0.000000 0.000000 0.000000
0.095060 -1.280128 1.914901 0.000000 0.000000 0.000000
0.122099 -1.276613 1.904220 0.000000 0.000000 0.000000
0.094172 -1.282295 1.922349 0.000000 0.000000 0.000000
0.103160 -1.275151 1.907736 0.000000 0.000000 0.000000
0.097047 -1.286962 1.942440 0.000000 0.000000 0.000000
0.354073 -1.219741 1.968354 0.000000 0.000000 0.000000
0.256876 -1.275025 1.959719 0.000000 0.000000 0.000000
0.228207 -1.270453 1.995550 0.000000 0.000000 0.000000
0.209462 -1.219752 1.834749 0.000000 0.000000 0.000000
0.316485 -1.256409 1.961466 0.000000 0.000000 0.000000
0.205166 -1.227788 1.840313 0.000000 0.000000 0.000000
0.257970 -1.270936 1.956267 0.000000 0.000000 0.000000
0.354936 -1.231163 1.957914 0.000000 0.000000 0.000000
0.356878 -1.205148 1.966258 0.000000 0.000000 0.000000
0.350282 -1.211495 1.959334 0.000000 0.000000 0.000000
0.311086 -1.252139 1.902382 0.000000 0.000000 0.000000
0.097906 -1.286384 1.924838 0.000000 0.000000 0.000000
0.095773 -1.273878 1.903557 0.000000 0.000000 0.000000
0.094102 -1.281144 1.924275 0.000000 0.000000 0.000000
0.105775 -1.279768 1.915094 0.000000 0.000000 0.000000
0.355671 -1.233502 1.956560 0.000000 0.000000 0.000000
0.098344 -1.326094 1.995528 0.000000 0.000000 0.000000
0.112601 -1.311543 1.999262 0.000000 0.000000 0.000000
0.164162 -1.292320 2.006966 0.000000 0.000000 0.000000
0.099183 -1.327710 1.998012 0.000000 0.000000 0.000000
0.343316 -1.234054 1.961829 0.000000 0.000000 0.000000
0.359476 -1.223696 1.964173 0.000000 0.000000 0.000000
0.347275 -1.213047 1.912311 0.000000 0.000000 0.000000
0.168403 -1.292885 2.004456 0.000000 0.000000 0.000000
0.357978 -1.228942 1.959286 0.000000 0.000000 0.000000
0.090289 -1.289714 1.958567 0.000000 0.000000 0.000000
0.133130 -1.162664 1.797444 0.000000 0.000000 0.000000
0.352514 -1.228946 1.954998 0.000000 0.000000 0.000000
0.079944 -1.296065 1.963483 0.000000 0.000000 0.000000
0.103292 -1.328167 2.002753 0.000000 0.000000 0.000000
0.110866 -1.327978 2.004203 0.000000 0.000000 0.000000
0.118999 -1.256995 1.880165 0.000000 0.000000 0.000000
0.093104 -1.275633 1.905821 0.000000 0.000000 0.000000
0.109886 -1.326645 2.006275 0.000000 0.000000 0.000000
0.139901 -1.144095 1.792949 0.000000 0.000000 0.000000
0.082139 -1.288731 1.960908 0.000000 0.000000 0.000000
0.315961 -1.263802 1.944824 0.000000 0.000000 0.000000
0.107120 -1.264507 1.886143 0.000000 0.000000 0.000000
0.118884 -1.258636 1.884438 0.000000 0.000000 0.000000
0.093334 -1.272886 1.905807 0.000000 0.000000 0.000000
0.091854 -1.277822 1.912089 0.000000 0.000000 0.000000
0.104448 -1.260602 1.889048 0.000000 0.000000 0.000000
0.104656 -1.261873 1.883574 0.000000 0.000000 0.000000
0.131239 -1.160339 1.817422 0.000000 0.000000 0.000000
0.106798 -1.255431 1.896984 0.000000 0.000000 0.000000
0.094252 -1.289628 1.930486 0.000000 0.000000 0.000000
0.139677 -1.140151 1.778756 0.000000 0.000000 0.000000
0.311429 -1.258992 1.948718 0.000000 0.000000 0.000000
0.113650 -1.263917 1.890071 0.000000 0.000000 0.000000
0.113817 -1.255646 1.877864 0.000000 0.000000 0.000000
0.105429 -1.267727 1.916227 0.000000 0.000000 0.000000
0.093470 -1.288299 1.927061 0.000000 0.000000 0.000000
0.106566 -1.255725 1.879873 0.000000 0.000000 0.000000
0.105323 -1.256153 1.878724 0.000000 0.000000 0.000000
0.131145 -1.159496 1.809300 0.000000 0.000000 0.000000
0.110663 -1.250648 1.885073 0.000000 0.000000 0.000000
0.092712 -1.276628 1.914483 0.000000 0.000000 0.000000
0.218926 -1.275545 1.992165 0.000000 0.000000 0.000000
0.213495 -1.273057 1.993536 0.000000 0.000000 0.000000
0.112335 -1.214137 1.883931 0.000000 0.000000 0.000000
0.116056 -1.203339 1.879607 0.000000 0.000000 0.000000
0.233034 -1.261179 1.995252 0.000000 0.000000 0.000000
0.079485 -1.297334 1.973966 0.000000 0.000000 0.000000
0.133058 -1.248459 1.941052 0.000000 0.000000 0.000000
0.134394 -1.288943 1.931107 0.000000 0.000000 0.000000
0.117023 -1.202192 1.876324 0.000000 0.000000 0.000000
0.111116 -1.220641 1.889054 0.000000 0.000000 0.000000
0.123476 -1.189290 1.873560 0.000000 0.000000 0.000000
0.115984 -1.194899 1.880348 0.000000 0.000000 0.000000
0.112822 -1.190602 1.877564 0.000000 0.000000 0.000000
0.116301 -1.198274 1.882736 0.000000 0.000000 0.000000
0.112239 -1.197495 1.879535 0.000000 0.000000 0.000000
0.199199 -1.300363 1.967242 0.000000 0.000000 0.000000
0.116290 -1.203701 1.887367 0.000000 0.000000 0.000000
0.114879 -1.201856 1.880664 0.000000 0.000000 0.000000
0.106904 -1.217072 1.882927 0.000000 0.000000 0.000000
0.120945 -1.186158 1.875201 0.000000 0.000000 0.000000
0.130635 -1.155981 1.846489 0.000000 0.000000 0.000000
0.184312 -1.271918 1.969328 0.000000 0.000000 0.000000
0.112576 -1.292181 1.927631 0.000000 0.000000 0.000000
0.127552 -1.294804 1.923291 0.000000 0.000000 0.000000
0.233019 -1.276621 1.977724 0.000000 0.000000 0.000000
0.129487 -1.301377 1.951250 0.000000 0.000000 0.000000
0.123610 -1.286066 1.932507 0.000000 0.000000 0.000000
0.190987 -1.301179 1.962743 0.000000 0.000000 0.000000
0.101307 -1.297530 1.988664 0.000000 0.000000 0.000000
0.101424 -1.277671 1.910968 0.000000 0.000000 0.000000
0.141454 -1.244496 1.928328 0.000000 0.000000 0.000000
0.122222 -1.297967 1.942518 0.000000 0.000000 0.000000
0.118698 -1.210728 1.895497 0.000000 0.000000 0.000000
0.114640 -1.198939 1.875636 0.000000 0.000000 0.000000
0.115468 -1.203853 1.871638 0.000000 0.000000 0.000000
0.127759 -1.178497 1.867443 0.000000 0.000000 0.000000
0.123610 -1.193308 1.880512 0.000000 0.000000 0.000000
0.109905 -1.192540 1.877089 0.000000 0.000000 0.000000
0.123838 -1.192341 1.884905 0.000000 0.000000 0.000000
0.112058 -1.199079 1.878431 0.000000 0.000000 0.000000
0.182516 -1.305549 1.969687 0.000000 0.000000 0.000000
0.123129 -1.204957 1.893319 0.000000 0.000000 0.000000
0.117865 -1.199347 1.883802 0.000000 0.000000 0.000000
0.110151 -1.200406 1.877015 0.000000 0.000000 0.000000
0.120692 -1.189709 1.874856 0.000000 0.000000 0.000000
0.126179 -1.167839 1.861020 0.000000 0.000000 0.000000
0.194505 -1.264865 1.972019 0.000000 0.000000 0.000000
0.108081 -1.296558 1.932618 0.000000 0.000000 0.000000
0.111172 -1.300786 1.935335 0.000000 0.000000 0.000000
0.221322 -1.276166 1.988237 0.000000 0.000000 0.000000
0.130069 -1.298557 1.944740 0.000000 0.000000 0.000000
0.120063 -1.295955 1.943564 0.000000 0.000000 0.000000
0.214663 -1.292643 1.961587 0.000000 0.000000 0.000000
0.098869 -1.290909 1.981945 0.000000 0.000000 0.000000
0.112613 -1.286667 1.916652 0.000000 0.000000 0.000000
0.087851 -1.314986 1.997333 0.000000 0.000000 0.000000
0.264238 -1.264783 1.989882 0.000000 0.000000 0.000000
0.180892 -1.289382 2.010088 0.000000 0.000000 0.000000
0.168292 -1.293857 2.015412 0.000000 0.000000 0.000000
0.169891 -1.287751 2.018236 0.000000 0.000000 0.000000
0.263989 -1.269276 1.985630 0.000000 0.000000 0.000000
0.177804 -1.301731 2.003963 0.000000 0.000000 0.000000
0.344383 -1.162207 1.862141 0.000000 0.000000 0.000000
0.262017 -1.265044 1.989446 0.000000 0.000000 0.000000
0.353231 -1.172851 1.863768 0.000000 0.000000 0.000000
0.277861 -1.257670 1.978207 0.000000 0.000000 0.000000
0.169072 -1.167434 1.810471 0.000000 0.000000 0.000000
0.178979 -1.288773 2.012749 0.000000 0.000000 0.000000
0.164133 -1.161960 1.828161 0.000000 0.000000 0.000000
0.182759 -1.301965 1.999964 0.000000 0.000000 0.000000
0.261589 -1.264604 1.973500 0.000000 0.000000 0.000000
0.179880 -1.150697 1.809481 0.000000 0.000000 0.000000
0.206813 -1.289227 2.010037 0.000000 0.000000 0.000000
0.274805 -1.269487 1.984240 0.000000 0.000000 0.000000
0.278020 -1.260695 1.985522 0.000000 0.000000 0.000000
0.354714 -1.176912 1.869106 0.000000 0.000000 0.000000
0.163861 -1.297447 2.006529 0.000000 0.000000 0.000000
0.145429 -1.306322 2.011563 0.000000 0.000000 0.000000
0.157684 -1.295764 2.006311 0.000000 0.000000 0.000000
0.178745 -1.162535 1.812441 0.000000 0.000000 0.000000
0.191582 -1.293570 2.011452 0.000000 0.000000 0.000000
0.180812 -1.168464 1.823240 0.000000 0.000000 0.000000
0.184605 -1.297371 1.994275 0.000000 0.000000 0.000000
0.156813 -1.165163 1.823876 0.000000 0.000000 0.000000
0.187391 -1.292668 2.013071 0.000000 0.000000 0.000000
0.269381 -1.260925 1.987698 0.000000 0.000000 0.000000
0.328991 -1.165415 1.866135 0.000000 0.000000 0.000000
0.172877 -1.291312 2.006388 0.000000 0.000000 0.000000
0.154629 -1.293470 2.003605 0.000000 0.000000 0.000000
0.154089 -1.296286 1.995394 0.000000 0.000000 0.000000
0.162544 -1.293369 2.004327 0.000000 0.000000 0.000000
0.164662 -1.295390 1.998314 0.000000 0.000000 0.000000
0.141145 -1.294855 1.998369 0.000000 0.000000 0.000000
0.145750 -1.304889 2.000852 0.000000 0.000000 0.000000
0.199535 -1.292091 2.010070 0.000000 0.000000 0.000000
0.152568 -1.300316 2.009102 0.000000 0.000000 0.000000
0.154104 -1.306305 2.016033 0.000000 0.000000 0.000000
0.150064 -1.308212 2.008758 0.000000 0.000000 0.000000
0.149951 -1.307439 2.010818 0.000000 0.000000 0.000000
0.136740 -1.149610 1.788725 0.000000 0.000000 0.000000
0.149632 -1.295516 1.997137 0.000000 0.000000 0.000000
0.245942 -1.267252 1.987887 0.000000 0.000000 0.000000
0.139407 -1.145758 1.788686 0.000000 0.000000 0.000000
0.224785 -1.265590 2.000573 0.000000 0.000000 0.000000
0.115127 -1.295075 1.983098 0.000000 0.000000 0.000000
0.256177 -1.265266 1.987822 0.000000 0.000000 0.000000
0.139500 -1.144191 1.798350 0.000000 0.000000 0.000000
0.107626 -1.328360 1.997545 0.000000 0.000000 0.000000
0.115907 -1.173097 1.864322 0.000000 0.000000 0.000000
0.196398 -1.197795 1.817233 0.000000 0.000000 0.000000
0.335468 -1.191501 1.937225 0.000000 0.000000 0.000000
0.338080 -1.216606 1.964469 0.000000 0.000000 0.000000
0.250178 -1.253043 1.992674 0.000000 0.000000 0.000000
0.181688 -1.204051 1.820700 0.000000 0.000000 0.000000
0.183380 -1.197500 1.810142 0.000000 0.000000 0.000000
0.268217 -1.267828 1.989488 0.000000 0.000000 0.000000
0.344763 -1.202186 1.951434 0.000000 0.000000 0.000000
0.343775 -1.202615 1.961410 0.000000 0.000000 0.000000
0.183661 -1.182307 1.808728 0.000000 0.000000 0.000000
0.255755 -1.252869 1.989951 0.000000 0.000000 0.000000
0.179410 -1.209503 1.829299 0.000000 0.000000 0.000000
0.195639 -1.190430 1.822748 0.000000 0.000000 0.000000
0.185275 -1.193643 1.822920 0.000000 0.000000 0.000000
0.197502 -1.200952 1.825611 0.000000 0.000000 0.000000
0.271261 -1.264729 1.989519 0.000000 0.000000 0.000000
