ply
format ascii 1.0
comment VCGLIB generated
obj_info Generated by SPFormer!
element vertex 868
property float x
property float y
property float z
property float nx
property float ny
property float nz
end_header
0.968729 -0.355784 1.850497 0.000000 0.000000 0.000000
0.959052 -0.345223 1.828154 0.000000 0.000000 0.000000
0.963669 -0.327017 1.826396 0.000000 0.000000 0.000000
0.972635 -0.376127 1.850715 0.000000 0.000000 0.000000
0.962290 -0.333672 1.837081 0.000000 0.000000 0.000000
0.967942 -0.368534 1.846572 0.000000 0.000000 0.000000
0.965862 -0.345181 1.838038 0.000000 0.000000 0.000000
1.039784 -0.554019 1.836016 0.000000 0.000000 0.000000
0.897973 -0.205484 1.673695 0.000000 0.000000 0.000000
1.029105 -0.423639 1.609213 0.000000 0.000000 0.000000
1.041344 -0.572793 1.779253 0.000000 0.000000 0.000000
0.941537 -0.274050 1.528375 0.000000 0.000000 0.000000
0.984231 -0.346464 1.446122 0.000000 0.000000 0.000000
0.902261 -0.217606 1.601481 0.000000 0.000000 0.000000
0.893835 -0.213453 1.614946 0.000000 0.000000 0.000000
0.899080 -0.199256 1.633158 0.000000 0.000000 0.000000
1.097713 -0.716422 1.695136 0.000000 0.000000 0.000000
0.896820 -0.226142 1.592066 0.000000 0.000000 0.000000
0.966660 -0.312023 1.502993 0.000000 0.000000 0.000000
0.949000 -0.264196 1.558095 0.000000 0.000000 0.000000
1.045936 -0.600501 1.777614 0.000000 0.000000 0.000000
1.014144 -0.569026 1.830813 0.000000 0.000000 0.000000
1.066022 -0.478520 1.500440 0.000000 0.000000 0.000000
0.945917 -0.284596 1.485578 0.000000 0.000000 0.000000
1.037781 -0.506199 1.709696 0.000000 0.000000 0.000000
1.025009 -0.606400 1.814745 0.000000 0.000000 0.000000
0.995198 -0.343489 1.438110 0.000000 0.000000 0.000000
0.914962 -0.227208 1.555795 0.000000 0.000000 0.000000
1.010593 -0.527401 1.844171 0.000000 0.000000 0.000000
0.976932 -0.374869 1.726699 0.000000 0.000000 0.000000
0.970296 -0.264048 1.586955 0.000000 0.000000 0.000000
0.991356 -0.346236 1.575811 0.000000 0.000000 0.000000
0.945397 -0.304470 1.620556 0.000000 0.000000 0.000000
0.927676 -0.249105 1.538240 0.000000 0.000000 0.000000
1.028290 -0.430862 1.453645 0.000000 0.000000 0.000000
1.103622 -0.603240 1.656255 0.000000 0.000000 0.000000
1.112564 -0.699042 1.679852 0.000000 0.000000 0.000000
0.964988 -0.299592 1.515570 0.000000 0.000000 0.000000
0.986055 -0.349955 1.589858 0.000000 0.000000 0.000000
0.979038 -0.337245 1.521490 0.000000 0.000000 0.000000
1.080924 -0.774480 1.782310 0.000000 0.000000 0.000000
0.960857 -0.301389 1.480756 0.000000 0.000000 0.000000
1.054959 -0.669478 1.815468 0.000000 0.000000 0.000000
1.112254 -0.564464 1.528625 0.000000 0.000000 0.000000
0.872838 -0.196015 1.597680 0.000000 0.000000 0.000000
1.009729 -0.596040 1.837441 0.000000 0.000000 0.000000
1.118147 -0.683703 1.700545 0.000000 0.000000 0.000000
0.913811 -0.230278 1.556537 0.000000 0.000000 0.000000
1.012825 -0.539965 1.821353 0.000000 0.000000 0.000000
1.041018 -0.465058 1.458021 0.000000 0.000000 0.000000
1.081885 -0.742166 1.784020 0.000000 0.000000 0.000000
1.031773 -0.452890 1.443935 0.000000 0.000000 0.000000
1.010930 -0.575433 1.826128 0.000000 0.000000 0.000000
0.962079 -0.362743 1.798576 0.000000 0.000000 0.000000
0.968382 -0.313689 1.487520 0.000000 0.000000 0.000000
1.021143 -0.573097 1.804380 0.000000 0.000000 0.000000
1.015478 -0.408043 1.448984 0.000000 0.000000 0.000000
1.101207 -0.569609 1.544293 0.000000 0.000000 0.000000
0.890140 -0.192997 1.584498 0.000000 0.000000 0.000000
1.083200 -0.716034 1.809037 0.000000 0.000000 0.000000
0.998999 -0.376426 1.444597 0.000000 0.000000 0.000000
1.092312 -0.734235 1.770437 0.000000 0.000000 0.000000
0.892325 -0.211562 1.617593 0.000000 0.000000 0.000000
0.886339 -0.184012 1.612723 0.000000 0.000000 0.000000
0.925688 -0.229762 1.543198 0.000000 0.000000 0.000000
1.064904 -0.777791 1.799828 0.000000 0.000000 0.000000
1.068812 -0.672613 1.826830 0.000000 0.000000 0.000000
0.957724 -0.294798 1.480242 0.000000 0.000000 0.000000
0.878619 -0.203528 1.597217 0.000000 0.000000 0.000000
0.990627 -0.359237 1.461879 0.000000 0.000000 0.000000
0.877116 -0.201951 1.610690 0.000000 0.000000 0.000000
1.091632 -0.754345 1.768112 0.000000 0.000000 0.000000
1.002442 -0.369556 1.429545 0.000000 0.000000 0.000000
1.006847 -0.378344 1.418341 0.000000 0.000000 0.000000
1.071607 -0.777447 1.794060 0.000000 0.000000 0.000000
1.031431 -0.444330 1.458896 0.000000 0.000000 0.000000
0.949896 -0.278490 1.511566 0.000000 0.000000 0.000000
0.896881 -0.232726 1.615516 0.000000 0.000000 0.000000
1.008383 -0.391638 1.415375 0.000000 0.000000 0.000000
1.120152 -0.580830 1.603676 0.000000 0.000000 0.000000
1.052073 -0.475136 1.464973 0.000000 0.000000 0.000000
0.994618 -0.358437 1.426683 0.000000 0.000000 0.000000
1.019213 -0.424985 1.451404 0.000000 0.000000 0.000000
1.010814 -0.475644 1.843957 0.000000 0.000000 0.000000
1.005568 -0.470645 1.834187 0.000000 0.000000 0.000000
1.003458 -0.402820 1.428950 0.000000 0.000000 0.000000
1.105697 -0.642587 1.652645 0.000000 0.000000 0.000000
0.878318 -0.188197 1.576405 0.000000 0.000000 0.000000
0.944983 -0.267466 1.515713 0.000000 0.000000 0.000000
0.969325 -0.364438 1.667222 0.000000 0.000000 0.000000
0.952247 -0.285432 1.514569 0.000000 0.000000 0.000000
1.083626 -0.670315 1.805458 0.000000 0.000000 0.000000
0.996729 -0.363636 1.435925 0.000000 0.000000 0.000000
1.086758 -0.764071 1.778761 0.000000 0.000000 0.000000
0.953521 -0.286698 1.480243 0.000000 0.000000 0.000000
1.118934 -0.631511 1.612289 0.000000 0.000000 0.000000
1.128029 -0.582757 1.551949 0.000000 0.000000 0.000000
1.088588 -0.770199 1.769170 0.000000 0.000000 0.000000
0.926743 -0.241485 1.531929 0.000000 0.000000 0.000000
0.999523 -0.378249 1.433195 0.000000 0.000000 0.000000
1.006013 -0.387495 1.443808 0.000000 0.000000 0.000000
0.990119 -0.338150 1.427702 0.000000 0.000000 0.000000
1.081588 -0.787442 1.782285 0.000000 0.000000 0.000000
1.081288 -0.534568 1.518508 0.000000 0.000000 0.000000
0.957000 -0.292463 1.484957 0.000000 0.000000 0.000000
0.909730 -0.218088 1.555490 0.000000 0.000000 0.000000
1.071069 -0.786553 1.796751 0.000000 0.000000 0.000000
1.128540 -0.643448 1.609649 0.000000 0.000000 0.000000
1.079537 -0.776335 1.773127 0.000000 0.000000 0.000000
1.132277 -0.620250 1.618108 0.000000 0.000000 0.000000
1.004026 -0.390744 1.433942 0.000000 0.000000 0.000000
1.011899 -0.399368 1.428231 0.000000 0.000000 0.000000
1.113626 -0.744489 1.696414 0.000000 0.000000 0.000000
1.120208 -0.585912 1.573620 0.000000 0.000000 0.000000
1.002983 -0.366269 1.420514 0.000000 0.000000 0.000000
1.047971 -0.585564 1.761911 0.000000 0.000000 0.000000
1.052824 -0.661793 1.817080 0.000000 0.000000 0.000000
1.083632 -0.756577 1.799336 0.000000 0.000000 0.000000
1.010355 -0.394936 1.421419 0.000000 0.000000 0.000000
1.006500 -0.373198 1.432932 0.000000 0.000000 0.000000
0.930297 -0.244238 1.498541 0.000000 0.000000 0.000000
1.052713 -0.619535 1.786215 0.000000 0.000000 0.000000
0.951870 -0.286742 1.555748 0.000000 0.000000 0.000000
0.928630 -0.259332 1.492410 0.000000 0.000000 0.000000
1.108638 -0.691611 1.707488 0.000000 0.000000 0.000000
1.047343 -0.665350 1.828659 0.000000 0.000000 0.000000
0.960211 -0.288549 1.476093 0.000000 0.000000 0.000000
0.931695 -0.250575 1.493191 0.000000 0.000000 0.000000
0.880815 -0.194237 1.620057 0.000000 0.000000 0.000000
0.932998 -0.269943 1.487857 0.000000 0.000000 0.000000
0.955826 -0.283995 1.456004 0.000000 0.000000 0.000000
0.951292 -0.282407 1.488129 0.000000 0.000000 0.000000
0.935914 -0.248653 1.515635 0.000000 0.000000 0.000000
0.941551 -0.262708 1.492725 0.000000 0.000000 0.000000
0.954054 -0.284239 1.504446 0.000000 0.000000 0.000000
1.103924 -0.728473 1.710361 0.000000 0.000000 0.000000
1.010000 -0.529732 1.844051 0.000000 0.000000 0.000000
0.892401 -0.217501 1.650804 0.000000 0.000000 0.000000
0.861683 -0.187292 1.591259 0.000000 0.000000 0.000000
1.086507 -0.748772 1.793264 0.000000 0.000000 0.000000
1.081060 -0.715512 1.815236 0.000000 0.000000 0.000000
0.886810 -0.199762 1.565752 0.000000 0.000000 0.000000
1.010634 -0.420785 1.429005 0.000000 0.000000 0.000000
0.970036 -0.371529 1.832454 0.000000 0.000000 0.000000
0.977775 -0.334425 1.457068 0.000000 0.000000 0.000000
0.941187 -0.262403 1.516650 0.000000 0.000000 0.000000
0.959284 -0.322132 1.486933 0.000000 0.000000 0.000000
0.963272 -0.314734 1.475963 0.000000 0.000000 0.000000
0.947778 -0.268278 1.505603 0.000000 0.000000 0.000000
1.013600 -0.410603 1.420873 0.000000 0.000000 0.000000
0.977320 -0.333519 1.455278 0.000000 0.000000 0.000000
0.979845 -0.438387 1.828368 0.000000 0.000000 0.000000
0.928619 -0.292566 1.624135 0.000000 0.000000 0.000000
1.078854 -0.799561 1.786083 0.000000 0.000000 0.000000
0.988399 -0.353223 1.459936 0.000000 0.000000 0.000000
1.080407 -0.501316 1.522019 0.000000 0.000000 0.000000
0.874422 -0.194803 1.589001 0.000000 0.000000 0.000000
0.973922 -0.329290 1.464370 0.000000 0.000000 0.000000
1.010146 -0.403508 1.424475 0.000000 0.000000 0.000000
1.004577 -0.391060 1.431617 0.000000 0.000000 0.000000
0.993933 -0.358587 1.442819 0.000000 0.000000 0.000000
1.000140 -0.354197 1.419437 0.000000 0.000000 0.000000
1.080067 -0.749403 1.799546 0.000000 0.000000 0.000000
1.043467 -0.650189 1.816764 0.000000 0.000000 0.000000
0.882187 -0.187085 1.580957 0.000000 0.000000 0.000000
1.078914 -0.796197 1.793039 0.000000 0.000000 0.000000
1.031425 -0.525988 1.752103 0.000000 0.000000 0.000000
0.962719 -0.326252 1.615947 0.000000 0.000000 0.000000
1.049523 -0.475895 1.511554 0.000000 0.000000 0.000000
1.017048 -0.432057 1.643396 0.000000 0.000000 0.000000
1.029530 -0.505061 1.737211 0.000000 0.000000 0.000000
0.882573 -0.188397 1.600489 0.000000 0.000000 0.000000
0.979021 -0.391157 1.750939 0.000000 0.000000 0.000000
1.001565 -0.384430 1.449489 0.000000 0.000000 0.000000
1.005628 -0.460820 1.813348 0.000000 0.000000 0.000000
0.966498 -0.385716 1.631932 0.000000 0.000000 0.000000
1.086494 -0.735582 1.775692 0.000000 0.000000 0.000000
1.026462 -0.582995 1.799413 0.000000 0.000000 0.000000
0.890813 -0.201040 1.627095 0.000000 0.000000 0.000000
1.069372 -0.478273 1.525132 0.000000 0.000000 0.000000
1.060200 -0.487158 1.621303 0.000000 0.000000 0.000000
0.993268 -0.420809 1.750968 0.000000 0.000000 0.000000
0.960657 -0.298776 1.502472 0.000000 0.000000 0.000000
1.066221 -0.654072 1.787985 0.000000 0.000000 0.000000
1.094403 -0.640909 1.732633 0.000000 0.000000 0.000000
0.986970 -0.369490 1.615211 0.000000 0.000000 0.000000
0.960168 -0.297419 1.522307 0.000000 0.000000 0.000000
0.882045 -0.205492 1.631512 0.000000 0.000000 0.000000
0.976830 -0.350095 1.627710 0.000000 0.000000 0.000000
1.014388 -0.581259 1.818125 0.000000 0.000000 0.000000
0.964145 -0.355197 1.757059 0.000000 0.000000 0.000000
1.021247 -0.535433 1.797737 0.000000 0.000000 0.000000
0.890887 -0.190267 1.616956 0.000000 0.000000 0.000000
1.060361 -0.479746 1.479205 0.000000 0.000000 0.000000
1.098046 -0.638708 1.688825 0.000000 0.000000 0.000000
0.956680 -0.334157 1.802599 0.000000 0.000000 0.000000
1.037129 -0.553007 1.760854 0.000000 0.000000 0.000000
1.121791 -0.583372 1.537281 0.000000 0.000000 0.000000
0.965311 -0.316018 1.478200 0.000000 0.000000 0.000000
0.988907 -0.352449 1.466681 0.000000 0.000000 0.000000
1.023079 -0.559919 1.807537 0.000000 0.000000 0.000000
1.065185 -0.642794 1.788681 0.000000 0.000000 0.000000
0.902275 -0.222796 1.642956 0.000000 0.000000 0.000000
0.962794 -0.303273 1.507091 0.000000 0.000000 0.000000
0.899118 -0.184387 1.594210 0.000000 0.000000 0.000000
1.042869 -0.433906 1.472527 0.000000 0.000000 0.000000
1.017268 -0.418029 1.468041 0.000000 0.000000 0.000000
0.971330 -0.404394 1.813857 0.000000 0.000000 0.000000
0.991167 -0.434271 1.805392 0.000000 0.000000 0.000000
0.936222 -0.255074 1.515199 0.000000 0.000000 0.000000
0.895217 -0.219448 1.622017 0.000000 0.000000 0.000000
1.120911 -0.649324 1.657954 0.000000 0.000000 0.000000
0.993924 -0.372568 1.448541 0.000000 0.000000 0.000000
0.929319 -0.260227 1.537538 0.000000 0.000000 0.000000
0.895035 -0.212503 1.565995 0.000000 0.000000 0.000000
0.993792 -0.351400 1.435014 0.000000 0.000000 0.000000
0.897131 -0.208754 1.552066 0.000000 0.000000 0.000000
1.053334 -0.558597 1.733047 0.000000 0.000000 0.000000
1.046374 -0.606528 1.818636 0.000000 0.000000 0.000000
1.080579 -0.669916 1.776137 0.000000 0.000000 0.000000
0.882723 -0.212193 1.600304 0.000000 0.000000 0.000000
0.968812 -0.319137 1.440950 0.000000 0.000000 0.000000
0.909923 -0.212494 1.563316 0.000000 0.000000 0.000000
1.045127 -0.481028 1.445513 0.000000 0.000000 0.000000
1.001977 -0.455771 1.822658 0.000000 0.000000 0.000000
0.882397 -0.195442 1.599519 0.000000 0.000000 0.000000
1.021760 -0.444089 1.431991 0.000000 0.000000 0.000000
0.990276 -0.357997 1.472096 0.000000 0.000000 0.000000
1.014214 -0.459116 1.684655 0.000000 0.000000 0.000000
1.049930 -0.488793 1.480008 0.000000 0.000000 0.000000
1.022873 -0.429772 1.463348 0.000000 0.000000 0.000000
1.010285 -0.459253 1.732664 0.000000 0.000000 0.000000
0.957665 -0.379329 1.779394 0.000000 0.000000 0.000000
0.881509 -0.201635 1.589473 0.000000 0.000000 0.000000
0.999771 -0.438876 1.780472 0.000000 0.000000 0.000000
1.023357 -0.527803 1.784693 0.000000 0.000000 0.000000
0.937700 -0.271524 1.579218 0.000000 0.000000 0.000000
0.989664 -0.428564 1.791020 0.000000 0.000000 0.000000
0.900167 -0.215815 1.559260 0.000000 0.000000 0.000000
0.953121 -0.375917 1.646297 0.000000 0.000000 0.000000
1.075658 -0.741968 1.796119 0.000000 0.000000 0.000000
1.067042 -0.474340 1.521246 0.000000 0.000000 0.000000
0.970571 -0.317069 1.547821 0.000000 0.000000 0.000000
0.891104 -0.221620 1.635776 0.000000 0.000000 0.000000
0.885520 -0.210243 1.617261 0.000000 0.000000 0.000000
1.020825 -0.504539 1.795146 0.000000 0.000000 0.000000
0.955598 -0.292860 1.529143 0.000000 0.000000 0.000000
0.941208 -0.277528 1.535071 0.000000 0.000000 0.000000
1.129237 -0.676184 1.675400 0.000000 0.000000 0.000000
1.122056 -0.625506 1.635316 0.000000 0.000000 0.000000
0.950486 -0.279314 1.535746 0.000000 0.000000 0.000000
1.015503 -0.494058 1.815971 0.000000 0.000000 0.000000
0.895955 -0.212483 1.622798 0.000000 0.000000 0.000000
0.934094 -0.263582 1.595674 0.000000 0.000000 0.000000
1.034766 -0.551694 1.774501 0.000000 0.000000 0.000000
0.953619 -0.300340 1.475387 0.000000 0.000000 0.000000
0.893254 -0.211257 1.597437 0.000000 0.000000 0.000000
0.997617 -0.378740 1.450981 0.000000 0.000000 0.000000
0.887145 -0.207676 1.605121 0.000000 0.000000 0.000000
0.882014 -0.200002 1.612820 0.000000 0.000000 0.000000
0.887549 -0.189096 1.590181 0.000000 0.000000 0.000000
0.882789 -0.179124 1.598978 0.000000 0.000000 0.000000
0.975532 -0.414394 1.797473 0.000000 0.000000 0.000000
0.988612 -0.434880 1.810786 0.000000 0.000000 0.000000
1.006631 -0.383763 1.435735 0.000000 0.000000 0.000000
0.903949 -0.233166 1.614023 0.000000 0.000000 0.000000
0.996526 -0.350014 1.437239 0.000000 0.000000 0.000000
0.968092 -0.318593 1.435007 0.000000 0.000000 0.000000
0.990538 -0.352962 1.753193 0.000000 0.000000 0.000000
0.937573 -0.271125 1.580168 0.000000 0.000000 0.000000
0.948002 -0.269848 1.531279 0.000000 0.000000 0.000000
0.959034 -0.297622 1.467946 0.000000 0.000000 0.000000
0.972832 -0.327796 1.454668 0.000000 0.000000 0.000000
1.111168 -0.708346 1.695965 0.000000 0.000000 0.000000
1.103074 -0.705464 1.712621 0.000000 0.000000 0.000000
0.988849 -0.445229 1.830488 0.000000 0.000000 0.000000
1.016266 -0.475317 1.802932 0.000000 0.000000 0.000000
0.985683 -0.352057 1.459833 0.000000 0.000000 0.000000
0.961481 -0.307126 1.584757 0.000000 0.000000 0.000000
0.965186 -0.318258 1.462661 0.000000 0.000000 0.000000
0.890379 -0.222461 1.598172 0.000000 0.000000 0.000000
1.072638 -0.796197 1.794011 0.000000 0.000000 0.000000
1.005528 -0.374882 1.410749 0.000000 0.000000 0.000000
1.021755 -0.425104 1.655305 0.000000 0.000000 0.000000
0.987674 -0.437310 1.822113 0.000000 0.000000 0.000000
0.991861 -0.362595 1.441360 0.000000 0.000000 0.000000
1.030045 -0.474744 1.670756 0.000000 0.000000 0.000000
0.904939 -0.219976 1.665198 0.000000 0.000000 0.000000
0.950420 -0.285698 1.653628 0.000000 0.000000 0.000000
0.981196 -0.336559 1.485761 0.000000 0.000000 0.000000
0.965535 -0.384846 1.826126 0.000000 0.000000 0.000000
0.933811 -0.293041 1.635118 0.000000 0.000000 0.000000
1.089553 -0.700495 1.792111 0.000000 0.000000 0.000000
0.991172 -0.455884 1.841168 0.000000 0.000000 0.000000
0.955791 -0.290766 1.479820 0.000000 0.000000 0.000000
1.047301 -0.477334 1.648212 0.000000 0.000000 0.000000
1.030825 -0.452304 1.689848 0.000000 0.000000 0.000000
0.910722 -0.227613 1.683811 0.000000 0.000000 0.000000
1.005171 -0.399487 1.629278 0.000000 0.000000 0.000000
1.028902 -0.538381 1.768526 0.000000 0.000000 0.000000
1.040679 -0.565876 1.762859 0.000000 0.000000 0.000000
1.109359 -0.658550 1.688992 0.000000 0.000000 0.000000
1.111766 -0.596423 1.603617 0.000000 0.000000 0.000000
1.117873 -0.692468 1.663132 0.000000 0.000000 0.000000
1.073515 -0.788028 1.794439 0.000000 0.000000 0.000000
1.069847 -0.774664 1.799981 0.000000 0.000000 0.000000
0.962607 -0.309428 1.467881 0.000000 0.000000 0.000000
1.001972 -0.371761 1.427716 0.000000 0.000000 0.000000
1.073975 -0.801108 1.790426 0.000000 0.000000 0.000000
1.000345 -0.361488 1.646582 0.000000 0.000000 0.000000
1.043098 -0.454503 1.665740 0.000000 0.000000 0.000000
0.911937 -0.215168 1.680798 0.000000 0.000000 0.000000
1.099831 -0.749599 1.738773 0.000000 0.000000 0.000000
0.959971 -0.313470 1.694317 0.000000 0.000000 0.000000
1.107268 -0.669563 1.727341 0.000000 0.000000 0.000000
1.100019 -0.714980 1.742970 0.000000 0.000000 0.000000
0.984178 -0.449579 1.847436 0.000000 0.000000 0.000000
1.046113 -0.482437 1.628401 0.000000 0.000000 0.000000
1.071737 -0.565903 1.706457 0.000000 0.000000 0.000000
0.991939 -0.401535 1.690276 0.000000 0.000000 0.000000
1.027762 -0.556589 1.787880 0.000000 0.000000 0.000000
0.914970 -0.234674 1.713067 0.000000 0.000000 0.000000
0.885328 -0.217643 1.599607 0.000000 0.000000 0.000000
1.055627 -0.479056 1.461185 0.000000 0.000000 0.000000
1.000810 -0.350350 1.570812 0.000000 0.000000 0.000000
1.117915 -0.579683 1.530634 0.000000 0.000000 0.000000
0.982179 -0.396277 1.788969 0.000000 0.000000 0.000000
0.994305 -0.334890 1.426896 0.000000 0.000000 0.000000
1.012528 -0.402138 1.433337 0.000000 0.000000 0.000000
1.086493 -0.761148 1.772014 0.000000 0.000000 0.000000
0.861478 -0.178608 1.587172 0.000000 0.000000 0.000000
0.865120 -0.179314 1.592458 0.000000 0.000000 0.000000
1.103086 -0.758257 1.702152 0.000000 0.000000 0.000000
0.947303 -0.274604 1.551889 0.000000 0.000000 0.000000
1.108549 -0.677047 1.740571 0.000000 0.000000 0.000000
1.040362 -0.460880 1.462980 0.000000 0.000000 0.000000
0.958279 -0.300878 1.498489 0.000000 0.000000 0.000000
0.981109 -0.338104 1.474123 0.000000 0.000000 0.000000
0.929247 -0.243607 1.492431 0.000000 0.000000 0.000000
1.002057 -0.379006 1.474772 0.000000 0.000000 0.000000
0.971571 -0.365638 1.697584 0.000000 0.000000 0.000000
1.096981 -0.697195 1.761407 0.000000 0.000000 0.000000
1.079021 -0.747068 1.804441 0.000000 0.000000 0.000000
0.995117 -0.363890 1.433163 0.000000 0.000000 0.000000
1.103508 -0.627977 1.696264 0.000000 0.000000 0.000000
1.112795 -0.730822 1.730482 0.000000 0.000000 0.000000
1.103851 -0.655720 1.736796 0.000000 0.000000 0.000000
1.099535 -0.683708 1.748058 0.000000 0.000000 0.000000
0.940994 -0.257454 1.498991 0.000000 0.000000 0.000000
0.974781 -0.321120 1.494161 0.000000 0.000000 0.000000
1.058404 -0.666024 1.792446 0.000000 0.000000 0.000000
0.933314 -0.258057 1.495306 0.000000 0.000000 0.000000
0.965371 -0.358963 1.739403 0.000000 0.000000 0.000000
0.989365 -0.354337 1.454124 0.000000 0.000000 0.000000
1.037804 -0.478506 1.712518 0.000000 0.000000 0.000000
0.908252 -0.211863 1.563608 0.000000 0.000000 0.000000
0.966363 -0.313333 1.451235 0.000000 0.000000 0.000000
0.924570 -0.253832 1.503426 0.000000 0.000000 0.000000
0.962019 -0.310732 1.459908 0.000000 0.000000 0.000000
0.863530 -0.181019 1.587404 0.000000 0.000000 0.000000
1.107893 -0.734176 1.702682 0.000000 0.000000 0.000000
1.005411 -0.376948 1.421596 0.000000 0.000000 0.000000
0.967010 -0.316132 1.462040 0.000000 0.000000 0.000000
1.003584 -0.371437 1.716104 0.000000 0.000000 0.000000
1.009986 -0.404791 1.446525 0.000000 0.000000 0.000000
0.974141 -0.364612 1.800178 0.000000 0.000000 0.000000
0.974092 -0.420593 1.833737 0.000000 0.000000 0.000000
1.081337 -0.717123 1.809394 0.000000 0.000000 0.000000
0.904525 -0.213079 1.580862 0.000000 0.000000 0.000000
0.987648 -0.344391 1.422337 0.000000 0.000000 0.000000
1.008771 -0.374690 1.418319 0.000000 0.000000 0.000000
0.909813 -0.221403 1.549620 0.000000 0.000000 0.000000
0.892246 -0.199769 1.569895 0.000000 0.000000 0.000000
1.015031 -0.430554 1.423619 0.000000 0.000000 0.000000
0.970560 -0.308528 1.437312 0.000000 0.000000 0.000000
1.078423 -0.782319 1.785245 0.000000 0.000000 0.000000
0.957340 -0.288143 1.493680 0.000000 0.000000 0.000000
0.980804 -0.334284 1.440885 0.000000 0.000000 0.000000
1.132179 -0.577387 1.542874 0.000000 0.000000 0.000000
1.072972 -0.760435 1.799653 0.000000 0.000000 0.000000
0.957127 -0.298537 1.450436 0.000000 0.000000 0.000000
0.917248 -0.229340 1.537685 0.000000 0.000000 0.000000
1.074681 -0.767618 1.791217 0.000000 0.000000 0.000000
1.078896 -0.760401 1.797333 0.000000 0.000000 0.000000
1.024931 -0.432827 1.439808 0.000000 0.000000 0.000000
0.914260 -0.218864 1.534744 0.000000 0.000000 0.000000
1.072810 -0.772383 1.796520 0.000000 0.000000 0.000000
0.962311 -0.301619 1.448078 0.000000 0.000000 0.000000
0.908116 -0.230750 1.528991 0.000000 0.000000 0.000000
1.015715 -0.562890 1.821138 0.000000 0.000000 0.000000
1.130299 -0.603819 1.580664 0.000000 0.000000 0.000000
1.038457 -0.466608 1.443960 0.000000 0.000000 0.000000
1.016601 -0.601190 1.828291 0.000000 0.000000 0.000000
1.077777 -0.715704 1.822335 0.000000 0.000000 0.000000
0.898216 -0.241729 1.611792 0.000000 0.000000 0.000000
0.968803 -0.392329 1.820805 0.000000 0.000000 0.000000
0.967483 -0.322829 1.451716 0.000000 0.000000 0.000000
0.964322 -0.316303 1.452830 0.000000 0.000000 0.000000
1.010265 -0.396567 1.449759 0.000000 0.000000 0.000000
0.891296 -0.197366 1.655985 0.000000 0.000000 0.000000
1.138206 -0.626349 1.600307 0.000000 0.000000 0.000000
0.964434 -0.313235 1.440250 0.000000 0.000000 0.000000
1.063800 -0.771273 1.803216 0.000000 0.000000 0.000000
1.080566 -0.754682 1.801783 0.000000 0.000000 0.000000
1.072609 -0.750573 1.797472 0.000000 0.000000 0.000000
0.899938 -0.207543 1.556753 0.000000 0.000000 0.000000
1.084811 -0.741051 1.797832 0.000000 0.000000 0.000000
1.093594 -0.737621 1.788538 0.000000 0.000000 0.000000
1.078483 -0.757094 1.791007 0.000000 0.000000 0.000000
0.886576 -0.182964 1.604378 0.000000 0.000000 0.000000
1.097180 -0.709613 1.767640 0.000000 0.000000 0.000000
1.072918 -0.734974 1.814822 0.000000 0.000000 0.000000
0.903085 -0.209089 1.547467 0.000000 0.000000 0.000000
0.958199 -0.303759 1.446056 0.000000 0.000000 0.000000
1.010801 -0.538742 1.837875 0.000000 0.000000 0.000000
0.982176 -0.444863 1.838872 0.000000 0.000000 0.000000
0.916445 -0.219139 1.548603 0.000000 0.000000 0.000000
1.072255 -0.782410 1.779337 0.000000 0.000000 0.000000
1.068021 -0.784859 1.791922 0.000000 0.000000 0.000000
1.072318 -0.708569 1.825246 0.000000 0.000000 0.000000
1.074987 -0.766797 1.787886 0.000000 0.000000 0.000000
1.081055 -0.771711 1.777354 0.000000 0.000000 0.000000
0.897504 -0.217339 1.654449 0.000000 0.000000 0.000000
1.090525 -0.768023 1.771061 0.000000 0.000000 0.000000
0.935041 -0.260420 1.503458 0.000000 0.000000 0.000000
0.927664 -0.250550 1.490240 0.000000 0.000000 0.000000
1.075041 -0.783677 1.793028 0.000000 0.000000 0.000000
0.906706 -0.247254 1.667523 0.000000 0.000000 0.000000
1.009963 -0.560282 1.847688 0.000000 0.000000 0.000000
0.941088 -0.256797 1.482983 0.000000 0.000000 0.000000
0.961813 -0.311709 1.449724 0.000000 0.000000 0.000000
0.967572 -0.317686 1.450806 0.000000 0.000000 0.000000
1.084470 -0.784643 1.783975 0.000000 0.000000 0.000000
0.967213 -0.313969 1.445544 0.000000 0.000000 0.000000
0.894746 -0.198227 1.604596 0.000000 0.000000 0.000000
1.018644 -0.427672 1.431233 0.000000 0.000000 0.000000
0.995276 -0.389715 1.439376 0.000000 0.000000 0.000000
1.010849 -0.415503 1.422493 0.000000 0.000000 0.000000
0.956892 -0.293759 1.472612 0.000000 0.000000 0.000000
0.911991 -0.237311 1.602800 0.000000 0.000000 0.000000
1.016382 -0.411305 1.417158 0.000000 0.000000 0.000000
0.913201 -0.223826 1.536916 0.000000 0.000000 0.000000
0.948709 -0.284251 1.510870 0.000000 0.000000 0.000000
0.925774 -0.258546 1.499702 0.000000 0.000000 0.000000
0.979770 -0.320559 1.431775 0.000000 0.000000 0.000000
1.083308 -0.759790 1.790009 0.000000 0.000000 0.000000
1.010167 -0.410679 1.417249 0.000000 0.000000 0.000000
0.960146 -0.309359 1.443807 0.000000 0.000000 0.000000
1.125200 -0.574480 1.571540 0.000000 0.000000 0.000000
1.014439 -0.554227 1.824615 0.000000 0.000000 0.000000
1.011783 -0.528273 1.832686 0.000000 0.000000 0.000000
0.996120 -0.342676 1.424156 0.000000 0.000000 0.000000
1.130029 -0.604013 1.560221 0.000000 0.000000 0.000000
1.056753 -0.639528 1.811948 0.000000 0.000000 0.000000
1.125685 -0.608016 1.616693 0.000000 0.000000 0.000000
1.071852 -0.615745 1.773526 0.000000 0.000000 0.000000
1.126292 -0.583638 1.575629 0.000000 0.000000 0.000000
1.075395 -0.758956 1.802179 0.000000 0.000000 0.000000
1.104161 -0.647643 1.701416 0.000000 0.000000 0.000000
1.010661 -0.539704 1.831118 0.000000 0.000000 0.000000
1.088961 -0.642334 1.754178 0.000000 0.000000 0.000000
1.010689 -0.536386 1.842821 0.000000 0.000000 0.000000
1.102116 -0.627231 1.714938 0.000000 0.000000 0.000000
1.062058 -0.591439 1.742279 0.000000 0.000000 0.000000
1.077711 -0.688681 1.822743 0.000000 0.000000 0.000000
0.991382 -0.451207 1.832665 0.000000 0.000000 0.000000
0.937766 -0.244243 1.494691 0.000000 0.000000 0.000000
0.876901 -0.183647 1.572320 0.000000 0.000000 0.000000
1.080481 -0.708313 1.809239 0.000000 0.000000 0.000000
1.120757 -0.640201 1.610224 0.000000 0.000000 0.000000
0.981413 -0.372608 1.639546 0.000000 0.000000 0.000000
1.079433 -0.651042 1.762700 0.000000 0.000000 0.000000
1.143081 -0.639638 1.615491 0.000000 0.000000 0.000000
1.085055 -0.693857 1.783414 0.000000 0.000000 0.000000
1.143015 -0.642529 1.611688 0.000000 0.000000 0.000000
1.076413 -0.772068 1.791606 0.000000 0.000000 0.000000
1.077648 -0.778793 1.788084 0.000000 0.000000 0.000000
1.080236 -0.767414 1.780645 0.000000 0.000000 0.000000
1.009283 -0.591288 1.835887 0.000000 0.000000 0.000000
1.026685 -0.616268 1.823133 0.000000 0.000000 0.000000
1.016958 -0.611139 1.828159 0.000000 0.000000 0.000000
0.970988 -0.429298 1.838825 0.000000 0.000000 0.000000
0.940022 -0.304445 1.627544 0.000000 0.000000 0.000000
1.031630 -0.455199 1.444212 0.000000 0.000000 0.000000
0.999190 -0.465169 1.851426 0.000000 0.000000 0.000000
1.021610 -0.604037 1.807056 0.000000 0.000000 0.000000
1.011842 -0.416247 1.417804 0.000000 0.000000 0.000000
1.022527 -0.604857 1.828943 0.000000 0.000000 0.000000
0.971738 -0.413806 1.819451 0.000000 0.000000 0.000000
1.074843 -0.788832 1.784658 0.000000 0.000000 0.000000
0.880179 -0.191899 1.580099 0.000000 0.000000 0.000000
0.890893 -0.192736 1.570442 0.000000 0.000000 0.000000
0.910358 -0.217388 1.536109 0.000000 0.000000 0.000000
0.931227 -0.252768 1.499066 0.000000 0.000000 0.000000
1.074989 -0.797688 1.795003 0.000000 0.000000 0.000000
0.932210 -0.257009 1.503958 0.000000 0.000000 0.000000
0.907711 -0.230783 1.530360 0.000000 0.000000 0.000000
0.865336 -0.184233 1.591028 0.000000 0.000000 0.000000
0.951688 -0.320819 1.794464 0.000000 0.000000 0.000000
0.954917 -0.290058 1.511392 0.000000 0.000000 0.000000
0.923379 -0.240143 1.539640 0.000000 0.000000 0.000000
0.930107 -0.247657 1.500314 0.000000 0.000000 0.000000
0.863095 -0.182097 1.595550 0.000000 0.000000 0.000000
0.861088 -0.181309 1.592828 0.000000 0.000000 0.000000
0.932523 -0.244785 1.511033 0.000000 0.000000 0.000000
0.866280 -0.184817 1.593041 0.000000 0.000000 0.000000
0.884448 -0.195937 1.576764 0.000000 0.000000 0.000000
0.930703 -0.257644 1.499463 0.000000 0.000000 0.000000
0.958265 -0.300656 1.485937 0.000000 0.000000 0.000000
0.917088 -0.240366 1.548967 0.000000 0.000000 0.000000
0.916322 -0.230027 1.540730 0.000000 0.000000 0.000000
0.904484 -0.218685 1.553475 0.000000 0.000000 0.000000
0.956279 -0.293170 1.457026 0.000000 0.000000 0.000000
0.927437 -0.253347 1.499088 0.000000 0.000000 0.000000
0.886969 -0.214020 1.595973 0.000000 0.000000 0.000000
1.073586 -0.779466 1.797421 0.000000 0.000000 0.000000
1.004560 -0.381160 1.420846 0.000000 0.000000 0.000000
0.925344 -0.254619 1.546933 0.000000 0.000000 0.000000
0.992164 -0.347899 1.425368 0.000000 0.000000 0.000000
1.007495 -0.408976 1.424071 0.000000 0.000000 0.000000
1.107721 -0.686344 1.711093 0.000000 0.000000 0.000000
0.997694 -0.359207 1.419342 0.000000 0.000000 0.000000
0.928126 -0.253843 1.547228 0.000000 0.000000 0.000000
1.014993 -0.413320 1.419245 0.000000 0.000000 0.000000
1.015974 -0.415432 1.430135 0.000000 0.000000 0.000000
0.959803 -0.379639 1.827307 0.000000 0.000000 0.000000
1.086375 -0.773447 1.766588 0.000000 0.000000 0.000000
1.084435 -0.752264 1.781270 0.000000 0.000000 0.000000
0.883461 -0.193390 1.585969 0.000000 0.000000 0.000000
1.145455 -0.629033 1.585196 0.000000 0.000000 0.000000
0.960466 -0.402604 1.825225 0.000000 0.000000 0.000000
0.960596 -0.396217 1.835394 0.000000 0.000000 0.000000
1.094248 -0.752942 1.768895 0.000000 0.000000 0.000000
0.977475 -0.433597 1.829836 0.000000 0.000000 0.000000
0.886541 -0.198802 1.584680 0.000000 0.000000 0.000000
0.957767 -0.300515 1.455017 0.000000 0.000000 0.000000
1.084372 -0.520747 1.501866 0.000000 0.000000 0.000000
0.967365 -0.417077 1.831532 0.000000 0.000000 0.000000
0.876684 -0.190096 1.586246 0.000000 0.000000 0.000000
1.076688 -0.687809 1.818909 0.000000 0.000000 0.000000
0.956110 -0.303207 1.460329 0.000000 0.000000 0.000000
0.872853 -0.183931 1.594623 0.000000 0.000000 0.000000
0.962648 -0.416357 1.840792 0.000000 0.000000 0.000000
0.932218 -0.246169 1.517931 0.000000 0.000000 0.000000
1.076730 -0.755734 1.799378 0.000000 0.000000 0.000000
1.082671 -0.757304 1.790601 0.000000 0.000000 0.000000
1.079117 -0.768339 1.789852 0.000000 0.000000 0.000000
1.075986 -0.755677 1.798957 0.000000 0.000000 0.000000
0.988041 -0.392716 1.649235 0.000000 0.000000 0.000000
1.021910 -0.437016 1.435577 0.000000 0.000000 0.000000
1.012141 -0.571701 1.837499 0.000000 0.000000 0.000000
1.073589 -0.755635 1.804245 0.000000 0.000000 0.000000
1.086048 -0.772056 1.765288 0.000000 0.000000 0.000000
1.079293 -0.757232 1.790875 0.000000 0.000000 0.000000
0.876229 -0.184241 1.595593 0.000000 0.000000 0.000000
1.010063 -0.418752 1.435441 0.000000 0.000000 0.000000
0.937106 -0.264783 1.479884 0.000000 0.000000 0.000000
1.078261 -0.782551 1.785795 0.000000 0.000000 0.000000
1.008291 -0.545408 1.845080 0.000000 0.000000 0.000000
1.013396 -0.560301 1.839470 0.000000 0.000000 0.000000
1.089371 -0.747898 1.782689 0.000000 0.000000 0.000000
1.078106 -0.752639 1.789202 0.000000 0.000000 0.000000
0.987497 -0.330039 1.433423 0.000000 0.000000 0.000000
1.145054 -0.594997 1.581729 0.000000 0.000000 0.000000
0.883473 -0.196977 1.653431 0.000000 0.000000 0.000000
0.970576 -0.379118 1.652042 0.000000 0.000000 0.000000
1.074991 -0.794581 1.789838 0.000000 0.000000 0.000000
1.011011 -0.552751 1.850298 0.000000 0.000000 0.000000
1.015466 -0.551107 1.846695 0.000000 0.000000 0.000000
0.902007 -0.207473 1.553754 0.000000 0.000000 0.000000
0.886958 -0.186203 1.588850 0.000000 0.000000 0.000000
1.078884 -0.784680 1.785266 0.000000 0.000000 0.000000
0.906223 -0.215312 1.546343 0.000000 0.000000 0.000000
1.073024 -0.788543 1.796875 0.000000 0.000000 0.000000
1.012051 -0.474308 1.829053 0.000000 0.000000 0.000000
1.079038 -0.791782 1.782546 0.000000 0.000000 0.000000
1.072501 -0.784335 1.795649 0.000000 0.000000 0.000000
0.989652 -0.407625 1.670898 0.000000 0.000000 0.000000
0.855645 -0.178995 1.593367 0.000000 0.000000 0.000000
1.014719 -0.398723 1.414634 0.000000 0.000000 0.000000
1.004285 -0.372712 1.420693 0.000000 0.000000 0.000000
1.018109 -0.569897 1.844462 0.000000 0.000000 0.000000
1.012432 -0.397530 1.415253 0.000000 0.000000 0.000000
0.900421 -0.213329 1.559055 0.000000 0.000000 0.000000
0.959787 -0.295264 1.457263 0.000000 0.000000 0.000000
1.080700 -0.690908 1.816154 0.000000 0.000000 0.000000
1.000799 -0.359563 1.424228 0.000000 0.000000 0.000000
0.941682 -0.260763 1.478814 0.000000 0.000000 0.000000
0.871619 -0.184479 1.579438 0.000000 0.000000 0.000000
0.901809 -0.219358 1.555942 0.000000 0.000000 0.000000
0.938987 -0.260770 1.527224 0.000000 0.000000 0.000000
0.980671 -0.318828 1.460206 0.000000 0.000000 0.000000
0.886235 -0.226096 1.606354 0.000000 0.000000 0.000000
1.074356 -0.680381 1.827077 0.000000 0.000000 0.000000
0.861694 -0.185425 1.586250 0.000000 0.000000 0.000000
0.929184 -0.274832 1.604077 0.000000 0.000000 0.000000
0.931126 -0.251839 1.511538 0.000000 0.000000 0.000000
1.077371 -0.682999 1.819775 0.000000 0.000000 0.000000
0.929749 -0.239324 1.531429 0.000000 0.000000 0.000000
0.925097 -0.245007 1.508400 0.000000 0.000000 0.000000
0.946209 -0.274241 1.506131 0.000000 0.000000 0.000000
1.107723 -0.689191 1.674594 0.000000 0.000000 0.000000
0.992100 -0.458160 1.846626 0.000000 0.000000 0.000000
1.126309 -0.721592 1.695556 0.000000 0.000000 0.000000
1.028508 -0.444701 1.458643 0.000000 0.000000 0.000000
1.006113 -0.573537 1.842532 0.000000 0.000000 0.000000
0.911830 -0.217409 1.555805 0.000000 0.000000 0.000000
0.933164 -0.251985 1.488771 0.000000 0.000000 0.000000
1.011892 -0.587153 1.839525 0.000000 0.000000 0.000000
1.029321 -0.467409 1.448407 0.000000 0.000000 0.000000
1.005990 -0.578181 1.835655 0.000000 0.000000 0.000000
1.022077 -0.445086 1.429652 0.000000 0.000000 0.000000
0.930622 -0.246656 1.532392 0.000000 0.000000 0.000000
1.014100 -0.493262 1.839117 0.000000 0.000000 0.000000
0.983135 -0.449597 1.844819 0.000000 0.000000 0.000000
0.935233 -0.239552 1.501809 0.000000 0.000000 0.000000
1.128669 -0.704576 1.696685 0.000000 0.000000 0.000000
1.027294 -0.447282 1.450284 0.000000 0.000000 0.000000
1.009594 -0.581473 1.842027 0.000000 0.000000 0.000000
0.888525 -0.204356 1.583249 0.000000 0.000000 0.000000
1.024157 -0.440668 1.430337 0.000000 0.000000 0.000000
1.015788 -0.505584 1.841943 0.000000 0.000000 0.000000
1.014391 -0.561213 1.850543 0.000000 0.000000 0.000000
0.890289 -0.207769 1.620426 0.000000 0.000000 0.000000
0.929044 -0.244945 1.520631 0.000000 0.000000 0.000000
0.930363 -0.239401 1.513991 0.000000 0.000000 0.000000
1.015252 -0.484407 1.808426 0.000000 0.000000 0.000000
1.110283 -0.554961 1.525452 0.000000 0.000000 0.000000
1.022417 -0.499860 1.803358 0.000000 0.000000 0.000000
1.016289 -0.512809 1.835516 0.000000 0.000000 0.000000
1.026194 -0.507790 1.765569 0.000000 0.000000 0.000000
1.022480 -0.525739 1.810048 0.000000 0.000000 0.000000
1.096073 -0.554318 1.625607 0.000000 0.000000 0.000000
1.043717 -0.494911 1.725439 0.000000 0.000000 0.000000
1.015664 -0.549493 1.811441 0.000000 0.000000 0.000000
1.016407 -0.514561 1.833768 0.000000 0.000000 0.000000
1.083308 -0.781778 1.767277 0.000000 0.000000 0.000000
1.030596 -0.458615 1.437216 0.000000 0.000000 0.000000
1.084981 -0.768516 1.779974 0.000000 0.000000 0.000000
1.080447 -0.784504 1.778916 0.000000 0.000000 0.000000
0.875848 -0.206908 1.645517 0.000000 0.000000 0.000000
0.871437 -0.183748 1.585178 0.000000 0.000000 0.000000
0.865303 -0.194571 1.592187 0.000000 0.000000 0.000000
0.866869 -0.182543 1.584660 0.000000 0.000000 0.000000
0.849612 -0.180150 1.594644 0.000000 0.000000 0.000000
1.055365 -0.645507 1.812103 0.000000 0.000000 0.000000
0.869344 -0.191505 1.593302 0.000000 0.000000 0.000000
0.871550 -0.190457 1.587235 0.000000 0.000000 0.000000
0.880474 -0.199197 1.603483 0.000000 0.000000 0.000000
1.109784 -0.542744 1.612271 0.000000 0.000000 0.000000
0.855560 -0.183945 1.592368 0.000000 0.000000 0.000000
0.873501 -0.185027 1.589228 0.000000 0.000000 0.000000
0.919580 -0.252413 1.494267 0.000000 0.000000 0.000000
0.855433 -0.186768 1.597633 0.000000 0.000000 0.000000
1.075175 -0.804413 1.792676 0.000000 0.000000 0.000000
0.911170 -0.227494 1.548297 0.000000 0.000000 0.000000
0.946102 -0.263211 1.476333 0.000000 0.000000 0.000000
1.011059 -0.443707 1.436759 0.000000 0.000000 0.000000
0.902354 -0.206468 1.558254 0.000000 0.000000 0.000000
1.024689 -0.435523 1.431925 0.000000 0.000000 0.000000
0.974098 -0.371195 1.695120 0.000000 0.000000 0.000000
0.993411 -0.375594 1.455081 0.000000 0.000000 0.000000
0.909679 -0.219549 1.581021 0.000000 0.000000 0.000000
0.962849 -0.303205 1.491206 0.000000 0.000000 0.000000
1.007264 -0.368985 1.568404 0.000000 0.000000 0.000000
1.070560 -0.471835 1.545394 0.000000 0.000000 0.000000
1.051704 -0.444480 1.586611 0.000000 0.000000 0.000000
0.907583 -0.253092 1.633664 0.000000 0.000000 0.000000
1.092458 -0.525681 1.525300 0.000000 0.000000 0.000000
1.061516 -0.664400 1.804639 0.000000 0.000000 0.000000
1.088912 -0.729549 1.787455 0.000000 0.000000 0.000000
0.899277 -0.220839 1.592943 0.000000 0.000000 0.000000
0.935880 -0.260672 1.536026 0.000000 0.000000 0.000000
0.959254 -0.295316 1.461521 0.000000 0.000000 0.000000
0.950502 -0.305016 1.503500 0.000000 0.000000 0.000000
0.931765 -0.250604 1.560625 0.000000 0.000000 0.000000
1.096207 -0.542779 1.547881 0.000000 0.000000 0.000000
1.098338 -0.740460 1.756489 0.000000 0.000000 0.000000
0.944965 -0.271559 1.503123 0.000000 0.000000 0.000000
1.029615 -0.420808 1.583958 0.000000 0.000000 0.000000
1.032275 -0.438475 1.462068 0.000000 0.000000 0.000000
0.953519 -0.286304 1.564013 0.000000 0.000000 0.000000
0.913106 -0.228880 1.706589 0.000000 0.000000 0.000000
0.942897 -0.303270 1.729502 0.000000 0.000000 0.000000
1.047085 -0.448363 1.487305 0.000000 0.000000 0.000000
0.932008 -0.255692 1.491677 0.000000 0.000000 0.000000
0.931790 -0.240100 1.554100 0.000000 0.000000 0.000000
0.928503 -0.244164 1.533136 0.000000 0.000000 0.000000
1.079478 -0.653438 1.768747 0.000000 0.000000 0.000000
1.086247 -0.542714 1.578321 0.000000 0.000000 0.000000
1.007279 -0.391054 1.448448 0.000000 0.000000 0.000000
1.054936 -0.465807 1.490218 0.000000 0.000000 0.000000
1.062495 -0.574191 1.723042 0.000000 0.000000 0.000000
0.908699 -0.235872 1.566258 0.000000 0.000000 0.000000
1.028700 -0.443875 1.455654 0.000000 0.000000 0.000000
1.030196 -0.418947 1.493333 0.000000 0.000000 0.000000
0.920370 -0.251612 1.733661 0.000000 0.000000 0.000000
0.974333 -0.323472 1.596233 0.000000 0.000000 0.000000
0.947645 -0.317489 1.668300 0.000000 0.000000 0.000000
0.936585 -0.304785 1.672441 0.000000 0.000000 0.000000
0.933518 -0.267047 1.583853 0.000000 0.000000 0.000000
1.118158 -0.587088 1.599904 0.000000 0.000000 0.000000
1.106259 -0.705922 1.732322 0.000000 0.000000 0.000000
0.936287 -0.281825 1.701653 0.000000 0.000000 0.000000
1.003639 -0.378261 1.504227 0.000000 0.000000 0.000000
1.093923 -0.637211 1.688043 0.000000 0.000000 0.000000
1.048252 -0.450455 1.472897 0.000000 0.000000 0.000000
1.107892 -0.683394 1.712712 0.000000 0.000000 0.000000
1.032837 -0.544379 1.779695 0.000000 0.000000 0.000000
1.104877 -0.675250 1.726709 0.000000 0.000000 0.000000
0.971592 -0.309851 1.540370 0.000000 0.000000 0.000000
0.887684 -0.200759 1.647106 0.000000 0.000000 0.000000
1.078819 -0.571533 1.672975 0.000000 0.000000 0.000000
0.994827 -0.433863 1.771163 0.000000 0.000000 0.000000
0.991181 -0.408287 1.686303 0.000000 0.000000 0.000000
1.045599 -0.426891 1.573799 0.000000 0.000000 0.000000
0.997135 -0.359637 1.503530 0.000000 0.000000 0.000000
0.899754 -0.220352 1.580916 0.000000 0.000000 0.000000
1.044760 -0.463352 1.462358 0.000000 0.000000 0.000000
0.977476 -0.322042 1.521200 0.000000 0.000000 0.000000
1.094685 -0.674098 1.757119 0.000000 0.000000 0.000000
0.993381 -0.345368 1.608746 0.000000 0.000000 0.000000
1.077460 -0.780087 1.770308 0.000000 0.000000 0.000000
1.006760 -0.367547 1.535609 0.000000 0.000000 0.000000
1.061103 -0.521988 1.687177 0.000000 0.000000 0.000000
1.095884 -0.700903 1.750356 0.000000 0.000000 0.000000
1.065615 -0.663006 1.777374 0.000000 0.000000 0.000000
0.928590 -0.250829 1.729625 0.000000 0.000000 0.000000
1.096938 -0.607066 1.692862 0.000000 0.000000 0.000000
1.047105 -0.463067 1.465151 0.000000 0.000000 0.000000
1.044319 -0.520080 1.706203 0.000000 0.000000 0.000000
0.911644 -0.220658 1.543171 0.000000 0.000000 0.000000
0.921759 -0.252834 1.578466 0.000000 0.000000 0.000000
1.121381 -0.668925 1.656950 0.000000 0.000000 0.000000
0.935204 -0.245997 1.509910 0.000000 0.000000 0.000000
1.077684 -0.508228 1.488657 0.000000 0.000000 0.000000
1.096406 -0.646858 1.730651 0.000000 0.000000 0.000000
1.022836 -0.444540 1.443498 0.000000 0.000000 0.000000
1.025255 -0.445291 1.437407 0.000000 0.000000 0.000000
1.013592 -0.435952 1.429890 0.000000 0.000000 0.000000
1.012959 -0.583833 1.822915 0.000000 0.000000 0.000000
0.941015 -0.266267 1.564257 0.000000 0.000000 0.000000
0.960172 -0.294647 1.581996 0.000000 0.000000 0.000000
0.889944 -0.215340 1.611787 0.000000 0.000000 0.000000
0.910111 -0.223810 1.543496 0.000000 0.000000 0.000000
1.019267 -0.430366 1.423534 0.000000 0.000000 0.000000
0.939512 -0.255374 1.495221 0.000000 0.000000 0.000000
1.081392 -0.687702 1.825601 0.000000 0.000000 0.000000
0.870480 -0.198884 1.599525 0.000000 0.000000 0.000000
0.942540 -0.259653 1.481606 0.000000 0.000000 0.000000
0.936784 -0.263606 1.525198 0.000000 0.000000 0.000000
1.085705 -0.506299 1.572505 0.000000 0.000000 0.000000
0.925405 -0.222850 1.531176 0.000000 0.000000 0.000000
1.101407 -0.540121 1.530542 0.000000 0.000000 0.000000
1.106954 -0.579099 1.637222 0.000000 0.000000 0.000000
0.987471 -0.350455 1.467685 0.000000 0.000000 0.000000
1.033413 -0.408327 1.565838 0.000000 0.000000 0.000000
1.060279 -0.460277 1.538667 0.000000 0.000000 0.000000
0.990496 -0.360381 1.438712 0.000000 0.000000 0.000000
0.923513 -0.277665 1.643302 0.000000 0.000000 0.000000
0.936796 -0.261656 1.551202 0.000000 0.000000 0.000000
0.942371 -0.265718 1.527424 0.000000 0.000000 0.000000
0.957861 -0.302385 1.462200 0.000000 0.000000 0.000000
0.945138 -0.297407 1.506012 0.000000 0.000000 0.000000
0.928078 -0.245500 1.540570 0.000000 0.000000 0.000000
1.109259 -0.555675 1.552149 0.000000 0.000000 0.000000
1.098738 -0.749638 1.749275 0.000000 0.000000 0.000000
0.954114 -0.286498 1.527975 0.000000 0.000000 0.000000
1.031071 -0.445003 1.439615 0.000000 0.000000 0.000000
1.033035 -0.442939 1.471883 0.000000 0.000000 0.000000
1.129067 -0.727498 1.710050 0.000000 0.000000 0.000000
0.947762 -0.284165 1.581995 0.000000 0.000000 0.000000
0.918047 -0.254874 1.683072 0.000000 0.000000 0.000000
0.961273 -0.361299 1.817156 0.000000 0.000000 0.000000
0.906741 -0.247422 1.634930 0.000000 0.000000 0.000000
1.028346 -0.425639 1.478678 0.000000 0.000000 0.000000
0.935282 -0.296515 1.669510 0.000000 0.000000 0.000000
1.100046 -0.740372 1.737082 0.000000 0.000000 0.000000
0.939956 -0.291335 1.734050 0.000000 0.000000 0.000000
0.939527 -0.263393 1.547310 0.000000 0.000000 0.000000
0.915112 -0.234346 1.610245 0.000000 0.000000 0.000000
0.929336 -0.252521 1.546904 0.000000 0.000000 0.000000
1.017275 -0.412822 1.457606 0.000000 0.000000 0.000000
1.072786 -0.543512 1.669748 0.000000 0.000000 0.000000
0.892919 -0.219292 1.578418 0.000000 0.000000 0.000000
1.005087 -0.404591 1.460762 0.000000 0.000000 0.000000
0.992593 -0.443398 1.662205 0.000000 0.000000 0.000000
0.897585 -0.236516 1.687442 0.000000 0.000000 0.000000
0.950044 -0.300730 1.567755 0.000000 0.000000 0.000000
0.929191 -0.286285 1.676080 0.000000 0.000000 0.000000
0.999989 -0.355942 1.540269 0.000000 0.000000 0.000000
0.952633 -0.320716 1.690600 0.000000 0.000000 0.000000
0.937860 -0.271978 1.520301 0.000000 0.000000 0.000000
1.111875 -0.668892 1.681373 0.000000 0.000000 0.000000
0.950686 -0.307831 1.737550 0.000000 0.000000 0.000000
0.985203 -0.339702 1.518660 0.000000 0.000000 0.000000
1.047033 -0.459695 1.468025 0.000000 0.000000 0.000000
1.118831 -0.665348 1.666636 0.000000 0.000000 0.000000
1.061397 -0.561717 1.712748 0.000000 0.000000 0.000000
1.093990 -0.656234 1.740651 0.000000 0.000000 0.000000
0.987701 -0.336523 1.550805 0.000000 0.000000 0.000000
0.891705 -0.207810 1.657117 0.000000 0.000000 0.000000
1.063557 -0.582499 1.735208 0.000000 0.000000 0.000000
0.992399 -0.411568 1.704842 0.000000 0.000000 0.000000
0.931524 -0.306839 1.616832 0.000000 0.000000 0.000000
0.960664 -0.361450 1.690789 0.000000 0.000000 0.000000
1.021579 -0.390763 1.586451 0.000000 0.000000 0.000000
0.921403 -0.246616 1.572453 0.000000 0.000000 0.000000
1.028655 -0.428327 1.463867 0.000000 0.000000 0.000000
0.985737 -0.333966 1.632062 0.000000 0.000000 0.000000
1.079526 -0.782119 1.777894 0.000000 0.000000 0.000000
1.074641 -0.572092 1.737132 0.000000 0.000000 0.000000
1.100975 -0.665522 1.724527 0.000000 0.000000 0.000000
1.055233 -0.664310 1.769070 0.000000 0.000000 0.000000
1.098126 -0.608826 1.669782 0.000000 0.000000 0.000000
1.021690 -0.428540 1.449354 0.000000 0.000000 0.000000
1.021232 -0.472400 1.735787 0.000000 0.000000 0.000000
0.900506 -0.220325 1.682002 0.000000 0.000000 0.000000
1.017485 -0.427254 1.441585 0.000000 0.000000 0.000000
0.928181 -0.234938 1.553279 0.000000 0.000000 0.000000
0.905536 -0.225715 1.556125 0.000000 0.000000 0.000000
1.089688 -0.731702 1.795636 0.000000 0.000000 0.000000
0.931550 -0.267560 1.551905 0.000000 0.000000 0.000000
1.128956 -0.613420 1.595435 0.000000 0.000000 0.000000
0.933755 -0.253511 1.498857 0.000000 0.000000 0.000000
0.940916 -0.261764 1.482683 0.000000 0.000000 0.000000
1.066191 -0.670110 1.830775 0.000000 0.000000 0.000000
1.051163 -0.610007 1.795903 0.000000 0.000000 0.000000
1.021528 -0.441250 1.431628 0.000000 0.000000 0.000000
1.074653 -0.486082 1.473509 0.000000 0.000000 0.000000
0.902724 -0.224567 1.565507 0.000000 0.000000 0.000000
0.974765 -0.315121 1.558933 0.000000 0.000000 0.000000
0.884366 -0.216241 1.610172 0.000000 0.000000 0.000000
0.953596 -0.291271 1.613435 0.000000 0.000000 0.000000
0.906968 -0.214406 1.542190 0.000000 0.000000 0.000000
0.922391 -0.244790 1.551765 0.000000 0.000000 0.000000
1.019559 -0.426967 1.426117 0.000000 0.000000 0.000000
1.141040 -0.589304 1.568413 0.000000 0.000000 0.000000
1.083069 -0.499383 1.551161 0.000000 0.000000 0.000000
0.961521 -0.353192 1.825341 0.000000 0.000000 0.000000
1.082704 -0.774746 1.777948 0.000000 0.000000 0.000000
0.944515 -0.269083 1.489171 0.000000 0.000000 0.000000
0.933289 -0.245096 1.501676 0.000000 0.000000 0.000000
0.936713 -0.248772 1.537960 0.000000 0.000000 0.000000
0.900791 -0.207800 1.552196 0.000000 0.000000 0.000000
0.933889 -0.252529 1.515302 0.000000 0.000000 0.000000
1.093978 -0.529145 1.589990 0.000000 0.000000 0.000000
0.932883 -0.265605 1.487678 0.000000 0.000000 0.000000
0.934104 -0.247313 1.506314 0.000000 0.000000 0.000000
1.075939 -0.503166 1.502503 0.000000 0.000000 0.000000
1.115825 -0.560824 1.581945 0.000000 0.000000 0.000000
1.076183 -0.778842 1.790245 0.000000 0.000000 0.000000
1.068860 -0.781160 1.792045 0.000000 0.000000 0.000000
1.015667 -0.421626 1.427798 0.000000 0.000000 0.000000
1.012805 -0.408921 1.414045 0.000000 0.000000 0.000000
0.898346 -0.204944 1.572600 0.000000 0.000000 0.000000
0.869525 -0.178725 1.595969 0.000000 0.000000 0.000000
1.041943 -0.414161 1.552052 0.000000 0.000000 0.000000
1.057028 -0.530721 1.690582 0.000000 0.000000 0.000000
0.969139 -0.309717 1.531968 0.000000 0.000000 0.000000
1.014341 -0.403456 1.418116 0.000000 0.000000 0.000000
0.891207 -0.213129 1.698635 0.000000 0.000000 0.000000
1.018653 -0.525903 1.803452 0.000000 0.000000 0.000000
1.042088 -0.433164 1.504089 0.000000 0.000000 0.000000
0.925104 -0.256792 1.660927 0.000000 0.000000 0.000000
1.085543 -0.706293 1.819853 0.000000 0.000000 0.000000
0.970377 -0.315902 1.436841 0.000000 0.000000 0.000000
1.042702 -0.452803 1.476231 0.000000 0.000000 0.000000
