ply
format ascii 1.0
comment VCGLIB generated
obj_info Generated by SPFormer!
element vertex 868
property float x
property float y
property float z
property float nx
property float ny
property float nz
end_header
-0.361546 0.594565 2.262398 0.000000 0.000000 0.000000
-0.351898 0.499499 2.148079 0.000000 0.000000 0.000000
-0.237820 0.591063 2.228062 0.000000 0.000000 0.000000
-0.176208 0.728966 2.334687 0.000000 0.000000 0.000000
-0.265136 0.483654 2.108859 0.000000 0.000000 0.000000
-0.224482 0.590328 2.222389 0.000000 0.000000 0.000000
-0.028361 0.596257 2.173476 0.000000 0.000000 0.000000
-0.422254 0.640551 2.313750 0.000000 0.000000 0.000000
-0.447192 0.566968 2.237075 0.000000 0.000000 0.000000
-0.450425 0.563337 2.232962 0.000000 0.000000 0.000000
-0.446105 0.736116 2.376636 0.000000 0.000000 0.000000
-0.248597 0.642207 2.273972 0.000000 0.000000 0.000000
-0.180496 0.703319 2.314821 0.000000 0.000000 0.000000
-0.187277 0.747075 2.348161 0.000000 0.000000 0.000000
-0.372862 0.667781 2.319244 0.000000 0.000000 0.000000
-0.219858 0.743468 2.351768 0.000000 0.000000 0.000000
-0.380751 0.738145 2.395331 0.000000 0.000000 0.000000
-0.406771 0.526313 2.191770 0.000000 0.000000 0.000000
-0.441251 0.565973 2.233862 0.000000 0.000000 0.000000
-0.322974 0.511088 2.125041 0.000000 0.000000 0.000000
-0.392895 0.560896 2.220250 0.000000 0.000000 0.000000
-0.354734 0.725093 2.378925 0.000000 0.000000 0.000000
-0.432887 0.698709 2.351112 0.000000 0.000000 0.000000
-0.284088 0.471945 2.102565 0.000000 0.000000 0.000000
-0.444236 0.575956 2.244884 0.000000 0.000000 0.000000
-0.294204 0.498679 2.120386 0.000000 0.000000 0.000000
-0.437099 0.724995 2.365768 0.000000 0.000000 0.000000
-0.218834 0.718205 2.336390 0.000000 0.000000 0.000000
-0.502956 0.658273 2.372319 0.000000 0.000000 0.000000
-0.218128 0.596333 2.220757 0.000000 0.000000 0.000000
-0.266361 0.515575 2.132328 0.000000 0.000000 0.000000
-0.018607 0.595620 2.173710 0.000000 0.000000 0.000000
-0.247115 0.483179 2.106962 0.000000 0.000000 0.000000
-0.274408 0.720594 2.351057 0.000000 0.000000 0.000000
-0.446498 0.568804 2.234577 0.000000 0.000000 0.000000
-0.353543 0.495790 2.149038 0.000000 0.000000 0.000000
-0.435906 0.561366 2.230667 0.000000 0.000000 0.000000
-0.298960 0.498781 2.117106 0.000000 0.000000 0.000000
-0.266320 0.475877 2.105395 0.000000 0.000000 0.000000
-0.494378 0.606625 2.276852 0.000000 0.000000 0.000000
-0.411589 0.539530 2.199732 0.000000 0.000000 0.000000
-0.206732 0.745123 2.349091 0.000000 0.000000 0.000000
-0.256527 0.485007 2.101253 0.000000 0.000000 0.000000
-0.059869 0.553874 2.107449 0.000000 0.000000 0.000000
-0.342841 0.501329 2.144238 0.000000 0.000000 0.000000
-0.187476 0.699541 2.310576 0.000000 0.000000 0.000000
-0.347892 0.737101 2.386948 0.000000 0.000000 0.000000
-0.462290 0.580604 2.246285 0.000000 0.000000 0.000000
-0.295558 0.505873 2.122810 0.000000 0.000000 0.000000
-0.489222 0.608842 2.279053 0.000000 0.000000 0.000000
-0.149952 0.498335 2.109166 0.000000 0.000000 0.000000
-0.174865 0.560213 2.164824 0.000000 0.000000 0.000000
-0.257479 0.534162 2.155370 0.000000 0.000000 0.000000
-0.078835 0.674638 2.320205 0.000000 0.000000 0.000000
-0.378947 0.653815 2.308962 0.000000 0.000000 0.000000
-0.347193 0.727453 2.379849 0.000000 0.000000 0.000000
-0.160327 0.670648 2.280449 0.000000 0.000000 0.000000
-0.402280 0.683265 2.328518 0.000000 0.000000 0.000000
-0.356526 0.590984 2.256989 0.000000 0.000000 0.000000
-0.337916 0.623280 2.281058 0.000000 0.000000 0.000000
-0.205210 0.740097 2.346901 0.000000 0.000000 0.000000
-0.224901 0.574508 2.191092 0.000000 0.000000 0.000000
-0.120723 0.676774 2.296594 0.000000 0.000000 0.000000
-0.358261 0.493474 2.155174 0.000000 0.000000 0.000000
-0.366576 0.544450 2.199396 0.000000 0.000000 0.000000
-0.254488 0.473619 2.101156 0.000000 0.000000 0.000000
-0.081880 0.668928 2.301122 0.000000 0.000000 0.000000
-0.237852 0.735352 2.354491 0.000000 0.000000 0.000000
-0.367751 0.518693 2.175976 0.000000 0.000000 0.000000
-0.269165 0.651720 2.284566 0.000000 0.000000 0.000000
-0.380929 0.536388 2.196902 0.000000 0.000000 0.000000
-0.467732 0.583152 2.247732 0.000000 0.000000 0.000000
-0.486174 0.608948 2.281530 0.000000 0.000000 0.000000
-0.497221 0.611360 2.283344 0.000000 0.000000 0.000000
-0.333703 0.512798 2.138118 0.000000 0.000000 0.000000
-0.281891 0.473738 2.103691 0.000000 0.000000 0.000000
-0.241412 0.740703 2.366244 0.000000 0.000000 0.000000
-0.155625 0.723766 2.336995 0.000000 0.000000 0.000000
-0.224044 0.743039 2.354813 0.000000 0.000000 0.000000
-0.349837 0.496443 2.151675 0.000000 0.000000 0.000000
-0.113382 0.686327 2.318780 0.000000 0.000000 0.000000
-0.385060 0.638298 2.299814 0.000000 0.000000 0.000000
-0.058354 0.659675 2.279567 0.000000 0.000000 0.000000
-0.257585 0.732160 2.361952 0.000000 0.000000 0.000000
-0.384545 0.519885 2.179899 0.000000 0.000000 0.000000
-0.249029 0.645361 2.283699 0.000000 0.000000 0.000000
-0.398729 0.517722 2.187026 0.000000 0.000000 0.000000
-0.387727 0.516592 2.189276 0.000000 0.000000 0.000000
-0.228340 0.486958 2.103741 0.000000 0.000000 0.000000
-0.221450 0.468675 2.098057 0.000000 0.000000 0.000000
-0.068622 0.554644 2.124837 0.000000 0.000000 0.000000
-0.242732 0.727936 2.351645 0.000000 0.000000 0.000000
-0.502748 0.665441 2.377378 0.000000 0.000000 0.000000
-0.367996 0.517368 2.172491 0.000000 0.000000 0.000000
-0.366620 0.496919 2.162479 0.000000 0.000000 0.000000
-0.467131 0.678531 2.350034 0.000000 0.000000 0.000000
-0.306642 0.497811 2.117881 0.000000 0.000000 0.000000
-0.353815 0.521354 2.168926 0.000000 0.000000 0.000000
-0.311445 0.500031 2.116087 0.000000 0.000000 0.000000
-0.440430 0.671951 2.338648 0.000000 0.000000 0.000000
-0.475447 0.714694 2.365732 0.000000 0.000000 0.000000
-0.476564 0.664993 2.358088 0.000000 0.000000 0.000000
-0.260459 0.521194 2.135923 0.000000 0.000000 0.000000
-0.358387 0.744189 2.396725 0.000000 0.000000 0.000000
-0.347424 0.693710 2.345200 0.000000 0.000000 0.000000
-0.227006 0.477449 2.104423 0.000000 0.000000 0.000000
-0.271403 0.603451 2.252682 0.000000 0.000000 0.000000
-0.283772 0.475878 2.105545 0.000000 0.000000 0.000000
-0.511067 0.647109 2.378063 0.000000 0.000000 0.000000
-0.306241 0.484976 2.109524 0.000000 0.000000 0.000000
-0.477675 0.660589 2.354156 0.000000 0.000000 0.000000
-0.290750 0.489574 2.113329 0.000000 0.000000 0.000000
-0.496543 0.608725 2.277540 0.000000 0.000000 0.000000
-0.186632 0.637456 2.249339 0.000000 0.000000 0.000000
-0.465828 0.637478 2.313028 0.000000 0.000000 0.000000
-0.422834 0.682713 2.351469 0.000000 0.000000 0.000000
-0.308517 0.496687 2.113403 0.000000 0.000000 0.000000
-0.187673 0.489119 2.108866 0.000000 0.000000 0.000000
-0.282856 0.638575 2.280753 0.000000 0.000000 0.000000
-0.416584 0.675833 2.329648 0.000000 0.000000 0.000000
-0.358025 0.527252 2.179981 0.000000 0.000000 0.000000
-0.278314 0.480617 2.108337 0.000000 0.000000 0.000000
-0.367384 0.523243 2.182294 0.000000 0.000000 0.000000
-0.430734 0.556515 2.222926 0.000000 0.000000 0.000000
-0.369697 0.516475 2.173790 0.000000 0.000000 0.000000
-0.262324 0.486076 2.100879 0.000000 0.000000 0.000000
-0.341484 0.512195 2.156845 0.000000 0.000000 0.000000
-0.478283 0.746551 2.370978 0.000000 0.000000 0.000000
-0.250103 0.728620 2.356031 0.000000 0.000000 0.000000
-0.327973 0.693916 2.337798 0.000000 0.000000 0.000000
-0.362039 0.508396 2.168074 0.000000 0.000000 0.000000
-0.296233 0.483840 2.110431 0.000000 0.000000 0.000000
-0.509022 0.654048 2.379484 0.000000 0.000000 0.000000
-0.245096 0.742311 2.369240 0.000000 0.000000 0.000000
-0.243673 0.734383 2.356681 0.000000 0.000000 0.000000
-0.461476 0.563815 2.235770 0.000000 0.000000 0.000000
-0.231396 0.673508 2.303601 0.000000 0.000000 0.000000
-0.450369 0.564787 2.235276 0.000000 0.000000 0.000000
-0.447794 0.570264 2.240243 0.000000 0.000000 0.000000
-0.270162 0.730120 2.362011 0.000000 0.000000 0.000000
-0.299999 0.698789 2.343251 0.000000 0.000000 0.000000
-0.185680 0.746076 2.344788 0.000000 0.000000 0.000000
-0.357834 0.519225 2.171005 0.000000 0.000000 0.000000
-0.247255 0.470514 2.096478 0.000000 0.000000 0.000000
-0.233586 0.474392 2.097252 0.000000 0.000000 0.000000
-0.500034 0.654904 2.370978 0.000000 0.000000 0.000000
-0.250000 0.737742 2.370472 0.000000 0.000000 0.000000
-0.261251 0.728293 2.356269 0.000000 0.000000 0.000000
-0.280577 0.726511 2.354139 0.000000 0.000000 0.000000
-0.006410 0.596649 2.120862 0.000000 0.000000 0.000000
-0.343486 0.652790 2.299645 0.000000 0.000000 0.000000
-0.256504 0.688444 2.318352 0.000000 0.000000 0.000000
-0.216262 0.732062 2.345560 0.000000 0.000000 0.000000
-0.277139 0.474728 2.105024 0.000000 0.000000 0.000000
-0.062972 0.553107 2.115114 0.000000 0.000000 0.000000
-0.246818 0.488359 2.109568 0.000000 0.000000 0.000000
-0.460924 0.736674 2.375581 0.000000 0.000000 0.000000
-0.152249 0.497270 2.109334 0.000000 0.000000 0.000000
-0.464600 0.747236 2.389781 0.000000 0.000000 0.000000
-0.474880 0.749411 2.381782 0.000000 0.000000 0.000000
-0.187384 0.604715 2.214814 0.000000 0.000000 0.000000
-0.278350 0.479765 2.105404 0.000000 0.000000 0.000000
-0.043510 0.577695 2.139422 0.000000 0.000000 0.000000
-0.073072 0.542478 2.112260 0.000000 0.000000 0.000000
-0.008135 0.587892 2.173190 0.000000 0.000000 0.000000
-0.240267 0.472399 2.098881 0.000000 0.000000 0.000000
-0.333650 0.510942 2.127443 0.000000 0.000000 0.000000
-0.505677 0.621679 2.298090 0.000000 0.000000 0.000000
-0.328377 0.747332 2.391299 0.000000 0.000000 0.000000
-0.108509 0.568729 2.146935 0.000000 0.000000 0.000000
-0.507117 0.668804 2.375383 0.000000 0.000000 0.000000
-0.324785 0.514352 2.131835 0.000000 0.000000 0.000000
-0.466420 0.749672 2.389094 0.000000 0.000000 0.000000
-0.113604 0.595449 2.172802 0.000000 0.000000 0.000000
-0.427774 0.719856 2.379491 0.000000 0.000000 0.000000
-0.071955 0.651692 2.267388 0.000000 0.000000 0.000000
-0.505191 0.672441 2.380465 0.000000 0.000000 0.000000
-0.104138 0.591702 2.167547 0.000000 0.000000 0.000000
-0.455341 0.742831 2.385075 0.000000 0.000000 0.000000
-0.062909 0.569592 2.128375 0.000000 0.000000 0.000000
-0.114929 0.680256 2.306544 0.000000 0.000000 0.000000
-0.273344 0.592937 2.244187 0.000000 0.000000 0.000000
-0.229947 0.685411 2.313271 0.000000 0.000000 0.000000
-0.472795 0.746679 2.380723 0.000000 0.000000 0.000000
-0.322968 0.520059 2.134635 0.000000 0.000000 0.000000
-0.382919 0.522525 2.185811 0.000000 0.000000 0.000000
-0.367454 0.741175 2.395904 0.000000 0.000000 0.000000
-0.485484 0.596562 2.261826 0.000000 0.000000 0.000000
-0.510781 0.642162 2.373443 0.000000 0.000000 0.000000
-0.470945 0.579873 2.245189 0.000000 0.000000 0.000000
-0.262469 0.474862 2.102363 0.000000 0.000000 0.000000
-0.122729 0.570193 2.148219 0.000000 0.000000 0.000000
-0.374478 0.502359 2.169956 0.000000 0.000000 0.000000
-0.260304 0.592327 2.238532 0.000000 0.000000 0.000000
-0.482277 0.628178 2.311279 0.000000 0.000000 0.000000
-0.451729 0.705153 2.349133 0.000000 0.000000 0.000000
-0.377034 0.506272 2.173774 0.000000 0.000000 0.000000
-0.371792 0.622424 2.286459 0.000000 0.000000 0.000000
-0.424542 0.534533 2.197573 0.000000 0.000000 0.000000
-0.019365 0.589843 2.110937 0.000000 0.000000 0.000000
-0.469809 0.736726 2.370840 0.000000 0.000000 0.000000
-0.347436 0.636499 2.294387 0.000000 0.000000 0.000000
-0.424577 0.650576 2.324128 0.000000 0.000000 0.000000
-0.323184 0.507119 2.119465 0.000000 0.000000 0.000000
-0.403196 0.526933 2.189990 0.000000 0.000000 0.000000
-0.261368 0.620787 2.263056 0.000000 0.000000 0.000000
-0.068826 0.575722 2.133569 0.000000 0.000000 0.000000
-0.018753 0.587735 2.113212 0.000000 0.000000 0.000000
-0.385922 0.516970 2.186129 0.000000 0.000000 0.000000
-0.367907 0.511198 2.169010 0.000000 0.000000 0.000000
-0.334480 0.564882 2.217758 0.000000 0.000000 0.000000
-0.387728 0.732382 2.387419 0.000000 0.000000 0.000000
-0.434301 0.544678 2.206159 0.000000 0.000000 0.000000
-0.303305 0.481531 2.104881 0.000000 0.000000 0.000000
-0.011616 0.587696 2.111113 0.000000 0.000000 0.000000
-0.441683 0.737251 2.381847 0.000000 0.000000 0.000000
-0.360909 0.665722 2.319432 0.000000 0.000000 0.000000
-0.440306 0.561536 2.229994 0.000000 0.000000 0.000000
-0.447651 0.677521 2.345352 0.000000 0.000000 0.000000
-0.322812 0.579045 2.241103 0.000000 0.000000 0.000000
-0.196256 0.693068 2.300643 0.000000 0.000000 0.000000
-0.411825 0.544957 2.206596 0.000000 0.000000 0.000000
-0.400881 0.520212 2.186088 0.000000 0.000000 0.000000
-0.079400 0.536118 2.102542 0.000000 0.000000 0.000000
-0.509568 0.656994 2.387166 0.000000 0.000000 0.000000
-0.340499 0.731044 2.380726 0.000000 0.000000 0.000000
-0.503944 0.664832 2.376111 0.000000 0.000000 0.000000
-0.478241 0.581637 2.246643 0.000000 0.000000 0.000000
-0.510234 0.623059 2.294605 0.000000 0.000000 0.000000
-0.468419 0.568531 2.237446 0.000000 0.000000 0.000000
-0.377432 0.738016 2.390078 0.000000 0.000000 0.000000
-0.283480 0.486961 2.104800 0.000000 0.000000 0.000000
-0.419744 0.542334 2.203606 0.000000 0.000000 0.000000
-0.513415 0.664081 2.387904 0.000000 0.000000 0.000000
-0.465194 0.585571 2.249497 0.000000 0.000000 0.000000
-0.181854 0.476091 2.098082 0.000000 0.000000 0.000000
-0.366926 0.739006 2.392597 0.000000 0.000000 0.000000
-0.020015 0.579390 2.117323 0.000000 0.000000 0.000000
-0.503111 0.662114 2.377392 0.000000 0.000000 0.000000
-0.430090 0.548310 2.212959 0.000000 0.000000 0.000000
-0.375069 0.517937 2.177249 0.000000 0.000000 0.000000
-0.499858 0.676659 2.382570 0.000000 0.000000 0.000000
-0.352611 0.505464 2.154145 0.000000 0.000000 0.000000
-0.385572 0.737722 2.387720 0.000000 0.000000 0.000000
-0.323564 0.490590 2.114137 0.000000 0.000000 0.000000
-0.321598 0.737113 2.381196 0.000000 0.000000 0.000000
-0.168247 0.487752 2.107137 0.000000 0.000000 0.000000
-0.192614 0.478371 2.099430 0.000000 0.000000 0.000000
-0.066359 0.576845 2.143622 0.000000 0.000000 0.000000
-0.333471 0.649800 2.299493 0.000000 0.000000 0.000000
-0.428282 0.563489 2.230594 0.000000 0.000000 0.000000
-0.166922 0.497104 2.107806 0.000000 0.000000 0.000000
-0.211318 0.481031 2.103330 0.000000 0.000000 0.000000
-0.046968 0.573600 2.121836 0.000000 0.000000 0.000000
-0.328496 0.728888 2.377701 0.000000 0.000000 0.000000
-0.043727 0.629211 2.237726 0.000000 0.000000 0.000000
-0.438020 0.630477 2.307940 0.000000 0.000000 0.000000
-0.379016 0.732700 2.393641 0.000000 0.000000 0.000000
-0.190797 0.635983 2.255581 0.000000 0.000000 0.000000
-0.040353 0.565449 2.115100 0.000000 0.000000 0.000000
-0.231728 0.733320 2.352504 0.000000 0.000000 0.000000
-0.042073 0.559857 2.112843 0.000000 0.000000 0.000000
-0.262066 0.693943 2.327000 0.000000 0.000000 0.000000
-0.080168 0.669472 2.301144 0.000000 0.000000 0.000000
-0.163206 0.674393 2.286072 0.000000 0.000000 0.000000
-0.236682 0.487748 2.111307 0.000000 0.000000 0.000000
-0.423991 0.579734 2.251580 0.000000 0.000000 0.000000
-0.198355 0.484007 2.103199 0.000000 0.000000 0.000000
-0.375519 0.725002 2.376143 0.000000 0.000000 0.000000
-0.055982 0.610192 2.190142 0.000000 0.000000 0.000000
-0.460392 0.610940 2.284123 0.000000 0.000000 0.000000
-0.361167 0.731925 2.386333 0.000000 0.000000 0.000000
-0.445328 0.564225 2.234409 0.000000 0.000000 0.000000
-0.391801 0.514378 2.182331 0.000000 0.000000 0.000000
-0.041597 0.559949 2.112653 0.000000 0.000000 0.000000
-0.288482 0.674956 2.312792 0.000000 0.000000 0.000000
-0.397219 0.643272 2.307809 0.000000 0.000000 0.000000
-0.357468 0.519999 2.171589 0.000000 0.000000 0.000000
-0.058163 0.666987 2.297042 0.000000 0.000000 0.000000
-0.404557 0.643036 2.311030 0.000000 0.000000 0.000000
-0.507547 0.673910 2.376870 0.000000 0.000000 0.000000
-0.514047 0.668831 2.383088 0.000000 0.000000 0.000000
-0.392520 0.525038 2.189531 0.000000 0.000000 0.000000
-0.321703 0.498853 2.123785 0.000000 0.000000 0.000000
-0.336552 0.511851 2.115227 0.000000 0.000000 0.000000
-0.503030 0.619383 2.292540 0.000000 0.000000 0.000000
-0.495127 0.666498 2.366012 0.000000 0.000000 0.000000
-0.052778 0.556361 2.112505 0.000000 0.000000 0.000000
-0.441087 0.659519 2.323191 0.000000 0.000000 0.000000
-0.036085 0.565018 2.115397 0.000000 0.000000 0.000000
-0.177624 0.490203 2.108469 0.000000 0.000000 0.000000
-0.216074 0.710108 2.326019 0.000000 0.000000 0.000000
-0.077049 0.638323 2.243145 0.000000 0.000000 0.000000
-0.034945 0.575685 2.126158 0.000000 0.000000 0.000000
-0.410329 0.532036 2.194493 0.000000 0.000000 0.000000
-0.010847 0.579998 2.150988 0.000000 0.000000 0.000000
-0.463982 0.570928 2.238167 0.000000 0.000000 0.000000
-0.487176 0.677731 2.361951 0.000000 0.000000 0.000000
-0.028414 0.632855 2.244010 0.000000 0.000000 0.000000
-0.014285 0.581231 2.119223 0.000000 0.000000 0.000000
-0.025299 0.581602 2.148571 0.000000 0.000000 0.000000
-0.046561 0.549941 2.112822 0.000000 0.000000 0.000000
-0.390451 0.637010 2.302126 0.000000 0.000000 0.000000
-0.179984 0.737725 2.342395 0.000000 0.000000 0.000000
-0.044208 0.636086 2.245143 0.000000 0.000000 0.000000
-0.055418 0.638590 2.249129 0.000000 0.000000 0.000000
-0.171085 0.491517 2.109848 0.000000 0.000000 0.000000
-0.041189 0.562774 2.115909 0.000000 0.000000 0.000000
-0.028645 0.589065 2.139268 0.000000 0.000000 0.000000
-0.064402 0.646691 2.259474 0.000000 0.000000 0.000000
-0.375056 0.656652 2.310097 0.000000 0.000000 0.000000
-0.335405 0.511023 2.145072 0.000000 0.000000 0.000000
-0.264412 0.480755 2.103548 0.000000 0.000000 0.000000
-0.411634 0.524876 2.190281 0.000000 0.000000 0.000000
-0.254961 0.469876 2.096439 0.000000 0.000000 0.000000
-0.380588 0.517169 2.177309 0.000000 0.000000 0.000000
-0.459907 0.709778 2.370292 0.000000 0.000000 0.000000
-0.462163 0.691962 2.374076 0.000000 0.000000 0.000000
-0.459173 0.668931 2.358829 0.000000 0.000000 0.000000
-0.362313 0.507949 2.160834 0.000000 0.000000 0.000000
-0.188952 0.502469 2.111679 0.000000 0.000000 0.000000
-0.109579 0.674263 2.305048 0.000000 0.000000 0.000000
-0.476545 0.579086 2.244069 0.000000 0.000000 0.000000
-0.466529 0.594014 2.262174 0.000000 0.000000 0.000000
-0.455070 0.563485 2.232221 0.000000 0.000000 0.000000
-0.372482 0.661273 2.313874 0.000000 0.000000 0.000000
-0.450245 0.682476 2.364837 0.000000 0.000000 0.000000
-0.459112 0.698162 2.373800 0.000000 0.000000 0.000000
-0.155675 0.513256 2.110166 0.000000 0.000000 0.000000
-0.158719 0.521239 2.118562 0.000000 0.000000 0.000000
-0.325541 0.526255 2.160878 0.000000 0.000000 0.000000
-0.158374 0.503975 2.110015 0.000000 0.000000 0.000000
-0.066981 0.551266 2.116425 0.000000 0.000000 0.000000
-0.149960 0.497281 2.111202 0.000000 0.000000 0.000000
-0.476083 0.593609 2.257873 0.000000 0.000000 0.000000
-0.077908 0.671020 2.306770 0.000000 0.000000 0.000000
-0.458763 0.562814 2.230952 0.000000 0.000000 0.000000
-0.433558 0.730592 2.370564 0.000000 0.000000 0.000000
-0.394317 0.525610 2.189649 0.000000 0.000000 0.000000
-0.177485 0.492869 2.107097 0.000000 0.000000 0.000000
-0.468026 0.715211 2.357848 0.000000 0.000000 0.000000
-0.459895 0.718021 2.359891 0.000000 0.000000 0.000000
-0.453440 0.664464 2.353158 0.000000 0.000000 0.000000
-0.457315 0.727528 2.364893 0.000000 0.000000 0.000000
-0.435786 0.695707 2.352933 0.000000 0.000000 0.000000
-0.069571 0.559366 2.119809 0.000000 0.000000 0.000000
-0.391796 0.533192 2.196194 0.000000 0.000000 0.000000
-0.246908 0.728549 2.357394 0.000000 0.000000 0.000000
-0.387671 0.596377 2.265440 0.000000 0.000000 0.000000
-0.450929 0.708297 2.353359 0.000000 0.000000 0.000000
-0.455920 0.699798 2.349965 0.000000 0.000000 0.000000
-0.417487 0.599108 2.270659 0.000000 0.000000 0.000000
-0.359524 0.625906 2.289443 0.000000 0.000000 0.000000
-0.086339 0.535974 2.104544 0.000000 0.000000 0.000000
-0.421126 0.544136 2.205723 0.000000 0.000000 0.000000
-0.014130 0.593093 2.184970 0.000000 0.000000 0.000000
-0.248042 0.728183 2.350035 0.000000 0.000000 0.000000
-0.347129 0.619453 2.284359 0.000000 0.000000 0.000000
-0.376861 0.514040 2.184800 0.000000 0.000000 0.000000
-0.376327 0.521799 2.184182 0.000000 0.000000 0.000000
-0.413121 0.642710 2.311961 0.000000 0.000000 0.000000
-0.153783 0.494060 2.103494 0.000000 0.000000 0.000000
-0.438032 0.553163 2.214864 0.000000 0.000000 0.000000
-0.467529 0.728085 2.365886 0.000000 0.000000 0.000000
-0.460564 0.724847 2.365529 0.000000 0.000000 0.000000
-0.472106 0.695525 2.355502 0.000000 0.000000 0.000000
-0.065830 0.565334 2.120492 0.000000 0.000000 0.000000
-0.395432 0.522911 2.185467 0.000000 0.000000 0.000000
-0.267035 0.733788 2.366847 0.000000 0.000000 0.000000
-0.326277 0.498612 2.115073 0.000000 0.000000 0.000000
-0.392141 0.630588 2.294023 0.000000 0.000000 0.000000
-0.332391 0.609487 2.269349 0.000000 0.000000 0.000000
-0.462106 0.711368 2.357182 0.000000 0.000000 0.000000
-0.471034 0.691481 2.367747 0.000000 0.000000 0.000000
-0.450745 0.641065 2.317557 0.000000 0.000000 0.000000
-0.295665 0.560331 2.214205 0.000000 0.000000 0.000000
-0.424612 0.615228 2.291135 0.000000 0.000000 0.000000
-0.411121 0.738537 2.394208 0.000000 0.000000 0.000000
-0.416963 0.546746 2.208293 0.000000 0.000000 0.000000
-0.204239 0.483899 2.106940 0.000000 0.000000 0.000000
-0.251723 0.738554 2.370408 0.000000 0.000000 0.000000
-0.304511 0.601062 2.256872 0.000000 0.000000 0.000000
-0.378439 0.521982 2.180479 0.000000 0.000000 0.000000
-0.272076 0.575590 2.209895 0.000000 0.000000 0.000000
-0.449292 0.565747 2.236335 0.000000 0.000000 0.000000
-0.410462 0.636377 2.289970 0.000000 0.000000 0.000000
-0.405796 0.639533 2.307256 0.000000 0.000000 0.000000
-0.477561 0.642505 2.339201 0.000000 0.000000 0.000000
-0.512758 0.673696 2.379838 0.000000 0.000000 0.000000
-0.259652 0.473285 2.102592 0.000000 0.000000 0.000000
-0.404673 0.521648 2.188654 0.000000 0.000000 0.000000
-0.274895 0.490118 2.104109 0.000000 0.000000 0.000000
-0.244953 0.472681 2.098819 0.000000 0.000000 0.000000
-0.407298 0.533505 2.195014 0.000000 0.000000 0.000000
-0.422015 0.544864 2.210065 0.000000 0.000000 0.000000
-0.076718 0.553672 2.121821 0.000000 0.000000 0.000000
-0.364178 0.500969 2.153718 0.000000 0.000000 0.000000
-0.516806 0.672555 2.387814 0.000000 0.000000 0.000000
-0.495365 0.664677 2.362660 0.000000 0.000000 0.000000
-0.424925 0.540607 2.205008 0.000000 0.000000 0.000000
-0.368317 0.504405 2.168041 0.000000 0.000000 0.000000
-0.418405 0.539481 2.195825 0.000000 0.000000 0.000000
-0.498463 0.670395 2.374447 0.000000 0.000000 0.000000
-0.410623 0.534844 2.193457 0.000000 0.000000 0.000000
-0.429973 0.546960 2.210424 0.000000 0.000000 0.000000
-0.454805 0.566729 2.238338 0.000000 0.000000 0.000000
-0.404421 0.527468 2.192297 0.000000 0.000000 0.000000
-0.419954 0.544780 2.203742 0.000000 0.000000 0.000000
-0.430455 0.550739 2.212734 0.000000 0.000000 0.000000
-0.401816 0.519666 2.188879 0.000000 0.000000 0.000000
-0.391618 0.523926 2.190611 0.000000 0.000000 0.000000
-0.511217 0.674797 2.388724 0.000000 0.000000 0.000000
-0.061019 0.568357 2.123216 0.000000 0.000000 0.000000
-0.426822 0.537774 2.202945 0.000000 0.000000 0.000000
-0.407672 0.541729 2.198042 0.000000 0.000000 0.000000
-0.505091 0.678537 2.383023 0.000000 0.000000 0.000000
-0.468462 0.571097 2.240488 0.000000 0.000000 0.000000
-0.389294 0.524869 2.188019 0.000000 0.000000 0.000000
-0.415964 0.539513 2.199960 0.000000 0.000000 0.000000
-0.417366 0.558376 2.211165 0.000000 0.000000 0.000000
-0.403874 0.521136 2.190032 0.000000 0.000000 0.000000
-0.493562 0.671386 2.370434 0.000000 0.000000 0.000000
-0.087519 0.563150 2.135839 0.000000 0.000000 0.000000
-0.295586 0.608957 2.264878 0.000000 0.000000 0.000000
-0.261909 0.469349 2.099791 0.000000 0.000000 0.000000
-0.506134 0.678452 2.375645 0.000000 0.000000 0.000000
-0.511250 0.650635 2.380603 0.000000 0.000000 0.000000
-0.352415 0.501744 2.145046 0.000000 0.000000 0.000000
-0.329469 0.510051 2.122408 0.000000 0.000000 0.000000
-0.216827 0.482656 2.105755 0.000000 0.000000 0.000000
-0.517181 0.674458 2.386777 0.000000 0.000000 0.000000
-0.418592 0.532638 2.196491 0.000000 0.000000 0.000000
-0.471679 0.753254 2.386461 0.000000 0.000000 0.000000
-0.173760 0.481104 2.101573 0.000000 0.000000 0.000000
-0.331410 0.741287 2.384317 0.000000 0.000000 0.000000
-0.154299 0.516487 2.121722 0.000000 0.000000 0.000000
-0.460075 0.746157 2.390080 0.000000 0.000000 0.000000
-0.038973 0.619417 2.221385 0.000000 0.000000 0.000000
-0.226386 0.698816 2.317404 0.000000 0.000000 0.000000
-0.461644 0.746320 2.393744 0.000000 0.000000 0.000000
-0.437591 0.560146 2.225685 0.000000 0.000000 0.000000
-0.247436 0.468745 2.094742 0.000000 0.000000 0.000000
-0.140054 0.516184 2.115302 0.000000 0.000000 0.000000
-0.497284 0.605490 2.273005 0.000000 0.000000 0.000000
-0.165169 0.483701 2.104734 0.000000 0.000000 0.000000
-0.199158 0.708454 2.323524 0.000000 0.000000 0.000000
-0.452874 0.744484 2.388610 0.000000 0.000000 0.000000
-0.301333 0.489503 2.113202 0.000000 0.000000 0.000000
-0.445868 0.561248 2.227308 0.000000 0.000000 0.000000
-0.095615 0.533361 2.114377 0.000000 0.000000 0.000000
-0.180741 0.702799 2.307895 0.000000 0.000000 0.000000
-0.443436 0.732810 2.375572 0.000000 0.000000 0.000000
-0.004430 0.592067 2.143254 0.000000 0.000000 0.000000
-0.112500 0.513009 2.115309 0.000000 0.000000 0.000000
-0.420670 0.533610 2.192213 0.000000 0.000000 0.000000
-0.356939 0.495481 2.147399 0.000000 0.000000 0.000000
-0.469326 0.748902 2.390802 0.000000 0.000000 0.000000
-0.269107 0.478562 2.103090 0.000000 0.000000 0.000000
-0.162927 0.497622 2.109128 0.000000 0.000000 0.000000
-0.013175 0.585269 2.146766 0.000000 0.000000 0.000000
-0.466253 0.587577 2.251932 0.000000 0.000000 0.000000
-0.369286 0.509133 2.167935 0.000000 0.000000 0.000000
-0.030967 0.585865 2.153011 0.000000 0.000000 0.000000
-0.374822 0.500996 2.169883 0.000000 0.000000 0.000000
-0.297058 0.570122 2.215739 0.000000 0.000000 0.000000
-0.166268 0.497842 2.108311 0.000000 0.000000 0.000000
-0.475018 0.592058 2.256377 0.000000 0.000000 0.000000
-0.357318 0.517006 2.171512 0.000000 0.000000 0.000000
-0.010098 0.584740 2.156186 0.000000 0.000000 0.000000
-0.150444 0.716387 2.335242 0.000000 0.000000 0.000000
-0.385991 0.546420 2.197498 0.000000 0.000000 0.000000
-0.390926 0.515850 2.186512 0.000000 0.000000 0.000000
-0.458048 0.747066 2.395979 0.000000 0.000000 0.000000
-0.517591 0.679996 2.385327 0.000000 0.000000 0.000000
-0.390273 0.518200 2.184777 0.000000 0.000000 0.000000
-0.364090 0.497991 2.157937 0.000000 0.000000 0.000000
-0.379031 0.513139 2.178249 0.000000 0.000000 0.000000
-0.201745 0.479628 2.100431 0.000000 0.000000 0.000000
-0.359871 0.497589 2.153237 0.000000 0.000000 0.000000
-0.153433 0.710178 2.324644 0.000000 0.000000 0.000000
-0.436087 0.546982 2.210109 0.000000 0.000000 0.000000
-0.103902 0.680443 2.316247 0.000000 0.000000 0.000000
-0.360076 0.497420 2.156604 0.000000 0.000000 0.000000
-0.296193 0.479944 2.106456 0.000000 0.000000 0.000000
-0.396910 0.552539 2.216699 0.000000 0.000000 0.000000
-0.509708 0.665693 2.376726 0.000000 0.000000 0.000000
-0.389351 0.542444 2.201814 0.000000 0.000000 0.000000
-0.169771 0.481226 2.103552 0.000000 0.000000 0.000000
-0.477100 0.584797 2.246497 0.000000 0.000000 0.000000
-0.270348 0.474214 2.105390 0.000000 0.000000 0.000000
-0.511329 0.640533 2.374132 0.000000 0.000000 0.000000
-0.464241 0.573706 2.242647 0.000000 0.000000 0.000000
-0.512636 0.654168 2.385161 0.000000 0.000000 0.000000
-0.288143 0.519926 2.138509 0.000000 0.000000 0.000000
-0.334455 0.510187 2.144297 0.000000 0.000000 0.000000
-0.498911 0.632067 2.319286 0.000000 0.000000 0.000000
-0.330541 0.709081 2.356452 0.000000 0.000000 0.000000
-0.070228 0.566417 2.124545 0.000000 0.000000 0.000000
-0.460855 0.582009 2.248839 0.000000 0.000000 0.000000
-0.452370 0.744298 2.390535 0.000000 0.000000 0.000000
-0.468093 0.574068 2.239018 0.000000 0.000000 0.000000
-0.505733 0.656842 2.385774 0.000000 0.000000 0.000000
-0.166865 0.488371 2.104356 0.000000 0.000000 0.000000
-0.307770 0.524081 2.145067 0.000000 0.000000 0.000000
-0.407379 0.730410 2.381804 0.000000 0.000000 0.000000
-0.347210 0.735821 2.384296 0.000000 0.000000 0.000000
-0.052205 0.586944 2.136836 0.000000 0.000000 0.000000
-0.441038 0.558592 2.226999 0.000000 0.000000 0.000000
-0.355269 0.721724 2.379703 0.000000 0.000000 0.000000
-0.474841 0.583780 2.246618 0.000000 0.000000 0.000000
-0.058173 0.621265 2.213516 0.000000 0.000000 0.000000
-0.137656 0.709151 2.333976 0.000000 0.000000 0.000000
-0.077860 0.664717 2.285874 0.000000 0.000000 0.000000
-0.346957 0.518043 2.164876 0.000000 0.000000 0.000000
-0.072705 0.664484 2.291745 0.000000 0.000000 0.000000
-0.222052 0.484305 2.104160 0.000000 0.000000 0.000000
-0.020553 0.599003 2.187910 0.000000 0.000000 0.000000
-0.041110 0.565405 2.120486 0.000000 0.000000 0.000000
-0.457536 0.559675 2.227136 0.000000 0.000000 0.000000
-0.206728 0.476315 2.102033 0.000000 0.000000 0.000000
-0.434095 0.554087 2.219100 0.000000 0.000000 0.000000
-0.060961 0.591858 2.159043 0.000000 0.000000 0.000000
-0.189389 0.735710 2.342023 0.000000 0.000000 0.000000
-0.322859 0.688574 2.330795 0.000000 0.000000 0.000000
-0.237202 0.681580 2.303174 0.000000 0.000000 0.000000
-0.190440 0.550794 2.155959 0.000000 0.000000 0.000000
-0.301962 0.711637 2.353800 0.000000 0.000000 0.000000
-0.240830 0.707393 2.337979 0.000000 0.000000 0.000000
-0.266471 0.729695 2.357470 0.000000 0.000000 0.000000
-0.448539 0.635978 2.317192 0.000000 0.000000 0.000000
-0.051597 0.614557 2.202160 0.000000 0.000000 0.000000
-0.045557 0.593360 2.159597 0.000000 0.000000 0.000000
-0.205379 0.708629 2.326602 0.000000 0.000000 0.000000
-0.089147 0.658722 2.271814 0.000000 0.000000 0.000000
-0.099946 0.608202 2.195542 0.000000 0.000000 0.000000
-0.086296 0.531324 2.104544 0.000000 0.000000 0.000000
-0.027062 0.592222 2.173158 0.000000 0.000000 0.000000
-0.129819 0.690316 2.316546 0.000000 0.000000 0.000000
-0.228408 0.516132 2.127802 0.000000 0.000000 0.000000
-0.206168 0.481602 2.104964 0.000000 0.000000 0.000000
-0.147827 0.709924 2.330374 0.000000 0.000000 0.000000
-0.070163 0.608663 2.190021 0.000000 0.000000 0.000000
-0.072123 0.599883 2.180025 0.000000 0.000000 0.000000
-0.156990 0.596760 2.197371 0.000000 0.000000 0.000000
-0.082402 0.590098 2.166505 0.000000 0.000000 0.000000
-0.114446 0.589891 2.176618 0.000000 0.000000 0.000000
-0.151264 0.697042 2.307193 0.000000 0.000000 0.000000
-0.305418 0.647457 2.287645 0.000000 0.000000 0.000000
-0.105413 0.574115 2.149214 0.000000 0.000000 0.000000
-0.453997 0.563794 2.228281 0.000000 0.000000 0.000000
-0.139821 0.590787 2.186010 0.000000 0.000000 0.000000
-0.062696 0.611232 2.191019 0.000000 0.000000 0.000000
-0.385909 0.533403 2.194860 0.000000 0.000000 0.000000
-0.306698 0.680691 2.319926 0.000000 0.000000 0.000000
-0.334623 0.540983 2.193287 0.000000 0.000000 0.000000
-0.313119 0.712881 2.360816 0.000000 0.000000 0.000000
-0.372501 0.563130 2.224151 0.000000 0.000000 0.000000
-0.061166 0.583990 2.150763 0.000000 0.000000 0.000000
-0.321305 0.536074 2.178694 0.000000 0.000000 0.000000
-0.037771 0.607592 2.199579 0.000000 0.000000 0.000000
-0.092093 0.607881 2.190032 0.000000 0.000000 0.000000
-0.242408 0.619940 2.243476 0.000000 0.000000 0.000000
-0.082268 0.596955 2.179179 0.000000 0.000000 0.000000
-0.333743 0.536245 2.185528 0.000000 0.000000 0.000000
-0.177462 0.726621 2.332496 0.000000 0.000000 0.000000
-0.207118 0.680593 2.303843 0.000000 0.000000 0.000000
-0.107319 0.682605 2.318813 0.000000 0.000000 0.000000
-0.236808 0.484110 2.105504 0.000000 0.000000 0.000000
-0.325261 0.690845 2.340503 0.000000 0.000000 0.000000
-0.197135 0.734088 2.336603 0.000000 0.000000 0.000000
-0.032360 0.602637 2.191695 0.000000 0.000000 0.000000
-0.325737 0.521235 2.153095 0.000000 0.000000 0.000000
-0.141512 0.700872 2.321141 0.000000 0.000000 0.000000
-0.378071 0.516433 2.181942 0.000000 0.000000 0.000000
-0.106998 0.662266 2.272969 0.000000 0.000000 0.000000
-0.427859 0.629667 2.300214 0.000000 0.000000 0.000000
-0.349663 0.709061 2.356550 0.000000 0.000000 0.000000
-0.027912 0.587687 2.148837 0.000000 0.000000 0.000000
-0.384127 0.710982 2.369444 0.000000 0.000000 0.000000
-0.071467 0.597861 2.183575 0.000000 0.000000 0.000000
-0.186758 0.510467 2.122048 0.000000 0.000000 0.000000
-0.124797 0.686328 2.311584 0.000000 0.000000 0.000000
-0.046511 0.598428 2.179644 0.000000 0.000000 0.000000
-0.078974 0.617660 2.208467 0.000000 0.000000 0.000000
-0.124843 0.673842 2.296139 0.000000 0.000000 0.000000
-0.031307 0.593863 2.175821 0.000000 0.000000 0.000000
-0.317303 0.569016 2.228549 0.000000 0.000000 0.000000
-0.330883 0.532415 2.179504 0.000000 0.000000 0.000000
-0.207892 0.695434 2.318175 0.000000 0.000000 0.000000
-0.216797 0.490588 2.111685 0.000000 0.000000 0.000000
-0.107710 0.586553 2.166754 0.000000 0.000000 0.000000
-0.035389 0.600644 2.171975 0.000000 0.000000 0.000000
-0.133674 0.609168 2.201458 0.000000 0.000000 0.000000
-0.129075 0.615769 2.209596 0.000000 0.000000 0.000000
-0.130804 0.635945 2.239465 0.000000 0.000000 0.000000
-0.103665 0.594947 2.171967 0.000000 0.000000 0.000000
-0.354773 0.691846 2.341596 0.000000 0.000000 0.000000
-0.138511 0.613834 2.214405 0.000000 0.000000 0.000000
-0.238434 0.704544 2.331578 0.000000 0.000000 0.000000
-0.410433 0.572137 2.240419 0.000000 0.000000 0.000000
-0.263901 0.589512 2.228807 0.000000 0.000000 0.000000
-0.199298 0.671497 2.287627 0.000000 0.000000 0.000000
-0.384764 0.566893 2.227636 0.000000 0.000000 0.000000
-0.395755 0.613512 2.282727 0.000000 0.000000 0.000000
-0.150836 0.719111 2.337888 0.000000 0.000000 0.000000
-0.038896 0.602152 2.185019 0.000000 0.000000 0.000000
-0.233895 0.669487 2.298370 0.000000 0.000000 0.000000
-0.127329 0.603823 2.197791 0.000000 0.000000 0.000000
-0.162100 0.655024 2.262979 0.000000 0.000000 0.000000
-0.306796 0.645215 2.275708 0.000000 0.000000 0.000000
-0.130603 0.682505 2.297830 0.000000 0.000000 0.000000
-0.167519 0.696198 2.307539 0.000000 0.000000 0.000000
-0.238058 0.696210 2.323367 0.000000 0.000000 0.000000
-0.262802 0.622290 2.248167 0.000000 0.000000 0.000000
-0.222630 0.638464 2.262704 0.000000 0.000000 0.000000
-0.296452 0.533302 2.164000 0.000000 0.000000 0.000000
-0.018651 0.599047 2.196030 0.000000 0.000000 0.000000
-0.225248 0.612836 2.237364 0.000000 0.000000 0.000000
-0.326751 0.589948 2.254164 0.000000 0.000000 0.000000
-0.178875 0.661296 2.268799 0.000000 0.000000 0.000000
-0.364115 0.701442 2.355956 0.000000 0.000000 0.000000
-0.091579 0.673920 2.309862 0.000000 0.000000 0.000000
-0.112568 0.669572 2.287054 0.000000 0.000000 0.000000
-0.255442 0.541807 2.174494 0.000000 0.000000 0.000000
-0.149510 0.611771 2.211474 0.000000 0.000000 0.000000
-0.099648 0.669029 2.291975 0.000000 0.000000 0.000000
-0.397846 0.601927 2.271252 0.000000 0.000000 0.000000
-0.438705 0.656124 2.339510 0.000000 0.000000 0.000000
-0.095392 0.670514 2.300950 0.000000 0.000000 0.000000
-0.315183 0.654796 2.297868 0.000000 0.000000 0.000000
-0.317978 0.538632 2.186014 0.000000 0.000000 0.000000
-0.342247 0.688386 2.344421 0.000000 0.000000 0.000000
-0.295319 0.698742 2.343328 0.000000 0.000000 0.000000
-0.336401 0.648341 2.301568 0.000000 0.000000 0.000000
-0.195376 0.557258 2.167833 0.000000 0.000000 0.000000
-0.099367 0.670988 2.298334 0.000000 0.000000 0.000000
-0.070878 0.599186 2.173141 0.000000 0.000000 0.000000
-0.323658 0.692795 2.339387 0.000000 0.000000 0.000000
-0.044527 0.602326 2.179554 0.000000 0.000000 0.000000
-0.210987 0.649892 2.262459 0.000000 0.000000 0.000000
-0.359855 0.651971 2.305080 0.000000 0.000000 0.000000
-0.302130 0.684997 2.330223 0.000000 0.000000 0.000000
-0.398758 0.590418 2.262922 0.000000 0.000000 0.000000
-0.294579 0.662372 2.299206 0.000000 0.000000 0.000000
-0.114938 0.687146 2.326690 0.000000 0.000000 0.000000
-0.118983 0.690173 2.320060 0.000000 0.000000 0.000000
-0.156613 0.609684 2.213100 0.000000 0.000000 0.000000
-0.326503 0.597688 2.254626 0.000000 0.000000 0.000000
-0.250573 0.566782 2.200769 0.000000 0.000000 0.000000
-0.210227 0.665668 2.284081 0.000000 0.000000 0.000000
-0.164912 0.525107 2.131517 0.000000 0.000000 0.000000
-0.369059 0.642194 2.301716 0.000000 0.000000 0.000000
-0.355459 0.496856 2.148106 0.000000 0.000000 0.000000
-0.132005 0.601376 2.185999 0.000000 0.000000 0.000000
-0.164968 0.576498 2.176250 0.000000 0.000000 0.000000
-0.146031 0.555917 2.142770 0.000000 0.000000 0.000000
-0.430694 0.643355 2.323662 0.000000 0.000000 0.000000
-0.024312 0.596379 2.113537 0.000000 0.000000 0.000000
-0.368371 0.650123 2.304305 0.000000 0.000000 0.000000
-0.080513 0.661206 2.282261 0.000000 0.000000 0.000000
-0.041981 0.630575 2.236615 0.000000 0.000000 0.000000
-0.084288 0.623445 2.214757 0.000000 0.000000 0.000000
-0.473015 0.640268 2.327956 0.000000 0.000000 0.000000
-0.016716 0.582943 2.155186 0.000000 0.000000 0.000000
-0.082246 0.662022 2.288023 0.000000 0.000000 0.000000
-0.064008 0.559362 2.129112 0.000000 0.000000 0.000000
-0.011021 0.588119 2.120069 0.000000 0.000000 0.000000
-0.025551 0.581141 2.147894 0.000000 0.000000 0.000000
-0.107256 0.681071 2.316565 0.000000 0.000000 0.000000
-0.075026 0.664370 2.289001 0.000000 0.000000 0.000000
-0.446324 0.682495 2.366845 0.000000 0.000000 0.000000
-0.089876 0.677235 2.317212 0.000000 0.000000 0.000000
-0.420797 0.558929 2.221569 0.000000 0.000000 0.000000
-0.162480 0.501607 2.110962 0.000000 0.000000 0.000000
-0.037937 0.598580 2.176602 0.000000 0.000000 0.000000
-0.194083 0.698925 2.306165 0.000000 0.000000 0.000000
-0.127786 0.646509 2.250510 0.000000 0.000000 0.000000
-0.124620 0.707516 2.338969 0.000000 0.000000 0.000000
-0.143385 0.707279 2.326986 0.000000 0.000000 0.000000
-0.475461 0.580457 2.245693 0.000000 0.000000 0.000000
-0.151570 0.717332 2.332433 0.000000 0.000000 0.000000
-0.121855 0.689067 2.317380 0.000000 0.000000 0.000000
-0.074790 0.545177 2.112373 0.000000 0.000000 0.000000
-0.334835 0.733219 2.383169 0.000000 0.000000 0.000000
-0.020060 0.591718 2.144569 0.000000 0.000000 0.000000
-0.140208 0.590508 2.182901 0.000000 0.000000 0.000000
-0.172567 0.723349 2.331092 0.000000 0.000000 0.000000
-0.292181 0.687621 2.332841 0.000000 0.000000 0.000000
-0.321432 0.711290 2.352153 0.000000 0.000000 0.000000
-0.229201 0.688782 2.311639 0.000000 0.000000 0.000000
-0.157180 0.559491 2.152522 0.000000 0.000000 0.000000
-0.303840 0.689484 2.335429 0.000000 0.000000 0.000000
-0.281918 0.666239 2.313988 0.000000 0.000000 0.000000
-0.294822 0.716801 2.353506 0.000000 0.000000 0.000000
-0.390193 0.694802 2.340164 0.000000 0.000000 0.000000
-0.043824 0.604223 2.183321 0.000000 0.000000 0.000000
-0.194591 0.721619 2.330262 0.000000 0.000000 0.000000
-0.104453 0.667511 2.282887 0.000000 0.000000 0.000000
-0.092281 0.619497 2.211859 0.000000 0.000000 0.000000
-0.026692 0.591425 2.159620 0.000000 0.000000 0.000000
-0.125082 0.692751 2.321120 0.000000 0.000000 0.000000
-0.102816 0.680682 2.318022 0.000000 0.000000 0.000000
-0.111567 0.689196 2.327336 0.000000 0.000000 0.000000
-0.502984 0.617680 2.294186 0.000000 0.000000 0.000000
-0.185960 0.671112 2.287888 0.000000 0.000000 0.000000
-0.085632 0.611900 2.192660 0.000000 0.000000 0.000000
-0.143570 0.596932 2.184740 0.000000 0.000000 0.000000
-0.120476 0.604481 2.192212 0.000000 0.000000 0.000000
-0.149921 0.583230 2.172879 0.000000 0.000000 0.000000
-0.445133 0.557961 2.225712 0.000000 0.000000 0.000000
-0.100996 0.604746 2.186660 0.000000 0.000000 0.000000
-0.178727 0.592185 2.198163 0.000000 0.000000 0.000000
-0.074100 0.621106 2.209445 0.000000 0.000000 0.000000
-0.347129 0.544623 2.196835 0.000000 0.000000 0.000000
-0.449713 0.564291 2.227503 0.000000 0.000000 0.000000
-0.287800 0.689246 2.331203 0.000000 0.000000 0.000000
-0.340297 0.533538 2.183108 0.000000 0.000000 0.000000
-0.338805 0.565689 2.227182 0.000000 0.000000 0.000000
-0.056308 0.595478 2.163892 0.000000 0.000000 0.000000
-0.101284 0.568610 2.144386 0.000000 0.000000 0.000000
-0.371776 0.527280 2.183507 0.000000 0.000000 0.000000
-0.061935 0.607050 2.190859 0.000000 0.000000 0.000000
-0.120648 0.583877 2.167169 0.000000 0.000000 0.000000
-0.169282 0.709006 2.313854 0.000000 0.000000 0.000000
-0.092552 0.610558 2.194981 0.000000 0.000000 0.000000
-0.182042 0.725716 2.332428 0.000000 0.000000 0.000000
-0.211421 0.695482 2.314683 0.000000 0.000000 0.000000
-0.086470 0.672688 2.308207 0.000000 0.000000 0.000000
-0.086939 0.605733 2.185507 0.000000 0.000000 0.000000
-0.225558 0.501227 2.118893 0.000000 0.000000 0.000000
-0.294323 0.659641 2.303050 0.000000 0.000000 0.000000
-0.166795 0.701002 2.308893 0.000000 0.000000 0.000000
-0.352986 0.521057 2.167150 0.000000 0.000000 0.000000
-0.155725 0.711012 2.324071 0.000000 0.000000 0.000000
-0.140855 0.712323 2.336707 0.000000 0.000000 0.000000
-0.126520 0.686240 2.308159 0.000000 0.000000 0.000000
-0.069542 0.613125 2.196936 0.000000 0.000000 0.000000
-0.288898 0.719742 2.354436 0.000000 0.000000 0.000000
-0.328537 0.558464 2.212445 0.000000 0.000000 0.000000
-0.116647 0.672168 2.290594 0.000000 0.000000 0.000000
-0.317183 0.713679 2.358430 0.000000 0.000000 0.000000
-0.353362 0.677418 2.331609 0.000000 0.000000 0.000000
-0.074802 0.615353 2.204913 0.000000 0.000000 0.000000
-0.216389 0.499097 2.105773 0.000000 0.000000 0.000000
-0.111019 0.682205 2.312613 0.000000 0.000000 0.000000
-0.038523 0.598261 2.175204 0.000000 0.000000 0.000000
-0.135043 0.616270 2.212888 0.000000 0.000000 0.000000
-0.116857 0.681077 2.305565 0.000000 0.000000 0.000000
-0.314009 0.536132 2.174817 0.000000 0.000000 0.000000
-0.336351 0.530288 2.174371 0.000000 0.000000 0.000000
-0.193192 0.736501 2.335154 0.000000 0.000000 0.000000
-0.110228 0.655448 2.263137 0.000000 0.000000 0.000000
-0.100723 0.598070 2.179218 0.000000 0.000000 0.000000
-0.131522 0.626933 2.223825 0.000000 0.000000 0.000000
-0.146518 0.644610 2.249104 0.000000 0.000000 0.000000
-0.349314 0.592633 2.261123 0.000000 0.000000 0.000000
-0.066712 0.605878 2.183123 0.000000 0.000000 0.000000
-0.370743 0.695308 2.349049 0.000000 0.000000 0.000000
-0.185860 0.659591 2.284558 0.000000 0.000000 0.000000
-0.197766 0.729212 2.336906 0.000000 0.000000 0.000000
-0.107815 0.677998 2.308282 0.000000 0.000000 0.000000
-0.422178 0.621470 2.289616 0.000000 0.000000 0.000000
-0.178189 0.604138 2.200826 0.000000 0.000000 0.000000
-0.494245 0.609962 2.279903 0.000000 0.000000 0.000000
-0.195656 0.675464 2.291479 0.000000 0.000000 0.000000
-0.222703 0.699288 2.323428 0.000000 0.000000 0.000000
-0.387961 0.587402 2.248250 0.000000 0.000000 0.000000
-0.441971 0.648645 2.327303 0.000000 0.000000 0.000000
-0.162330 0.725488 2.335799 0.000000 0.000000 0.000000
-0.108445 0.621140 2.222256 0.000000 0.000000 0.000000
-0.176495 0.668724 2.285563 0.000000 0.000000 0.000000
-0.276944 0.636218 2.261583 0.000000 0.000000 0.000000
-0.149395 0.689777 2.301221 0.000000 0.000000 0.000000
-0.189818 0.687465 2.303008 0.000000 0.000000 0.000000
-0.259728 0.714609 2.341321 0.000000 0.000000 0.000000
-0.229606 0.579494 2.205340 0.000000 0.000000 0.000000
-0.174598 0.593268 2.192574 0.000000 0.000000 0.000000
-0.117861 0.670339 2.283612 0.000000 0.000000 0.000000
-0.288229 0.661878 2.303834 0.000000 0.000000 0.000000
-0.409570 0.590792 2.260151 0.000000 0.000000 0.000000
-0.145055 0.636233 2.238848 0.000000 0.000000 0.000000
-0.309045 0.692564 2.341069 0.000000 0.000000 0.000000
-0.082572 0.667264 2.300097 0.000000 0.000000 0.000000
-0.021844 0.588599 2.120173 0.000000 0.000000 0.000000
-0.086723 0.659728 2.273884 0.000000 0.000000 0.000000
-0.223779 0.580584 2.200581 0.000000 0.000000 0.000000
-0.147754 0.623059 2.236610 0.000000 0.000000 0.000000
-0.092281 0.665320 2.292386 0.000000 0.000000 0.000000
-0.399612 0.598043 2.270176 0.000000 0.000000 0.000000
-0.444103 0.639544 2.325550 0.000000 0.000000 0.000000
-0.279785 0.565593 2.207500 0.000000 0.000000 0.000000
-0.136595 0.690317 2.308234 0.000000 0.000000 0.000000
-0.341946 0.674792 2.321395 0.000000 0.000000 0.000000
-0.319221 0.547183 2.197313 0.000000 0.000000 0.000000
-0.347375 0.708363 2.354212 0.000000 0.000000 0.000000
-0.259626 0.662105 2.304368 0.000000 0.000000 0.000000
-0.157039 0.704215 2.318359 0.000000 0.000000 0.000000
-0.116233 0.676998 2.298962 0.000000 0.000000 0.000000
-0.096383 0.617286 2.205994 0.000000 0.000000 0.000000
-0.256855 0.672982 2.306983 0.000000 0.000000 0.000000
-0.394834 0.578116 2.243613 0.000000 0.000000 0.000000
-0.388816 0.513319 2.180818 0.000000 0.000000 0.000000
-0.262317 0.659629 2.293727 0.000000 0.000000 0.000000
-0.063432 0.596362 2.168375 0.000000 0.000000 0.000000
-0.136501 0.687527 2.304707 0.000000 0.000000 0.000000
-0.173680 0.616224 2.227229 0.000000 0.000000 0.000000
-0.374866 0.589093 2.251938 0.000000 0.000000 0.000000
-0.221524 0.573721 2.195545 0.000000 0.000000 0.000000
-0.052371 0.610963 2.198346 0.000000 0.000000 0.000000
-0.500705 0.622496 2.302258 0.000000 0.000000 0.000000
-0.212503 0.666381 2.293530 0.000000 0.000000 0.000000
-0.450070 0.559979 2.229473 0.000000 0.000000 0.000000
-0.336159 0.633408 2.272493 0.000000 0.000000 0.000000
-0.179086 0.693506 2.302869 0.000000 0.000000 0.000000
-0.152555 0.574118 2.166655 0.000000 0.000000 0.000000
-0.434704 0.630871 2.307314 0.000000 0.000000 0.000000
-0.338300 0.663460 2.309090 0.000000 0.000000 0.000000
-0.014745 0.597575 2.110605 0.000000 0.000000 0.000000
-0.080918 0.536683 2.102148 0.000000 0.000000 0.000000
-0.091216 0.662908 2.283190 0.000000 0.000000 0.000000
-0.449522 0.595613 2.266637 0.000000 0.000000 0.000000
-0.059014 0.624965 2.223510 0.000000 0.000000 0.000000
-0.380943 0.612513 2.280904 0.000000 0.000000 0.000000
-0.079512 0.652268 2.259646 0.000000 0.000000 0.000000
-0.445231 0.697746 2.359153 0.000000 0.000000 0.000000
-0.404555 0.561016 2.221382 0.000000 0.000000 0.000000
-0.177735 0.699026 2.309474 0.000000 0.000000 0.000000
-0.139946 0.706215 2.328853 0.000000 0.000000 0.000000
-0.167936 0.711730 2.321691 0.000000 0.000000 0.000000
-0.124629 0.696464 2.329635 0.000000 0.000000 0.000000
-0.029260 0.576088 2.120516 0.000000 0.000000 0.000000
-0.078753 0.541527 2.110247 0.000000 0.000000 0.000000
-0.007738 0.617438 2.230339 0.000000 0.000000 0.000000
-0.347466 0.704877 2.358378 0.000000 0.000000 0.000000
-0.231224 0.487706 2.108948 0.000000 0.000000 0.000000
-0.213545 0.472972 2.101501 0.000000 0.000000 0.000000
-0.472289 0.746048 2.380669 0.000000 0.000000 0.000000
-0.331578 0.512180 2.118783 0.000000 0.000000 0.000000
-0.205694 0.485154 2.108319 0.000000 0.000000 0.000000
-0.381897 0.507452 2.173534 0.000000 0.000000 0.000000
-0.470960 0.747947 2.382341 0.000000 0.000000 0.000000
-0.364133 0.499840 2.162755 0.000000 0.000000 0.000000
-0.475577 0.750729 2.381362 0.000000 0.000000 0.000000
-0.349137 0.505138 2.150118 0.000000 0.000000 0.000000
-0.090992 0.662487 2.288968 0.000000 0.000000 0.000000
-0.437489 0.742022 2.391556 0.000000 0.000000 0.000000
-0.195785 0.560256 2.175605 0.000000 0.000000 0.000000
-0.060665 0.616255 2.218062 0.000000 0.000000 0.000000
-0.243525 0.548054 2.176236 0.000000 0.000000 0.000000
-0.365982 0.500298 2.164063 0.000000 0.000000 0.000000
-0.096757 0.676344 2.321992 0.000000 0.000000 0.000000
-0.376787 0.731761 2.383507 0.000000 0.000000 0.000000
-0.052405 0.600063 2.173723 0.000000 0.000000 0.000000
-0.206818 0.560691 2.176870 0.000000 0.000000 0.000000
-0.451081 0.745084 2.391817 0.000000 0.000000 0.000000
-0.189638 0.729116 2.333892 0.000000 0.000000 0.000000
-0.301350 0.480682 2.106919 0.000000 0.000000 0.000000
-0.128381 0.612246 2.202403 0.000000 0.000000 0.000000
-0.471287 0.748512 2.382338 0.000000 0.000000 0.000000
-0.172193 0.737977 2.340547 0.000000 0.000000 0.000000
-0.262577 0.619611 2.261719 0.000000 0.000000 0.000000
-0.453571 0.746880 2.394496 0.000000 0.000000 0.000000
-0.476993 0.751432 2.380356 0.000000 0.000000 0.000000
-0.378215 0.517489 2.188145 0.000000 0.000000 0.000000
-0.364105 0.504460 2.166105 0.000000 0.000000 0.000000
-0.288199 0.477823 2.107050 0.000000 0.000000 0.000000
-0.047652 0.658138 2.269699 0.000000 0.000000 0.000000
-0.458526 0.744940 2.393152 0.000000 0.000000 0.000000
