ply
format ascii 1.0
comment VCGLIB generated
obj_info Generated by SPFormer!
element vertex 884
property float x
property float y
property float z
property float nx
property float ny
property float nz
end_header
0.158763 0.754709 1.493687 0.000000 0.000000 0.000000
0.135628 0.718454 1.516015 0.000000 0.000000 0.000000
0.153970 0.757955 1.498029 0.000000 0.000000 0.000000
0.126306 0.760667 1.520029 0.000000 0.000000 0.000000
0.123292 0.767730 1.515496 0.000000 0.000000 0.000000
0.134255 0.744717 1.519886 0.000000 0.000000 0.000000
0.140071 0.766807 1.503135 0.000000 0.000000 0.000000
0.180894 0.713201 1.488629 0.000000 0.000000 0.000000
0.121374 0.745160 1.517394 0.000000 0.000000 0.000000
0.132875 0.756838 1.519146 0.000000 0.000000 0.000000
0.132408 0.773435 1.517031 0.000000 0.000000 0.000000
0.127895 0.795990 1.513143 0.000000 0.000000 0.000000
0.146359 0.758714 1.511654 0.000000 0.000000 0.000000
0.177462 0.720209 1.491069 0.000000 0.000000 0.000000
0.242482 0.606839 1.465710 0.000000 0.000000 0.000000
0.160365 0.783049 1.497291 0.000000 0.000000 0.000000
0.121328 0.775580 1.517953 0.000000 0.000000 0.000000
0.139184 0.716959 1.513796 0.000000 0.000000 0.000000
0.260693 0.581647 1.452931 0.000000 0.000000 0.000000
0.147310 0.725977 1.506544 0.000000 0.000000 0.000000
0.151978 0.700433 1.512029 0.000000 0.000000 0.000000
0.170062 0.677596 1.514754 0.000000 0.000000 0.000000
0.209549 0.660795 1.491276 0.000000 0.000000 0.000000
0.218766 0.661285 1.471754 0.000000 0.000000 0.000000
0.146356 0.739042 1.512497 0.000000 0.000000 0.000000
0.176284 0.711431 1.493940 0.000000 0.000000 0.000000
0.130800 0.733526 1.516157 0.000000 0.000000 0.000000
0.195901 0.670958 1.501991 0.000000 0.000000 0.000000
0.238105 0.619305 1.464427 0.000000 0.000000 0.000000
0.163421 0.704966 1.502194 0.000000 0.000000 0.000000
0.147094 0.717626 1.523838 0.000000 0.000000 0.000000
0.170444 0.729665 1.502367 0.000000 0.000000 0.000000
0.171157 0.769806 1.495658 0.000000 0.000000 0.000000
0.256659 0.586713 1.456394 0.000000 0.000000 0.000000
0.168682 0.764557 1.492771 0.000000 0.000000 0.000000
0.171231 0.664749 1.517934 0.000000 0.000000 0.000000
0.185904 0.647646 1.519788 0.000000 0.000000 0.000000
0.237298 0.626501 1.463139 0.000000 0.000000 0.000000
0.188160 0.638376 1.504083 0.000000 0.000000 0.000000
0.149897 0.721183 1.506048 0.000000 0.000000 0.000000
0.259167 0.590632 1.463141 0.000000 0.000000 0.000000
0.125371 0.769516 1.517995 0.000000 0.000000 0.000000
0.193961 0.633079 1.504208 0.000000 0.000000 0.000000
0.178801 0.653523 1.516688 0.000000 0.000000 0.000000
0.238712 0.623507 1.462755 0.000000 0.000000 0.000000
0.185376 0.639549 1.509931 0.000000 0.000000 0.000000
0.167265 0.678939 1.526213 0.000000 0.000000 0.000000
0.258364 0.582086 1.459245 0.000000 0.000000 0.000000
0.246101 0.592198 1.471860 0.000000 0.000000 0.000000
0.165627 0.676891 1.523604 0.000000 0.000000 0.000000
0.256925 0.590051 1.454466 0.000000 0.000000 0.000000
0.120028 0.775206 1.508848 0.000000 0.000000 0.000000
0.133739 0.810476 1.504716 0.000000 0.000000 0.000000
0.145813 0.808206 1.499520 0.000000 0.000000 0.000000
0.146907 0.802580 1.501201 0.000000 0.000000 0.000000
0.132359 0.806835 1.505438 0.000000 0.000000 0.000000
0.130537 0.813600 1.502249 0.000000 0.000000 0.000000
0.159777 0.790567 1.497504 0.000000 0.000000 0.000000
0.179660 0.655138 1.521592 0.000000 0.000000 0.000000
0.245765 0.602474 1.476663 0.000000 0.000000 0.000000
0.247541 0.605859 1.470261 0.000000 0.000000 0.000000
0.231769 0.630601 1.463879 0.000000 0.000000 0.000000
0.212930 0.665970 1.471185 0.000000 0.000000 0.000000
0.245038 0.593691 1.471576 0.000000 0.000000 0.000000
0.215553 0.664558 1.468858 0.000000 0.000000 0.000000
0.234776 0.602062 1.479575 0.000000 0.000000 0.000000
0.222685 0.622375 1.472845 0.000000 0.000000 0.000000
0.215375 0.633658 1.475675 0.000000 0.000000 0.000000
0.232328 0.605779 1.485095 0.000000 0.000000 0.000000
0.253929 0.594823 1.463096 0.000000 0.000000 0.000000
0.231285 0.622738 1.477026 0.000000 0.000000 0.000000
0.252211 0.602409 1.464907 0.000000 0.000000 0.000000
0.214967 0.615611 1.495071 0.000000 0.000000 0.000000
0.244379 0.612648 1.458333 0.000000 0.000000 0.000000
0.226451 0.630605 1.484956 0.000000 0.000000 0.000000
0.244135 0.592554 1.465214 0.000000 0.000000 0.000000
0.113068 0.775526 1.515199 0.000000 0.000000 0.000000
0.249398 0.605842 1.462636 0.000000 0.000000 0.000000
0.218482 0.626691 1.482866 0.000000 0.000000 0.000000
0.207294 0.619685 1.494073 0.000000 0.000000 0.000000
0.218612 0.656928 1.470009 0.000000 0.000000 0.000000
0.242525 0.607775 1.458890 0.000000 0.000000 0.000000
0.242576 0.606835 1.474779 0.000000 0.000000 0.000000
0.252108 0.601560 1.466195 0.000000 0.000000 0.000000
0.238262 0.624525 1.461284 0.000000 0.000000 0.000000
0.243213 0.597410 1.479937 0.000000 0.000000 0.000000
0.230442 0.613658 1.465404 0.000000 0.000000 0.000000
0.232943 0.626391 1.463277 0.000000 0.000000 0.000000
0.242371 0.603218 1.478541 0.000000 0.000000 0.000000
0.224054 0.648378 1.467199 0.000000 0.000000 0.000000
0.192743 0.675654 1.487057 0.000000 0.000000 0.000000
0.201393 0.670516 1.479603 0.000000 0.000000 0.000000
0.220426 0.648258 1.484939 0.000000 0.000000 0.000000
0.240321 0.616773 1.461414 0.000000 0.000000 0.000000
0.214947 0.669061 1.474715 0.000000 0.000000 0.000000
0.176531 0.750168 1.487216 0.000000 0.000000 0.000000
0.206539 0.679498 1.477059 0.000000 0.000000 0.000000
0.162284 0.779434 1.495177 0.000000 0.000000 0.000000
0.210439 0.621645 1.495987 0.000000 0.000000 0.000000
0.207612 0.670262 1.475211 0.000000 0.000000 0.000000
0.207819 0.650596 1.502752 0.000000 0.000000 0.000000
0.206066 0.661708 1.486753 0.000000 0.000000 0.000000
0.212104 0.659409 1.482195 0.000000 0.000000 0.000000
0.195539 0.695857 1.484022 0.000000 0.000000 0.000000
0.206174 0.679031 1.474454 0.000000 0.000000 0.000000
0.256486 0.598712 1.455067 0.000000 0.000000 0.000000
0.262386 0.582606 1.454989 0.000000 0.000000 0.000000
0.170970 0.733441 1.499661 0.000000 0.000000 0.000000
0.229688 0.640386 1.462064 0.000000 0.000000 0.000000
0.146945 0.805557 1.500161 0.000000 0.000000 0.000000
0.137106 0.719271 1.524331 0.000000 0.000000 0.000000
0.248895 0.594181 1.472814 0.000000 0.000000 0.000000
0.205371 0.682542 1.470346 0.000000 0.000000 0.000000
0.137831 0.773219 1.514452 0.000000 0.000000 0.000000
0.143819 0.716788 1.522182 0.000000 0.000000 0.000000
0.180100 0.744512 1.492176 0.000000 0.000000 0.000000
0.254602 0.592494 1.454652 0.000000 0.000000 0.000000
0.224851 0.631479 1.470496 0.000000 0.000000 0.000000
0.140541 0.747890 1.520965 0.000000 0.000000 0.000000
0.140975 0.765271 1.511244 0.000000 0.000000 0.000000
0.135326 0.733313 1.523522 0.000000 0.000000 0.000000
0.158196 0.784892 1.488331 0.000000 0.000000 0.000000
0.127626 0.751561 1.517216 0.000000 0.000000 0.000000
0.156854 0.710859 1.519693 0.000000 0.000000 0.000000
0.128245 0.742051 1.523960 0.000000 0.000000 0.000000
0.118750 0.784190 1.509410 0.000000 0.000000 0.000000
0.150119 0.722543 1.522556 0.000000 0.000000 0.000000
0.143933 0.727106 1.519609 0.000000 0.000000 0.000000
0.160726 0.752850 1.493343 0.000000 0.000000 0.000000
0.146231 0.806292 1.500035 0.000000 0.000000 0.000000
0.198428 0.643839 1.517137 0.000000 0.000000 0.000000
0.181419 0.741959 1.492103 0.000000 0.000000 0.000000
0.170915 0.689129 1.495571 0.000000 0.000000 0.000000
0.203582 0.642987 1.497567 0.000000 0.000000 0.000000
0.223080 0.652760 1.467131 0.000000 0.000000 0.000000
0.200914 0.625913 1.505398 0.000000 0.000000 0.000000
0.224488 0.647638 1.466999 0.000000 0.000000 0.000000
0.205090 0.625615 1.499046 0.000000 0.000000 0.000000
0.192803 0.675233 1.486509 0.000000 0.000000 0.000000
0.181337 0.735387 1.492684 0.000000 0.000000 0.000000
0.168085 0.740234 1.495201 0.000000 0.000000 0.000000
0.192497 0.674840 1.485845 0.000000 0.000000 0.000000
0.188052 0.704637 1.481387 0.000000 0.000000 0.000000
0.180588 0.650666 1.507323 0.000000 0.000000 0.000000
0.191131 0.676459 1.484511 0.000000 0.000000 0.000000
0.188919 0.638443 1.512287 0.000000 0.000000 0.000000
0.176960 0.648733 1.509276 0.000000 0.000000 0.000000
0.189296 0.624817 1.499531 0.000000 0.000000 0.000000
0.232753 0.637295 1.464933 0.000000 0.000000 0.000000
0.141474 0.812013 1.496325 0.000000 0.000000 0.000000
0.129655 0.819932 1.497746 0.000000 0.000000 0.000000
0.181012 0.689143 1.489750 0.000000 0.000000 0.000000
0.212497 0.658686 1.471651 0.000000 0.000000 0.000000
0.142330 0.811993 1.498777 0.000000 0.000000 0.000000
0.141423 0.713664 1.523731 0.000000 0.000000 0.000000
0.183785 0.684331 1.489584 0.000000 0.000000 0.000000
0.149295 0.708210 1.521700 0.000000 0.000000 0.000000
0.143057 0.799837 1.498871 0.000000 0.000000 0.000000
0.124059 0.734435 1.518291 0.000000 0.000000 0.000000
0.222250 0.652981 1.468179 0.000000 0.000000 0.000000
0.117848 0.760490 1.516652 0.000000 0.000000 0.000000
0.192495 0.687556 1.499170 0.000000 0.000000 0.000000
0.118839 0.753071 1.516171 0.000000 0.000000 0.000000
0.134705 0.732814 1.523970 0.000000 0.000000 0.000000
0.136744 0.789322 1.500829 0.000000 0.000000 0.000000
0.213203 0.668399 1.474873 0.000000 0.000000 0.000000
0.188813 0.680218 1.486649 0.000000 0.000000 0.000000
0.118941 0.775032 1.512624 0.000000 0.000000 0.000000
0.242759 0.595935 1.475901 0.000000 0.000000 0.000000
0.133206 0.821520 1.500671 0.000000 0.000000 0.000000
0.141391 0.809971 1.497949 0.000000 0.000000 0.000000
0.230285 0.604308 1.484279 0.000000 0.000000 0.000000
0.230066 0.606049 1.485360 0.000000 0.000000 0.000000
0.222216 0.665534 1.465420 0.000000 0.000000 0.000000
0.133358 0.724630 1.519566 0.000000 0.000000 0.000000
0.160172 0.769879 1.490551 0.000000 0.000000 0.000000
0.140043 0.787086 1.497638 0.000000 0.000000 0.000000
0.143650 0.803833 1.497962 0.000000 0.000000 0.000000
0.211622 0.638601 1.490421 0.000000 0.000000 0.000000
0.157172 0.697174 1.522702 0.000000 0.000000 0.000000
0.230188 0.607779 1.478226 0.000000 0.000000 0.000000
0.221375 0.609097 1.480267 0.000000 0.000000 0.000000
0.140319 0.790202 1.497102 0.000000 0.000000 0.000000
0.149298 0.802605 1.495878 0.000000 0.000000 0.000000
0.182364 0.673618 1.504754 0.000000 0.000000 0.000000
0.253383 0.598396 1.458606 0.000000 0.000000 0.000000
0.147475 0.711337 1.528400 0.000000 0.000000 0.000000
0.225215 0.606377 1.486661 0.000000 0.000000 0.000000
0.207984 0.671944 1.480701 0.000000 0.000000 0.000000
0.123206 0.775143 1.516115 0.000000 0.000000 0.000000
0.160126 0.774492 1.487115 0.000000 0.000000 0.000000
0.124135 0.766544 1.519305 0.000000 0.000000 0.000000
0.212539 0.680836 1.481580 0.000000 0.000000 0.000000
0.210632 0.660012 1.484448 0.000000 0.000000 0.000000
0.249791 0.601387 1.457852 0.000000 0.000000 0.000000
0.180646 0.687195 1.506170 0.000000 0.000000 0.000000
0.206731 0.690154 1.486587 0.000000 0.000000 0.000000
0.193159 0.666906 1.504735 0.000000 0.000000 0.000000
0.229640 0.598227 1.476698 0.000000 0.000000 0.000000
0.196571 0.698660 1.486292 0.000000 0.000000 0.000000
0.242037 0.615086 1.469293 0.000000 0.000000 0.000000
0.250104 0.600907 1.460892 0.000000 0.000000 0.000000
0.181103 0.657804 1.522236 0.000000 0.000000 0.000000
0.123077 0.790861 1.514060 0.000000 0.000000 0.000000
0.127587 0.777790 1.519073 0.000000 0.000000 0.000000
0.200521 0.668602 1.490750 0.000000 0.000000 0.000000
0.210754 0.644751 1.486911 0.000000 0.000000 0.000000
0.170084 0.689020 1.509516 0.000000 0.000000 0.000000
0.246212 0.607968 1.458689 0.000000 0.000000 0.000000
0.124854 0.756356 1.526985 0.000000 0.000000 0.000000
0.170304 0.765047 1.484030 0.000000 0.000000 0.000000
0.195426 0.695539 1.478737 0.000000 0.000000 0.000000
0.149801 0.710152 1.524148 0.000000 0.000000 0.000000
0.242022 0.596345 1.465577 0.000000 0.000000 0.000000
0.153226 0.707029 1.528128 0.000000 0.000000 0.000000
0.177206 0.655853 1.517858 0.000000 0.000000 0.000000
0.182991 0.643135 1.514968 0.000000 0.000000 0.000000
0.125985 0.779711 1.522139 0.000000 0.000000 0.000000
0.218871 0.654567 1.469544 0.000000 0.000000 0.000000
0.143274 0.712010 1.521936 0.000000 0.000000 0.000000
0.148770 0.724776 1.522993 0.000000 0.000000 0.000000
0.204221 0.688161 1.485003 0.000000 0.000000 0.000000
0.186825 0.712160 1.494055 0.000000 0.000000 0.000000
0.191264 0.642426 1.515853 0.000000 0.000000 0.000000
0.178843 0.655066 1.520719 0.000000 0.000000 0.000000
0.141508 0.713549 1.516068 0.000000 0.000000 0.000000
0.197092 0.672879 1.483556 0.000000 0.000000 0.000000
0.144220 0.720345 1.521859 0.000000 0.000000 0.000000
0.209980 0.651121 1.476874 0.000000 0.000000 0.000000
0.216168 0.618743 1.503648 0.000000 0.000000 0.000000
0.195464 0.637206 1.512235 0.000000 0.000000 0.000000
0.256470 0.592622 1.455477 0.000000 0.000000 0.000000
0.161392 0.689542 1.523433 0.000000 0.000000 0.000000
0.161989 0.688424 1.524068 0.000000 0.000000 0.000000
0.195629 0.637208 1.514564 0.000000 0.000000 0.000000
0.121594 0.775939 1.516510 0.000000 0.000000 0.000000
0.167856 0.764107 1.491848 0.000000 0.000000 0.000000
0.141005 0.752261 1.521562 0.000000 0.000000 0.000000
0.246835 0.610860 1.462197 0.000000 0.000000 0.000000
0.137058 0.745111 1.522447 0.000000 0.000000 0.000000
0.163535 0.764168 1.493006 0.000000 0.000000 0.000000
0.252312 0.601191 1.461787 0.000000 0.000000 0.000000
0.130235 0.783026 1.517315 0.000000 0.000000 0.000000
0.136058 0.749588 1.518206 0.000000 0.000000 0.000000
0.135421 0.826634 1.498816 0.000000 0.000000 0.000000
0.209025 0.681244 1.475696 0.000000 0.000000 0.000000
0.250534 0.619574 1.458028 0.000000 0.000000 0.000000
0.199548 0.628385 1.507444 0.000000 0.000000 0.000000
0.168177 0.772658 1.487409 0.000000 0.000000 0.000000
0.256672 0.587859 1.455166 0.000000 0.000000 0.000000
0.123790 0.741469 1.515190 0.000000 0.000000 0.000000
0.218633 0.668577 1.473876 0.000000 0.000000 0.000000
0.136510 0.719876 1.522779 0.000000 0.000000 0.000000
0.241446 0.609554 1.462641 0.000000 0.000000 0.000000
0.250170 0.610551 1.464259 0.000000 0.000000 0.000000
0.120256 0.757728 1.511623 0.000000 0.000000 0.000000
0.137860 0.732091 1.523931 0.000000 0.000000 0.000000
0.234672 0.616512 1.468842 0.000000 0.000000 0.000000
0.126767 0.754090 1.520754 0.000000 0.000000 0.000000
0.126717 0.755551 1.519537 0.000000 0.000000 0.000000
0.130817 0.751781 1.523633 0.000000 0.000000 0.000000
0.116877 0.758573 1.526000 0.000000 0.000000 0.000000
0.140558 0.814883 1.489950 0.000000 0.000000 0.000000
0.225187 0.631976 1.470341 0.000000 0.000000 0.000000
0.176144 0.667507 1.516405 0.000000 0.000000 0.000000
0.120651 0.769223 1.518351 0.000000 0.000000 0.000000
0.134056 0.747368 1.521534 0.000000 0.000000 0.000000
0.181637 0.691129 1.494135 0.000000 0.000000 0.000000
0.189101 0.676646 1.497577 0.000000 0.000000 0.000000
0.123395 0.796015 1.510474 0.000000 0.000000 0.000000
0.116956 0.768615 1.513746 0.000000 0.000000 0.000000
0.183472 0.690118 1.492563 0.000000 0.000000 0.000000
0.179673 0.712582 1.496721 0.000000 0.000000 0.000000
0.124454 0.788101 1.515217 0.000000 0.000000 0.000000
0.256679 0.585669 1.464733 0.000000 0.000000 0.000000
0.261478 0.585980 1.452546 0.000000 0.000000 0.000000
0.135226 0.813990 1.496147 0.000000 0.000000 0.000000
0.200789 0.644793 1.500609 0.000000 0.000000 0.000000
0.118630 0.790167 1.504219 0.000000 0.000000 0.000000
0.227055 0.603602 1.477996 0.000000 0.000000 0.000000
0.215960 0.674660 1.475714 0.000000 0.000000 0.000000
0.248281 0.596062 1.474689 0.000000 0.000000 0.000000
0.180597 0.721025 1.492418 0.000000 0.000000 0.000000
0.181424 0.719720 1.489546 0.000000 0.000000 0.000000
0.173542 0.740972 1.491145 0.000000 0.000000 0.000000
0.248032 0.597699 1.476939 0.000000 0.000000 0.000000
0.248138 0.593777 1.475629 0.000000 0.000000 0.000000
0.197788 0.691358 1.489621 0.000000 0.000000 0.000000
0.168001 0.748665 1.489233 0.000000 0.000000 0.000000
0.172496 0.754897 1.488948 0.000000 0.000000 0.000000
0.171223 0.784132 1.488770 0.000000 0.000000 0.000000
0.244500 0.595962 1.477728 0.000000 0.000000 0.000000
0.162566 0.785046 1.492517 0.000000 0.000000 0.000000
0.162001 0.766819 1.486621 0.000000 0.000000 0.000000
0.239788 0.613942 1.465117 0.000000 0.000000 0.000000
0.202055 0.692044 1.483959 0.000000 0.000000 0.000000
0.247290 0.593293 1.461443 0.000000 0.000000 0.000000
0.184530 0.697351 1.488016 0.000000 0.000000 0.000000
0.250236 0.589508 1.461080 0.000000 0.000000 0.000000
0.246924 0.617897 1.457296 0.000000 0.000000 0.000000
0.182508 0.718115 1.495266 0.000000 0.000000 0.000000
0.244548 0.611641 1.459899 0.000000 0.000000 0.000000
0.217842 0.635731 1.470933 0.000000 0.000000 0.000000
0.133606 0.821612 1.493990 0.000000 0.000000 0.000000
0.162028 0.688792 1.524338 0.000000 0.000000 0.000000
0.120241 0.763891 1.518106 0.000000 0.000000 0.000000
0.139569 0.816561 1.496667 0.000000 0.000000 0.000000
0.236108 0.626775 1.463524 0.000000 0.000000 0.000000
0.242465 0.600261 1.481237 0.000000 0.000000 0.000000
0.252139 0.590038 1.469651 0.000000 0.000000 0.000000
0.220411 0.607826 1.481762 0.000000 0.000000 0.000000
0.148033 0.801067 1.499737 0.000000 0.000000 0.000000
0.124967 0.783523 1.513435 0.000000 0.000000 0.000000
0.231689 0.635371 1.464337 0.000000 0.000000 0.000000
0.124430 0.762410 1.521211 0.000000 0.000000 0.000000
0.245639 0.599358 1.479645 0.000000 0.000000 0.000000
0.167523 0.675107 1.521512 0.000000 0.000000 0.000000
0.168459 0.763645 1.485897 0.000000 0.000000 0.000000
0.232441 0.617570 1.473787 0.000000 0.000000 0.000000
0.126253 0.774783 1.515168 0.000000 0.000000 0.000000
0.127825 0.765778 1.516851 0.000000 0.000000 0.000000
0.131682 0.772343 1.517554 0.000000 0.000000 0.000000
0.238493 0.601878 1.485239 0.000000 0.000000 0.000000
0.173726 0.671678 1.518632 0.000000 0.000000 0.000000
0.149049 0.794450 1.490247 0.000000 0.000000 0.000000
0.162223 0.684809 1.522716 0.000000 0.000000 0.000000
0.208636 0.624213 1.503113 0.000000 0.000000 0.000000
0.216892 0.638455 1.494551 0.000000 0.000000 0.000000
0.179637 0.650635 1.517117 0.000000 0.000000 0.000000
0.181174 0.711174 1.483600 0.000000 0.000000 0.000000
0.228884 0.637277 1.467950 0.000000 0.000000 0.000000
0.211143 0.667606 1.479109 0.000000 0.000000 0.000000
0.145418 0.708462 1.520840 0.000000 0.000000 0.000000
0.246310 0.609694 1.452831 0.000000 0.000000 0.000000
0.205204 0.629314 1.502795 0.000000 0.000000 0.000000
0.219099 0.644755 1.491621 0.000000 0.000000 0.000000
0.172503 0.660572 1.518941 0.000000 0.000000 0.000000
0.216597 0.654264 1.472692 0.000000 0.000000 0.000000
0.208014 0.667878 1.480973 0.000000 0.000000 0.000000
0.180216 0.718719 1.485250 0.000000 0.000000 0.000000
0.238806 0.634509 1.466535 0.000000 0.000000 0.000000
0.232424 0.639382 1.458551 0.000000 0.000000 0.000000
0.145766 0.719393 1.528428 0.000000 0.000000 0.000000
0.244008 0.633246 1.464616 0.000000 0.000000 0.000000
0.226271 0.631300 1.471070 0.000000 0.000000 0.000000
0.148605 0.715919 1.524435 0.000000 0.000000 0.000000
0.235010 0.635688 1.467303 0.000000 0.000000 0.000000
0.207841 0.694930 1.470936 0.000000 0.000000 0.000000
0.239473 0.628604 1.462739 0.000000 0.000000 0.000000
0.238624 0.629638 1.467514 0.000000 0.000000 0.000000
0.202877 0.685680 1.475694 0.000000 0.000000 0.000000
0.145896 0.719866 1.524967 0.000000 0.000000 0.000000
0.120342 0.754249 1.519893 0.000000 0.000000 0.000000
0.264471 0.582510 1.455220 0.000000 0.000000 0.000000
0.147132 0.741488 1.514712 0.000000 0.000000 0.000000
0.136061 0.761656 1.514095 0.000000 0.000000 0.000000
0.130713 0.732637 1.523295 0.000000 0.000000 0.000000
0.150614 0.709324 1.524207 0.000000 0.000000 0.000000
0.137724 0.733952 1.526547 0.000000 0.000000 0.000000
0.261916 0.587036 1.454886 0.000000 0.000000 0.000000
0.237438 0.636339 1.470009 0.000000 0.000000 0.000000
0.124916 0.742075 1.520418 0.000000 0.000000 0.000000
0.126253 0.733447 1.519027 0.000000 0.000000 0.000000
0.137077 0.740013 1.514076 0.000000 0.000000 0.000000
0.121001 0.754917 1.517889 0.000000 0.000000 0.000000
0.129684 0.742728 1.522590 0.000000 0.000000 0.000000
0.128393 0.731395 1.518131 0.000000 0.000000 0.000000
0.128174 0.729461 1.515809 0.000000 0.000000 0.000000
0.184755 0.655515 1.520765 0.000000 0.000000 0.000000
0.173418 0.662984 1.520738 0.000000 0.000000 0.000000
0.136427 0.814096 1.495027 0.000000 0.000000 0.000000
0.173553 0.665845 1.522856 0.000000 0.000000 0.000000
0.173365 0.662825 1.520877 0.000000 0.000000 0.000000
0.137090 0.810490 1.494237 0.000000 0.000000 0.000000
0.168497 0.672567 1.522112 0.000000 0.000000 0.000000
0.175247 0.658768 1.517689 0.000000 0.000000 0.000000
0.241204 0.624543 1.456311 0.000000 0.000000 0.000000
0.161470 0.690477 1.524518 0.000000 0.000000 0.000000
0.242782 0.634631 1.457436 0.000000 0.000000 0.000000
0.162140 0.773652 1.487763 0.000000 0.000000 0.000000
0.179224 0.654373 1.515987 0.000000 0.000000 0.000000
0.122464 0.743157 1.519045 0.000000 0.000000 0.000000
0.239261 0.618944 1.459916 0.000000 0.000000 0.000000
0.157337 0.694433 1.517250 0.000000 0.000000 0.000000
0.118728 0.758885 1.515701 0.000000 0.000000 0.000000
0.179746 0.657665 1.518303 0.000000 0.000000 0.000000
0.122520 0.744931 1.520012 0.000000 0.000000 0.000000
0.156935 0.790193 1.498385 0.000000 0.000000 0.000000
0.129762 0.748997 1.515262 0.000000 0.000000 0.000000
0.207304 0.679975 1.473111 0.000000 0.000000 0.000000
0.147208 0.779068 1.497398 0.000000 0.000000 0.000000
0.149183 0.801983 1.499672 0.000000 0.000000 0.000000
0.139115 0.796761 1.496754 0.000000 0.000000 0.000000
0.150637 0.788820 1.494213 0.000000 0.000000 0.000000
0.159000 0.791561 1.497928 0.000000 0.000000 0.000000
0.150848 0.794905 1.501025 0.000000 0.000000 0.000000
0.158427 0.791657 1.501128 0.000000 0.000000 0.000000
0.258007 0.584511 1.455537 0.000000 0.000000 0.000000
0.147609 0.788490 1.496342 0.000000 0.000000 0.000000
0.147674 0.786004 1.494724 0.000000 0.000000 0.000000
0.147422 0.780581 1.499504 0.000000 0.000000 0.000000
0.150779 0.789171 1.492348 0.000000 0.000000 0.000000
0.156137 0.795363 1.493802 0.000000 0.000000 0.000000
0.125157 0.783427 1.515290 0.000000 0.000000 0.000000
0.115844 0.747022 1.515738 0.000000 0.000000 0.000000
0.180464 0.771572 1.484692 0.000000 0.000000 0.000000
0.154741 0.792384 1.498017 0.000000 0.000000 0.000000
0.135502 0.772380 1.502417 0.000000 0.000000 0.000000
0.134932 0.789329 1.500548 0.000000 0.000000 0.000000
0.141798 0.792272 1.509600 0.000000 0.000000 0.000000
0.136944 0.814176 1.496194 0.000000 0.000000 0.000000
0.163397 0.784734 1.495578 0.000000 0.000000 0.000000
0.155732 0.785721 1.496954 0.000000 0.000000 0.000000
0.154269 0.787298 1.497263 0.000000 0.000000 0.000000
0.157378 0.755496 1.494729 0.000000 0.000000 0.000000
0.149473 0.781727 1.496394 0.000000 0.000000 0.000000
0.152006 0.792850 1.494353 0.000000 0.000000 0.000000
0.123010 0.762803 1.520064 0.000000 0.000000 0.000000
0.218246 0.666129 1.463336 0.000000 0.000000 0.000000
0.123535 0.765113 1.515784 0.000000 0.000000 0.000000
0.121254 0.777452 1.518088 0.000000 0.000000 0.000000
0.120965 0.757280 1.514012 0.000000 0.000000 0.000000
0.176761 0.776166 1.488290 0.000000 0.000000 0.000000
0.210895 0.679969 1.474544 0.000000 0.000000 0.000000
0.129320 0.728138 1.519693 0.000000 0.000000 0.000000
0.209016 0.650876 1.485291 0.000000 0.000000 0.000000
0.120270 0.745569 1.516872 0.000000 0.000000 0.000000
0.125046 0.731731 1.519042 0.000000 0.000000 0.000000
0.122889 0.733594 1.521790 0.000000 0.000000 0.000000
0.138653 0.729613 1.524426 0.000000 0.000000 0.000000
0.207665 0.661205 1.475407 0.000000 0.000000 0.000000
0.118929 0.749680 1.518155 0.000000 0.000000 0.000000
0.152030 0.721747 1.513052 0.000000 0.000000 0.000000
0.136223 0.738929 1.515739 0.000000 0.000000 0.000000
0.124479 0.745307 1.523128 0.000000 0.000000 0.000000
0.131097 0.730661 1.523472 0.000000 0.000000 0.000000
0.142430 0.724235 1.525180 0.000000 0.000000 0.000000
0.256425 0.579767 1.452259 0.000000 0.000000 0.000000
0.259775 0.583343 1.452556 0.000000 0.000000 0.000000
0.121641 0.808382 1.502653 0.000000 0.000000 0.000000
0.182791 0.724897 1.486416 0.000000 0.000000 0.000000
0.131586 0.826590 1.492022 0.000000 0.000000 0.000000
0.146478 0.742435 1.512735 0.000000 0.000000 0.000000
0.127109 0.805319 1.506332 0.000000 0.000000 0.000000
0.170071 0.753138 1.499524 0.000000 0.000000 0.000000
0.133877 0.725395 1.518535 0.000000 0.000000 0.000000
0.139817 0.712076 1.516942 0.000000 0.000000 0.000000
0.155873 0.779327 1.497378 0.000000 0.000000 0.000000
0.178928 0.747046 1.494882 0.000000 0.000000 0.000000
0.148704 0.795844 1.507199 0.000000 0.000000 0.000000
0.151434 0.753721 1.505756 0.000000 0.000000 0.000000
0.159038 0.753614 1.510021 0.000000 0.000000 0.000000
0.169777 0.731730 1.504921 0.000000 0.000000 0.000000
0.174262 0.650179 1.511243 0.000000 0.000000 0.000000
0.134111 0.749413 1.523704 0.000000 0.000000 0.000000
0.162303 0.730309 1.511146 0.000000 0.000000 0.000000
0.173085 0.735118 1.496683 0.000000 0.000000 0.000000
0.124923 0.756210 1.520744 0.000000 0.000000 0.000000
0.203069 0.673478 1.476413 0.000000 0.000000 0.000000
0.221166 0.677491 1.464840 0.000000 0.000000 0.000000
0.156765 0.700198 1.523998 0.000000 0.000000 0.000000
0.197783 0.686730 1.475347 0.000000 0.000000 0.000000
0.122434 0.753386 1.521902 0.000000 0.000000 0.000000
0.215371 0.670110 1.466003 0.000000 0.000000 0.000000
0.213275 0.665481 1.473092 0.000000 0.000000 0.000000
0.203135 0.684038 1.481869 0.000000 0.000000 0.000000
0.154515 0.695533 1.519507 0.000000 0.000000 0.000000
0.203117 0.684616 1.479286 0.000000 0.000000 0.000000
0.209145 0.671282 1.473850 0.000000 0.000000 0.000000
0.216218 0.664979 1.470990 0.000000 0.000000 0.000000
0.152978 0.705442 1.524084 0.000000 0.000000 0.000000
0.169378 0.675061 1.524199 0.000000 0.000000 0.000000
0.222528 0.658694 1.468149 0.000000 0.000000 0.000000
0.244574 0.589256 1.465032 0.000000 0.000000 0.000000
0.193312 0.698353 1.480921 0.000000 0.000000 0.000000
0.217548 0.616899 1.498786 0.000000 0.000000 0.000000
0.155612 0.700380 1.524510 0.000000 0.000000 0.000000
0.190960 0.723280 1.494317 0.000000 0.000000 0.000000
0.144211 0.804746 1.490902 0.000000 0.000000 0.000000
0.209394 0.669343 1.483176 0.000000 0.000000 0.000000
0.188785 0.704258 1.485362 0.000000 0.000000 0.000000
0.183487 0.671181 1.505495 0.000000 0.000000 0.000000
0.236478 0.599319 1.474552 0.000000 0.000000 0.000000
0.239743 0.620286 1.463345 0.000000 0.000000 0.000000
0.215014 0.618960 1.492341 0.000000 0.000000 0.000000
0.149562 0.783870 1.488213 0.000000 0.000000 0.000000
0.199181 0.683668 1.482559 0.000000 0.000000 0.000000
0.225605 0.603272 1.476010 0.000000 0.000000 0.000000
0.153264 0.704440 1.523629 0.000000 0.000000 0.000000
0.157074 0.697539 1.525777 0.000000 0.000000 0.000000
0.153686 0.702882 1.522909 0.000000 0.000000 0.000000
0.219654 0.659817 1.470703 0.000000 0.000000 0.000000
0.239832 0.598835 1.469985 0.000000 0.000000 0.000000
0.240160 0.593290 1.467984 0.000000 0.000000 0.000000
0.203790 0.685325 1.471346 0.000000 0.000000 0.000000
0.212558 0.618179 1.498742 0.000000 0.000000 0.000000
0.155256 0.698705 1.521146 0.000000 0.000000 0.000000
0.200971 0.704045 1.488299 0.000000 0.000000 0.000000
0.146125 0.807852 1.500117 0.000000 0.000000 0.000000
0.140516 0.709523 1.515606 0.000000 0.000000 0.000000
0.180693 0.751261 1.495396 0.000000 0.000000 0.000000
0.131547 0.806096 1.499189 0.000000 0.000000 0.000000
0.137012 0.824477 1.500312 0.000000 0.000000 0.000000
0.137724 0.810161 1.499353 0.000000 0.000000 0.000000
0.222075 0.652194 1.466684 0.000000 0.000000 0.000000
0.131433 0.817538 1.498355 0.000000 0.000000 0.000000
0.131666 0.823699 1.497797 0.000000 0.000000 0.000000
0.137248 0.714957 1.516380 0.000000 0.000000 0.000000
0.219198 0.613979 1.485940 0.000000 0.000000 0.000000
0.127596 0.727166 1.515953 0.000000 0.000000 0.000000
0.179237 0.682142 1.504496 0.000000 0.000000 0.000000
0.217141 0.636890 1.477031 0.000000 0.000000 0.000000
0.172997 0.655315 1.514868 0.000000 0.000000 0.000000
0.207324 0.634179 1.484123 0.000000 0.000000 0.000000
0.205726 0.620852 1.491703 0.000000 0.000000 0.000000
0.229733 0.607941 1.485382 0.000000 0.000000 0.000000
0.131195 0.811383 1.497125 0.000000 0.000000 0.000000
0.167009 0.666635 1.514459 0.000000 0.000000 0.000000
0.142544 0.811074 1.500577 0.000000 0.000000 0.000000
0.142873 0.737551 1.515460 0.000000 0.000000 0.000000
0.155791 0.693968 1.519634 0.000000 0.000000 0.000000
0.214083 0.612207 1.479815 0.000000 0.000000 0.000000
0.126079 0.803865 1.503754 0.000000 0.000000 0.000000
0.221008 0.613593 1.486982 0.000000 0.000000 0.000000
0.166298 0.665588 1.512879 0.000000 0.000000 0.000000
0.227316 0.628448 1.469575 0.000000 0.000000 0.000000
0.215513 0.600625 1.480342 0.000000 0.000000 0.000000
0.167724 0.661419 1.515705 0.000000 0.000000 0.000000
0.127068 0.799187 1.514132 0.000000 0.000000 0.000000
0.207617 0.618679 1.492821 0.000000 0.000000 0.000000
0.130143 0.738595 1.520738 0.000000 0.000000 0.000000
0.184068 0.664458 1.508406 0.000000 0.000000 0.000000
0.225489 0.637571 1.470429 0.000000 0.000000 0.000000
0.171802 0.657964 1.513790 0.000000 0.000000 0.000000
0.222056 0.605211 1.483472 0.000000 0.000000 0.000000
0.135411 0.802669 1.497404 0.000000 0.000000 0.000000
0.197693 0.625771 1.503687 0.000000 0.000000 0.000000
0.178075 0.650524 1.513584 0.000000 0.000000 0.000000
0.136252 0.812128 1.504448 0.000000 0.000000 0.000000
0.148800 0.703347 1.513847 0.000000 0.000000 0.000000
0.167879 0.666553 1.521112 0.000000 0.000000 0.000000
0.208912 0.616013 1.486392 0.000000 0.000000 0.000000
0.225235 0.629865 1.471172 0.000000 0.000000 0.000000
0.123998 0.807048 1.504932 0.000000 0.000000 0.000000
0.220467 0.612418 1.491448 0.000000 0.000000 0.000000
0.171832 0.661488 1.510813 0.000000 0.000000 0.000000
0.180267 0.654757 1.514955 0.000000 0.000000 0.000000
0.161245 0.680601 1.515959 0.000000 0.000000 0.000000
0.146572 0.727497 1.515213 0.000000 0.000000 0.000000
0.130802 0.811902 1.506405 0.000000 0.000000 0.000000
0.229467 0.605632 1.487954 0.000000 0.000000 0.000000
0.201074 0.681844 1.476679 0.000000 0.000000 0.000000
0.169086 0.774322 1.496942 0.000000 0.000000 0.000000
0.239394 0.603240 1.478850 0.000000 0.000000 0.000000
0.142389 0.782273 1.512844 0.000000 0.000000 0.000000
0.159154 0.746564 1.505433 0.000000 0.000000 0.000000
0.143144 0.754433 1.520129 0.000000 0.000000 0.000000
0.135639 0.750771 1.518069 0.000000 0.000000 0.000000
0.174758 0.758214 1.497995 0.000000 0.000000 0.000000
0.171907 0.669191 1.524708 0.000000 0.000000 0.000000
0.184406 0.651859 1.514884 0.000000 0.000000 0.000000
0.187048 0.633145 1.516528 0.000000 0.000000 0.000000
0.133398 0.760280 1.523821 0.000000 0.000000 0.000000
0.157387 0.760879 1.509642 0.000000 0.000000 0.000000
0.166291 0.753674 1.511237 0.000000 0.000000 0.000000
0.145822 0.771404 1.510411 0.000000 0.000000 0.000000
0.144320 0.768837 1.513648 0.000000 0.000000 0.000000
0.127114 0.771142 1.518502 0.000000 0.000000 0.000000
0.163795 0.767089 1.499982 0.000000 0.000000 0.000000
0.169897 0.671452 1.523354 0.000000 0.000000 0.000000
0.186433 0.647200 1.516321 0.000000 0.000000 0.000000
0.231853 0.591813 1.477013 0.000000 0.000000 0.000000
0.132076 0.750418 1.525451 0.000000 0.000000 0.000000
0.152859 0.798934 1.502101 0.000000 0.000000 0.000000
0.242907 0.600337 1.479090 0.000000 0.000000 0.000000
0.214318 0.674023 1.474451 0.000000 0.000000 0.000000
0.237339 0.601270 1.479442 0.000000 0.000000 0.000000
0.240770 0.602072 1.480727 0.000000 0.000000 0.000000
0.255607 0.578801 1.457064 0.000000 0.000000 0.000000
0.196944 0.701077 1.478182 0.000000 0.000000 0.000000
0.243915 0.596872 1.477592 0.000000 0.000000 0.000000
0.158926 0.706766 1.505517 0.000000 0.000000 0.000000
0.187287 0.641629 1.508987 0.000000 0.000000 0.000000
0.252120 0.606026 1.457853 0.000000 0.000000 0.000000
0.224941 0.607282 1.485492 0.000000 0.000000 0.000000
0.192460 0.695088 1.481900 0.000000 0.000000 0.000000
0.196679 0.691438 1.477705 0.000000 0.000000 0.000000
0.252262 0.603980 1.462787 0.000000 0.000000 0.000000
0.222270 0.608733 1.490582 0.000000 0.000000 0.000000
0.189603 0.702510 1.485634 0.000000 0.000000 0.000000
0.196264 0.693163 1.480814 0.000000 0.000000 0.000000
0.129106 0.815417 1.496929 0.000000 0.000000 0.000000
0.139024 0.774124 1.502119 0.000000 0.000000 0.000000
0.186020 0.719758 1.483062 0.000000 0.000000 0.000000
0.152658 0.763050 1.493543 0.000000 0.000000 0.000000
0.144764 0.784277 1.496185 0.000000 0.000000 0.000000
0.227151 0.640451 1.461743 0.000000 0.000000 0.000000
0.141684 0.782881 1.498292 0.000000 0.000000 0.000000
0.253140 0.602175 1.461561 0.000000 0.000000 0.000000
0.152121 0.772274 1.493341 0.000000 0.000000 0.000000
0.159154 0.782545 1.493923 0.000000 0.000000 0.000000
0.249538 0.606202 1.456279 0.000000 0.000000 0.000000
0.155505 0.774195 1.495218 0.000000 0.000000 0.000000
0.151911 0.763305 1.494514 0.000000 0.000000 0.000000
0.154537 0.789743 1.498846 0.000000 0.000000 0.000000
0.242747 0.613156 1.454909 0.000000 0.000000 0.000000
0.127706 0.792073 1.509700 0.000000 0.000000 0.000000
0.216487 0.638361 1.486407 0.000000 0.000000 0.000000
0.197003 0.625846 1.507851 0.000000 0.000000 0.000000
0.149369 0.788166 1.494476 0.000000 0.000000 0.000000
0.138600 0.803159 1.497091 0.000000 0.000000 0.000000
0.229261 0.610768 1.484784 0.000000 0.000000 0.000000
0.253130 0.604846 1.459655 0.000000 0.000000 0.000000
0.154247 0.787431 1.494800 0.000000 0.000000 0.000000
0.248197 0.605451 1.456241 0.000000 0.000000 0.000000
0.146647 0.776015 1.497835 0.000000 0.000000 0.000000
0.162262 0.741655 1.497983 0.000000 0.000000 0.000000
0.200175 0.626608 1.507700 0.000000 0.000000 0.000000
0.227549 0.648656 1.461273 0.000000 0.000000 0.000000
0.150076 0.807059 1.500028 0.000000 0.000000 0.000000
0.146188 0.806790 1.500977 0.000000 0.000000 0.000000
0.150625 0.810851 1.491974 0.000000 0.000000 0.000000
0.144483 0.711078 1.520675 0.000000 0.000000 0.000000
0.138208 0.758405 1.512719 0.000000 0.000000 0.000000
0.135087 0.713546 1.515602 0.000000 0.000000 0.000000
0.148401 0.711574 1.517598 0.000000 0.000000 0.000000
0.141736 0.817808 1.499116 0.000000 0.000000 0.000000
0.144654 0.811721 1.498587 0.000000 0.000000 0.000000
0.229799 0.623682 1.473733 0.000000 0.000000 0.000000
0.139400 0.709360 1.517059 0.000000 0.000000 0.000000
0.134430 0.720982 1.517578 0.000000 0.000000 0.000000
0.130340 0.724354 1.522562 0.000000 0.000000 0.000000
0.135041 0.722558 1.522884 0.000000 0.000000 0.000000
0.148663 0.728510 1.517083 0.000000 0.000000 0.000000
0.137610 0.723608 1.510784 0.000000 0.000000 0.000000
0.143357 0.707907 1.519460 0.000000 0.000000 0.000000
0.143854 0.723080 1.525217 0.000000 0.000000 0.000000
0.140983 0.817936 1.498344 0.000000 0.000000 0.000000
0.144423 0.813440 1.499105 0.000000 0.000000 0.000000
0.135005 0.717997 1.519252 0.000000 0.000000 0.000000
0.129661 0.724173 1.517782 0.000000 0.000000 0.000000
0.182193 0.736708 1.496667 0.000000 0.000000 0.000000
0.161565 0.698240 1.521616 0.000000 0.000000 0.000000
0.218472 0.655296 1.466844 0.000000 0.000000 0.000000
0.125623 0.748812 1.515193 0.000000 0.000000 0.000000
0.224714 0.643850 1.470894 0.000000 0.000000 0.000000
0.218504 0.658000 1.469439 0.000000 0.000000 0.000000
0.118478 0.763710 1.516353 0.000000 0.000000 0.000000
0.166453 0.770247 1.485659 0.000000 0.000000 0.000000
0.162910 0.684126 1.522278 0.000000 0.000000 0.000000
0.241281 0.602242 1.476670 0.000000 0.000000 0.000000
0.138457 0.711705 1.518384 0.000000 0.000000 0.000000
0.145199 0.798581 1.488917 0.000000 0.000000 0.000000
0.120399 0.767531 1.511972 0.000000 0.000000 0.000000
0.118073 0.779254 1.508614 0.000000 0.000000 0.000000
0.180976 0.733726 1.491743 0.000000 0.000000 0.000000
0.176224 0.734141 1.489561 0.000000 0.000000 0.000000
0.180998 0.717740 1.488570 0.000000 0.000000 0.000000
0.223202 0.648689 1.465544 0.000000 0.000000 0.000000
0.133061 0.719139 1.522849 0.000000 0.000000 0.000000
0.157161 0.797919 1.488245 0.000000 0.000000 0.000000
0.118660 0.777694 1.509619 0.000000 0.000000 0.000000
0.122903 0.770625 1.513911 0.000000 0.000000 0.000000
0.169741 0.754645 1.491203 0.000000 0.000000 0.000000
0.169663 0.749423 1.491263 0.000000 0.000000 0.000000
0.175979 0.756700 1.486747 0.000000 0.000000 0.000000
0.221124 0.662651 1.465011 0.000000 0.000000 0.000000
0.208597 0.620145 1.493701 0.000000 0.000000 0.000000
0.233412 0.645223 1.461139 0.000000 0.000000 0.000000
0.228674 0.641598 1.463658 0.000000 0.000000 0.000000
0.132081 0.727231 1.521591 0.000000 0.000000 0.000000
0.154146 0.795537 1.499969 0.000000 0.000000 0.000000
0.156005 0.790264 1.503285 0.000000 0.000000 0.000000
0.156090 0.788533 1.490772 0.000000 0.000000 0.000000
0.218193 0.679844 1.488437 0.000000 0.000000 0.000000
0.230737 0.606620 1.491312 0.000000 0.000000 0.000000
0.219124 0.668477 1.477392 0.000000 0.000000 0.000000
0.162038 0.782684 1.500370 0.000000 0.000000 0.000000
0.207978 0.625294 1.504201 0.000000 0.000000 0.000000
0.209241 0.624686 1.503970 0.000000 0.000000 0.000000
0.223112 0.608857 1.489524 0.000000 0.000000 0.000000
0.248082 0.612225 1.465466 0.000000 0.000000 0.000000
0.229331 0.618078 1.480599 0.000000 0.000000 0.000000
0.218232 0.634324 1.500910 0.000000 0.000000 0.000000
0.164562 0.678911 1.512509 0.000000 0.000000 0.000000
0.161161 0.680299 1.513996 0.000000 0.000000 0.000000
0.180245 0.689771 1.495872 0.000000 0.000000 0.000000
0.166031 0.672361 1.511355 0.000000 0.000000 0.000000
0.167906 0.720777 1.499310 0.000000 0.000000 0.000000
0.210501 0.624221 1.501020 0.000000 0.000000 0.000000
0.185254 0.680312 1.485945 0.000000 0.000000 0.000000
0.218182 0.614202 1.488531 0.000000 0.000000 0.000000
0.209164 0.623047 1.505020 0.000000 0.000000 0.000000
0.176406 0.651152 1.509724 0.000000 0.000000 0.000000
0.163833 0.672961 1.512433 0.000000 0.000000 0.000000
0.163008 0.678478 1.511925 0.000000 0.000000 0.000000
0.258281 0.598597 1.458665 0.000000 0.000000 0.000000
0.236600 0.627646 1.480456 0.000000 0.000000 0.000000
0.176687 0.696109 1.500372 0.000000 0.000000 0.000000
0.224477 0.648446 1.479139 0.000000 0.000000 0.000000
0.168175 0.670194 1.511159 0.000000 0.000000 0.000000
0.166301 0.665697 1.512241 0.000000 0.000000 0.000000
0.166409 0.767925 1.495880 0.000000 0.000000 0.000000
0.232091 0.617317 1.483675 0.000000 0.000000 0.000000
0.222740 0.657733 1.466698 0.000000 0.000000 0.000000
0.168950 0.666259 1.510531 0.000000 0.000000 0.000000
0.177251 0.685784 1.489071 0.000000 0.000000 0.000000
0.226594 0.619459 1.479084 0.000000 0.000000 0.000000
0.160207 0.683152 1.515464 0.000000 0.000000 0.000000
0.156915 0.684138 1.514710 0.000000 0.000000 0.000000
0.208278 0.667346 1.475206 0.000000 0.000000 0.000000
0.173858 0.719439 1.494814 0.000000 0.000000 0.000000
0.235510 0.611167 1.484590 0.000000 0.000000 0.000000
0.214034 0.625342 1.496064 0.000000 0.000000 0.000000
0.176656 0.670218 1.509109 0.000000 0.000000 0.000000
0.168751 0.663603 1.511199 0.000000 0.000000 0.000000
0.170027 0.654840 1.510379 0.000000 0.000000 0.000000
0.239909 0.613760 1.468202 0.000000 0.000000 0.000000
0.178208 0.673567 1.517889 0.000000 0.000000 0.000000
0.230172 0.618070 1.485229 0.000000 0.000000 0.000000
0.174920 0.686162 1.507569 0.000000 0.000000 0.000000
0.216361 0.651902 1.479582 0.000000 0.000000 0.000000
0.154773 0.692627 1.518461 0.000000 0.000000 0.000000
0.165377 0.671343 1.511445 0.000000 0.000000 0.000000
0.157908 0.670407 1.511924 0.000000 0.000000 0.000000
0.170898 0.767558 1.503135 0.000000 0.000000 0.000000
0.222500 0.629375 1.491033 0.000000 0.000000 0.000000
0.176300 0.665706 1.510418 0.000000 0.000000 0.000000
0.208717 0.679913 1.474285 0.000000 0.000000 0.000000
0.161212 0.685580 1.521793 0.000000 0.000000 0.000000
0.136688 0.807886 1.496624 0.000000 0.000000 0.000000
0.186733 0.649578 1.519420 0.000000 0.000000 0.000000
0.230923 0.642810 1.462291 0.000000 0.000000 0.000000
0.138360 0.797211 1.497951 0.000000 0.000000 0.000000
0.205489 0.693078 1.484512 0.000000 0.000000 0.000000
0.170235 0.750748 1.490604 0.000000 0.000000 0.000000
0.149356 0.704299 1.519842 0.000000 0.000000 0.000000
0.160287 0.691995 1.524883 0.000000 0.000000 0.000000
0.163179 0.685532 1.523167 0.000000 0.000000 0.000000
0.235831 0.638467 1.457824 0.000000 0.000000 0.000000
0.234797 0.632588 1.458284 0.000000 0.000000 0.000000
0.159654 0.692459 1.524748 0.000000 0.000000 0.000000
0.211747 0.679871 1.468594 0.000000 0.000000 0.000000
0.211365 0.673772 1.468327 0.000000 0.000000 0.000000
0.170400 0.766746 1.489094 0.000000 0.000000 0.000000
0.221684 0.659433 1.463135 0.000000 0.000000 0.000000
0.151899 0.707601 1.527143 0.000000 0.000000 0.000000
0.136787 0.785007 1.500847 0.000000 0.000000 0.000000
0.141253 0.808008 1.493376 0.000000 0.000000 0.000000
0.117585 0.806728 1.509327 0.000000 0.000000 0.000000
0.208296 0.643114 1.506994 0.000000 0.000000 0.000000
0.228812 0.643560 1.465703 0.000000 0.000000 0.000000
0.140791 0.805638 1.498152 0.000000 0.000000 0.000000
0.140862 0.806935 1.494983 0.000000 0.000000 0.000000
0.139270 0.798332 1.497435 0.000000 0.000000 0.000000
0.211078 0.644034 1.500654 0.000000 0.000000 0.000000
0.211941 0.615091 1.493731 0.000000 0.000000 0.000000
0.128302 0.760659 1.527632 0.000000 0.000000 0.000000
0.170401 0.758676 1.490278 0.000000 0.000000 0.000000
0.176240 0.659475 1.519806 0.000000 0.000000 0.000000
0.248082 0.599372 1.476213 0.000000 0.000000 0.000000
0.258954 0.581763 1.452872 0.000000 0.000000 0.000000
0.134254 0.825804 1.495045 0.000000 0.000000 0.000000
0.216596 0.617179 1.493261 0.000000 0.000000 0.000000
0.195063 0.649370 1.513835 0.000000 0.000000 0.000000
0.199360 0.632892 1.513797 0.000000 0.000000 0.000000
0.242641 0.594251 1.466108 0.000000 0.000000 0.000000
0.194920 0.661570 1.513971 0.000000 0.000000 0.000000
0.182398 0.655905 1.522041 0.000000 0.000000 0.000000
0.207686 0.616289 1.491771 0.000000 0.000000 0.000000
0.183140 0.646242 1.516132 0.000000 0.000000 0.000000
0.187372 0.654386 1.513902 0.000000 0.000000 0.000000
0.229987 0.604272 1.474032 0.000000 0.000000 0.000000
0.173875 0.678384 1.513965 0.000000 0.000000 0.000000
0.181047 0.651442 1.519416 0.000000 0.000000 0.000000
0.191122 0.629963 1.504222 0.000000 0.000000 0.000000
0.207467 0.617148 1.492814 0.000000 0.000000 0.000000
0.191941 0.652345 1.512340 0.000000 0.000000 0.000000
0.179136 0.652789 1.519797 0.000000 0.000000 0.000000
0.180912 0.661507 1.523021 0.000000 0.000000 0.000000
0.184964 0.648771 1.520287 0.000000 0.000000 0.000000
0.191077 0.708756 1.490367 0.000000 0.000000 0.000000
0.141931 0.720621 1.530473 0.000000 0.000000 0.000000
0.136190 0.747171 1.521351 0.000000 0.000000 0.000000
0.177659 0.660428 1.523016 0.000000 0.000000 0.000000
0.165412 0.675169 1.514450 0.000000 0.000000 0.000000
0.192163 0.697215 1.478290 0.000000 0.000000 0.000000
0.139800 0.708914 1.517015 0.000000 0.000000 0.000000
0.189072 0.708702 1.493427 0.000000 0.000000 0.000000
0.131412 0.766146 1.520383 0.000000 0.000000 0.000000
0.175296 0.658946 1.519571 0.000000 0.000000 0.000000
0.174490 0.663017 1.511953 0.000000 0.000000 0.000000
0.197287 0.693736 1.473435 0.000000 0.000000 0.000000
0.191360 0.656307 1.505318 0.000000 0.000000 0.000000
0.174782 0.735207 1.484409 0.000000 0.000000 0.000000
0.135105 0.719200 1.518466 0.000000 0.000000 0.000000
0.161483 0.674119 1.516896 0.000000 0.000000 0.000000
0.174420 0.765029 1.494776 0.000000 0.000000 0.000000
0.171489 0.736629 1.499481 0.000000 0.000000 0.000000
0.134624 0.820426 1.499160 0.000000 0.000000 0.000000
0.231528 0.608318 1.486327 0.000000 0.000000 0.000000
0.143520 0.820546 1.500257 0.000000 0.000000 0.000000
0.171652 0.735699 1.493187 0.000000 0.000000 0.000000
0.210873 0.681979 1.478999 0.000000 0.000000 0.000000
0.187924 0.708248 1.486270 0.000000 0.000000 0.000000
0.182556 0.708997 1.487614 0.000000 0.000000 0.000000
0.186808 0.706056 1.484369 0.000000 0.000000 0.000000
0.182029 0.711065 1.500059 0.000000 0.000000 0.000000
0.203261 0.627972 1.510435 0.000000 0.000000 0.000000
0.199160 0.674324 1.479500 0.000000 0.000000 0.000000
0.176573 0.733207 1.488835 0.000000 0.000000 0.000000
0.174234 0.756422 1.492543 0.000000 0.000000 0.000000
0.176331 0.765140 1.498587 0.000000 0.000000 0.000000
0.177122 0.751038 1.495852 0.000000 0.000000 0.000000
0.167677 0.776850 1.498970 0.000000 0.000000 0.000000
0.178592 0.739511 1.488403 0.000000 0.000000 0.000000
0.187510 0.705464 1.489985 0.000000 0.000000 0.000000
0.190005 0.700430 1.486337 0.000000 0.000000 0.000000
0.184243 0.708351 1.486734 0.000000 0.000000 0.000000
0.189421 0.706866 1.488152 0.000000 0.000000 0.000000
0.190399 0.699571 1.483440 0.000000 0.000000 0.000000
0.186892 0.707447 1.490661 0.000000 0.000000 0.000000
0.200179 0.629318 1.507079 0.000000 0.000000 0.000000
0.199047 0.671326 1.480765 0.000000 0.000000 0.000000
0.179300 0.735154 1.490311 0.000000 0.000000 0.000000
0.169991 0.778026 1.500263 0.000000 0.000000 0.000000
0.178626 0.737681 1.503115 0.000000 0.000000 0.000000
0.167165 0.780014 1.500183 0.000000 0.000000 0.000000
0.176365 0.751167 1.487347 0.000000 0.000000 0.000000
0.131640 0.814108 1.509402 0.000000 0.000000 0.000000
0.126734 0.813765 1.500503 0.000000 0.000000 0.000000
0.134156 0.817391 1.502763 0.000000 0.000000 0.000000
0.130505 0.809720 1.508177 0.000000 0.000000 0.000000
0.172034 0.737714 1.499703 0.000000 0.000000 0.000000
0.126285 0.803751 1.508811 0.000000 0.000000 0.000000
0.172328 0.742818 1.490720 0.000000 0.000000 0.000000
0.184492 0.729685 1.480976 0.000000 0.000000 0.000000
0.176885 0.727545 1.489879 0.000000 0.000000 0.000000
0.178436 0.731995 1.491452 0.000000 0.000000 0.000000
0.174062 0.723860 1.498113 0.000000 0.000000 0.000000
0.128644 0.805558 1.509669 0.000000 0.000000 0.000000
0.178781 0.745998 1.492222 0.000000 0.000000 0.000000
0.178063 0.728432 1.484170 0.000000 0.000000 0.000000
0.182073 0.712076 1.490448 0.000000 0.000000 0.000000
0.180059 0.724280 1.488077 0.000000 0.000000 0.000000
0.160044 0.791097 1.499930 0.000000 0.000000 0.000000
0.234069 0.606944 1.486032 0.000000 0.000000 0.000000
0.182220 0.722279 1.484720 0.000000 0.000000 0.000000
0.227537 0.609940 1.495458 0.000000 0.000000 0.000000
0.180073 0.727459 1.488973 0.000000 0.000000 0.000000
0.243679 0.593722 1.467969 0.000000 0.000000 0.000000
0.152718 0.787005 1.496902 0.000000 0.000000 0.000000
0.199102 0.695895 1.489825 0.000000 0.000000 0.000000
0.225167 0.606156 1.482371 0.000000 0.000000 0.000000
0.150007 0.802675 1.501202 0.000000 0.000000 0.000000
0.178359 0.752606 1.496256 0.000000 0.000000 0.000000
0.221219 0.609191 1.486292 0.000000 0.000000 0.000000
0.206951 0.621098 1.491158 0.000000 0.000000 0.000000
0.216164 0.662639 1.471439 0.000000 0.000000 0.000000
0.201432 0.626284 1.493319 0.000000 0.000000 0.000000
0.241273 0.589966 1.467722 0.000000 0.000000 0.000000
0.181743 0.739250 1.494139 0.000000 0.000000 0.000000
0.225274 0.608878 1.487738 0.000000 0.000000 0.000000
0.179748 0.720130 1.489028 0.000000 0.000000 0.000000
0.173010 0.724960 1.494051 0.000000 0.000000 0.000000
0.249980 0.586380 1.464175 0.000000 0.000000 0.000000
0.166318 0.774042 1.494347 0.000000 0.000000 0.000000
0.189125 0.720637 1.494210 0.000000 0.000000 0.000000
0.157148 0.792453 1.499996 0.000000 0.000000 0.000000
0.179406 0.752361 1.498175 0.000000 0.000000 0.000000
0.231637 0.601270 1.480221 0.000000 0.000000 0.000000
0.201456 0.683640 1.477275 0.000000 0.000000 0.000000
0.200172 0.620149 1.493487 0.000000 0.000000 0.000000
0.238310 0.594015 1.472338 0.000000 0.000000 0.000000
0.181805 0.726841 1.492907 0.000000 0.000000 0.000000
0.223388 0.622602 1.489294 0.000000 0.000000 0.000000
0.215094 0.620331 1.495216 0.000000 0.000000 0.000000
0.176701 0.733033 1.490030 0.000000 0.000000 0.000000
0.176509 0.731631 1.491356 0.000000 0.000000 0.000000
0.262913 0.585738 1.454583 0.000000 0.000000 0.000000
0.236730 0.629047 1.459015 0.000000 0.000000 0.000000
0.222729 0.612933 1.492655 0.000000 0.000000 0.000000
0.217408 0.658372 1.470474 0.000000 0.000000 0.000000
0.136456 0.813179 1.496058 0.000000 0.000000 0.000000
