ply
format ascii 1.0
comment VCGLIB generated
obj_info Generated by SPFormer!
element vertex 868
property float x
property float y
property float z
property float nx
property float ny
property float nz
end_header
1.036124 -1.422788 2.118244 0.000000 0.000000 0.000000
1.052792 -1.433315 2.050603 0.000000 0.000000 0.000000
1.079337 -1.418956 2.093651 0.000000 0.000000 0.000000
1.050915 -1.426456 2.104092 0.000000 0.000000 0.000000
1.068691 -1.402884 2.078969 0.000000 0.000000 0.000000
0.919593 -1.418205 2.035501 0.000000 0.000000 0.000000
0.781158 -1.448798 1.756065 0.000000 0.000000 0.000000
0.714742 -1.474808 1.710271 0.000000 0.000000 0.000000
1.033631 -1.421518 2.101320 0.000000 0.000000 0.000000
0.723620 -1.471566 1.670193 0.000000 0.000000 0.000000
0.751445 -1.447283 1.587661 0.000000 0.000000 0.000000
0.749059 -1.459939 1.614005 0.000000 0.000000 0.000000
1.066383 -1.435993 2.113665 0.000000 0.000000 0.000000
1.122870 -1.369352 1.855114 0.000000 0.000000 0.000000
1.077007 -1.411169 1.916186 0.000000 0.000000 0.000000
0.727453 -1.471820 1.658934 0.000000 0.000000 0.000000
0.743570 -1.448452 1.616848 0.000000 0.000000 0.000000
1.069828 -1.323050 1.812511 0.000000 0.000000 0.000000
1.125134 -1.376226 1.804452 0.000000 0.000000 0.000000
1.017985 -1.431956 2.098192 0.000000 0.000000 0.000000
0.918526 -1.401756 2.005447 0.000000 0.000000 0.000000
0.727947 -1.446020 1.728072 0.000000 0.000000 0.000000
0.827432 -1.442792 1.814495 0.000000 0.000000 0.000000
0.826900 -1.438354 1.878636 0.000000 0.000000 0.000000
0.982547 -1.415729 2.048752 0.000000 0.000000 0.000000
0.820560 -1.456370 1.830687 0.000000 0.000000 0.000000
0.932248 -1.409491 2.032068 0.000000 0.000000 0.000000
0.982405 -1.411116 2.065308 0.000000 0.000000 0.000000
0.731329 -1.442985 1.640307 0.000000 0.000000 0.000000
0.743506 -1.434530 1.599231 0.000000 0.000000 0.000000
1.164798 -1.382440 1.595375 0.000000 0.000000 0.000000
0.747217 -1.459111 1.631810 0.000000 0.000000 0.000000
0.724278 -1.453316 1.687658 0.000000 0.000000 0.000000
0.951809 -1.415032 2.042500 0.000000 0.000000 0.000000
1.092444 -1.374733 1.601578 0.000000 0.000000 0.000000
1.078299 -1.397403 1.866705 0.000000 0.000000 0.000000
0.727766 -1.443287 1.643744 0.000000 0.000000 0.000000
0.746238 -1.418516 1.788004 0.000000 0.000000 0.000000
0.799147 -1.445686 1.776355 0.000000 0.000000 0.000000
0.802553 -1.402022 1.510593 0.000000 0.000000 0.000000
0.966530 -1.411979 2.064874 0.000000 0.000000 0.000000
1.161253 -1.337167 1.837707 0.000000 0.000000 0.000000
1.049866 -1.433769 2.104002 0.000000 0.000000 0.000000
0.711208 -1.476958 1.707586 0.000000 0.000000 0.000000
1.111045 -1.378642 1.606027 0.000000 0.000000 0.000000
0.768626 -1.443426 1.789156 0.000000 0.000000 0.000000
0.742498 -1.404613 1.568369 0.000000 0.000000 0.000000
0.974115 -1.411869 2.068763 0.000000 0.000000 0.000000
1.158778 -1.376663 1.784620 0.000000 0.000000 0.000000
0.966238 -1.322530 1.484484 0.000000 0.000000 0.000000
0.938314 -1.342034 1.494510 0.000000 0.000000 0.000000
1.050215 -1.434731 2.118519 0.000000 0.000000 0.000000
1.172619 -1.357479 1.803399 0.000000 0.000000 0.000000
0.741147 -1.397027 1.558033 0.000000 0.000000 0.000000
1.138908 -1.372810 2.006289 0.000000 0.000000 0.000000
1.124304 -1.366527 2.019517 0.000000 0.000000 0.000000
0.845005 -1.449278 1.731157 0.000000 0.000000 0.000000
0.766122 -1.439083 1.772078 0.000000 0.000000 0.000000
1.159936 -1.383345 1.691674 0.000000 0.000000 0.000000
0.951704 -1.399165 1.620552 0.000000 0.000000 0.000000
0.733113 -1.436528 1.623628 0.000000 0.000000 0.000000
0.789000 -1.382749 1.518021 0.000000 0.000000 0.000000
1.179660 -1.316094 1.730975 0.000000 0.000000 0.000000
1.090582 -1.373521 2.072163 0.000000 0.000000 0.000000
0.725071 -1.453687 1.645887 0.000000 0.000000 0.000000
0.812518 -1.440277 1.700146 0.000000 0.000000 0.000000
0.870923 -1.424589 1.817447 0.000000 0.000000 0.000000
1.036692 -1.395203 1.727980 0.000000 0.000000 0.000000
0.911351 -1.332581 1.492946 0.000000 0.000000 0.000000
0.855688 -1.382219 1.521844 0.000000 0.000000 0.000000
0.945040 -1.401821 2.046969 0.000000 0.000000 0.000000
1.117045 -1.374592 2.015123 0.000000 0.000000 0.000000
0.763490 -1.423705 1.539758 0.000000 0.000000 0.000000
1.053871 -1.412084 2.029432 0.000000 0.000000 0.000000
0.796636 -1.448861 1.752068 0.000000 0.000000 0.000000
0.841910 -1.428003 1.621219 0.000000 0.000000 0.000000
0.896578 -1.365939 1.537383 0.000000 0.000000 0.000000
0.976806 -1.428782 1.829553 0.000000 0.000000 0.000000
1.086550 -1.373298 1.568082 0.000000 0.000000 0.000000
0.784685 -1.449358 1.740597 0.000000 0.000000 0.000000
0.764752 -1.451218 1.736086 0.000000 0.000000 0.000000
1.122516 -1.369152 2.013498 0.000000 0.000000 0.000000
0.832039 -1.440315 1.731324 0.000000 0.000000 0.000000
1.053727 -1.400742 1.857072 0.000000 0.000000 0.000000
0.823377 -1.449300 1.816885 0.000000 0.000000 0.000000
0.826365 -1.453694 1.840774 0.000000 0.000000 0.000000
0.807300 -1.450526 1.682104 0.000000 0.000000 0.000000
0.779361 -1.449948 1.652322 0.000000 0.000000 0.000000
0.797867 -1.440066 1.601387 0.000000 0.000000 0.000000
0.753670 -1.431660 1.549892 0.000000 0.000000 0.000000
0.864231 -1.362978 1.476891 0.000000 0.000000 0.000000
1.042430 -1.406853 1.808036 0.000000 0.000000 0.000000
1.044247 -1.433764 2.114198 0.000000 0.000000 0.000000
0.959079 -1.357045 1.524880 0.000000 0.000000 0.000000
1.111345 -1.379642 2.035866 0.000000 0.000000 0.000000
1.143539 -1.381763 1.555806 0.000000 0.000000 0.000000
0.755530 -1.466265 1.679481 0.000000 0.000000 0.000000
1.104642 -1.381291 1.852697 0.000000 0.000000 0.000000
1.110602 -1.384963 1.891864 0.000000 0.000000 0.000000
1.182303 -1.293800 1.749565 0.000000 0.000000 0.000000
0.860554 -1.411128 1.926506 0.000000 0.000000 0.000000
0.868434 -1.435097 1.901858 0.000000 0.000000 0.000000
0.882875 -1.422146 1.853165 0.000000 0.000000 0.000000
0.956789 -1.416633 1.734938 0.000000 0.000000 0.000000
1.011200 -1.374371 1.590425 0.000000 0.000000 0.000000
1.051946 -1.428580 2.118366 0.000000 0.000000 0.000000
1.066518 -1.439437 2.129230 0.000000 0.000000 0.000000
1.045631 -1.412593 1.838412 0.000000 0.000000 0.000000
0.830079 -1.427271 1.877937 0.000000 0.000000 0.000000
0.825494 -1.435397 1.624560 0.000000 0.000000 0.000000
0.907404 -1.432208 1.723071 0.000000 0.000000 0.000000
1.054605 -1.382209 1.651729 0.000000 0.000000 0.000000
1.058411 -1.365863 1.503750 0.000000 0.000000 0.000000
1.030892 -1.369060 1.583080 0.000000 0.000000 0.000000
1.092602 -1.373790 1.814668 0.000000 0.000000 0.000000
1.111328 -1.380519 1.552529 0.000000 0.000000 0.000000
1.048968 -1.420095 2.103031 0.000000 0.000000 0.000000
0.851450 -1.448228 1.786858 0.000000 0.000000 0.000000
1.050276 -1.400128 1.816728 0.000000 0.000000 0.000000
0.797797 -1.449674 1.768108 0.000000 0.000000 0.000000
0.846088 -1.446855 1.700549 0.000000 0.000000 0.000000
1.148098 -1.384916 1.554127 0.000000 0.000000 0.000000
0.829854 -1.445892 1.806587 0.000000 0.000000 0.000000
1.042492 -1.406493 1.905552 0.000000 0.000000 0.000000
0.952251 -1.365204 1.549834 0.000000 0.000000 0.000000
1.034501 -1.351755 1.504112 0.000000 0.000000 0.000000
0.812427 -1.452049 1.709878 0.000000 0.000000 0.000000
1.015835 -1.363216 1.547825 0.000000 0.000000 0.000000
0.822951 -1.406853 1.529770 0.000000 0.000000 0.000000
0.866601 -1.366240 1.500344 0.000000 0.000000 0.000000
1.021096 -1.421840 1.908495 0.000000 0.000000 0.000000
0.712341 -1.478877 1.694716 0.000000 0.000000 0.000000
0.940223 -1.320438 1.507123 0.000000 0.000000 0.000000
0.900665 -1.336953 1.486347 0.000000 0.000000 0.000000
1.026114 -1.350607 1.537434 0.000000 0.000000 0.000000
1.173176 -1.325343 1.787524 0.000000 0.000000 0.000000
0.859921 -1.444105 1.736587 0.000000 0.000000 0.000000
1.130317 -1.367732 1.868976 0.000000 0.000000 0.000000
0.950722 -1.373582 1.617609 0.000000 0.000000 0.000000
1.072980 -1.409847 2.093730 0.000000 0.000000 0.000000
1.165244 -1.391695 1.582258 0.000000 0.000000 0.000000
1.077780 -1.407359 2.074283 0.000000 0.000000 0.000000
0.739565 -1.475143 1.655231 0.000000 0.000000 0.000000
0.815559 -1.442980 1.858005 0.000000 0.000000 0.000000
1.038120 -1.427643 2.125562 0.000000 0.000000 0.000000
1.053138 -1.429480 2.096422 0.000000 0.000000 0.000000
1.084294 -1.405715 2.101151 0.000000 0.000000 0.000000
1.053085 -1.431087 2.117807 0.000000 0.000000 0.000000
0.919139 -1.416507 2.034147 0.000000 0.000000 0.000000
0.713345 -1.480651 1.697813 0.000000 0.000000 0.000000
0.743424 -1.460611 1.668275 0.000000 0.000000 0.000000
0.759674 -1.433927 1.587865 0.000000 0.000000 0.000000
0.747601 -1.457717 1.576444 0.000000 0.000000 0.000000
1.065848 -1.443024 2.129926 0.000000 0.000000 0.000000
1.040788 -1.428788 2.119957 0.000000 0.000000 0.000000
1.052951 -1.410086 1.911405 0.000000 0.000000 0.000000
1.074739 -1.420106 2.044188 0.000000 0.000000 0.000000
0.730916 -1.481156 1.647506 0.000000 0.000000 0.000000
0.745872 -1.452109 1.604892 0.000000 0.000000 0.000000
1.116443 -1.341844 1.868889 0.000000 0.000000 0.000000
1.132008 -1.374608 1.817801 0.000000 0.000000 0.000000
1.021048 -1.425586 2.090925 0.000000 0.000000 0.000000
0.920000 -1.405239 2.022356 0.000000 0.000000 0.000000
0.733125 -1.439030 1.721790 0.000000 0.000000 0.000000
0.735187 -1.432836 1.609841 0.000000 0.000000 0.000000
0.842790 -1.450587 1.842974 0.000000 0.000000 0.000000
0.829644 -1.435011 1.864350 0.000000 0.000000 0.000000
0.933786 -1.326067 1.480372 0.000000 0.000000 0.000000
0.923908 -1.415034 2.041068 0.000000 0.000000 0.000000
0.747419 -1.436810 1.600678 0.000000 0.000000 0.000000
1.148516 -1.370788 1.597259 0.000000 0.000000 0.000000
0.749946 -1.457787 1.605191 0.000000 0.000000 0.000000
1.120471 -1.374396 1.599953 0.000000 0.000000 0.000000
1.118999 -1.385499 1.872696 0.000000 0.000000 0.000000
0.727067 -1.442345 1.632146 0.000000 0.000000 0.000000
0.856193 -1.359313 1.443285 0.000000 0.000000 0.000000
0.789086 -1.443065 1.764998 0.000000 0.000000 0.000000
1.149155 -1.407107 1.671489 0.000000 0.000000 0.000000
0.968796 -1.408563 2.072949 0.000000 0.000000 0.000000
1.048674 -1.431928 2.110988 0.000000 0.000000 0.000000
0.712519 -1.478433 1.710071 0.000000 0.000000 0.000000
1.105523 -1.375284 1.588617 0.000000 0.000000 0.000000
1.170622 -1.311237 1.757470 0.000000 0.000000 0.000000
0.775775 -1.441698 1.789957 0.000000 0.000000 0.000000
0.743178 -1.394840 1.555637 0.000000 0.000000 0.000000
0.980274 -1.410329 2.066095 0.000000 0.000000 0.000000
0.941150 -1.337347 1.541420 0.000000 0.000000 0.000000
1.119164 -1.350781 1.896423 0.000000 0.000000 0.000000
1.149611 -1.361523 1.913343 0.000000 0.000000 0.000000
1.162082 -1.369559 1.802307 0.000000 0.000000 0.000000
0.749177 -1.384400 1.532206 0.000000 0.000000 0.000000
0.766695 -1.417012 1.805574 0.000000 0.000000 0.000000
1.129540 -1.376324 1.996769 0.000000 0.000000 0.000000
1.128525 -1.368773 2.015444 0.000000 0.000000 0.000000
0.934338 -1.409762 1.655140 0.000000 0.000000 0.000000
0.764444 -1.440499 1.766626 0.000000 0.000000 0.000000
1.156449 -1.374428 1.676671 0.000000 0.000000 0.000000
0.735670 -1.434868 1.609710 0.000000 0.000000 0.000000
0.812546 -1.380037 1.531185 0.000000 0.000000 0.000000
0.722932 -1.472855 1.657159 0.000000 0.000000 0.000000
1.176565 -1.341972 1.831043 0.000000 0.000000 0.000000
0.895436 -1.422587 1.675701 0.000000 0.000000 0.000000
1.080568 -1.381815 2.085506 0.000000 0.000000 0.000000
0.723141 -1.469721 1.643647 0.000000 0.000000 0.000000
0.771921 -1.455260 1.723985 0.000000 0.000000 0.000000
0.869224 -1.441659 1.864748 0.000000 0.000000 0.000000
1.022207 -1.404605 1.788240 0.000000 0.000000 0.000000
0.848847 -1.393733 1.572755 0.000000 0.000000 0.000000
0.933907 -1.401476 2.034148 0.000000 0.000000 0.000000
1.111094 -1.383342 2.005983 0.000000 0.000000 0.000000
1.147186 -1.377461 1.524597 0.000000 0.000000 0.000000
0.755923 -1.427289 1.563762 0.000000 0.000000 0.000000
1.059430 -1.405465 2.054623 0.000000 0.000000 0.000000
0.821050 -1.441321 1.648753 0.000000 0.000000 0.000000
0.910899 -1.371507 1.585096 0.000000 0.000000 0.000000
1.045680 -1.365605 1.523555 0.000000 0.000000 0.000000
0.773900 -1.453149 1.737963 0.000000 0.000000 0.000000
1.129824 -1.386623 2.011998 0.000000 0.000000 0.000000
0.858840 -1.443364 1.736269 0.000000 0.000000 0.000000
1.052236 -1.408952 1.869339 0.000000 0.000000 0.000000
0.818130 -1.446702 1.787351 0.000000 0.000000 0.000000
0.802902 -1.452896 1.834008 0.000000 0.000000 0.000000
0.821138 -1.445653 1.666206 0.000000 0.000000 0.000000
0.790047 -1.439061 1.609421 0.000000 0.000000 0.000000
0.875469 -1.398052 1.560055 0.000000 0.000000 0.000000
0.789041 -1.434339 1.559517 0.000000 0.000000 0.000000
0.750063 -1.431242 1.554141 0.000000 0.000000 0.000000
0.839014 -1.373364 1.477296 0.000000 0.000000 0.000000
1.056785 -1.397998 1.793903 0.000000 0.000000 0.000000
1.044289 -1.437075 2.115118 0.000000 0.000000 0.000000
0.959637 -1.352846 1.505129 0.000000 0.000000 0.000000
1.112973 -1.380963 1.983909 0.000000 0.000000 0.000000
0.761725 -1.435453 1.758487 0.000000 0.000000 0.000000
1.132456 -1.362953 1.843988 0.000000 0.000000 0.000000
1.125258 -1.376139 1.894194 0.000000 0.000000 0.000000
0.860999 -1.413043 1.921439 0.000000 0.000000 0.000000
0.902424 -1.435746 1.876759 0.000000 0.000000 0.000000
0.919362 -1.376747 1.620608 0.000000 0.000000 0.000000
0.875714 -1.426970 1.874138 0.000000 0.000000 0.000000
0.899931 -1.405216 1.644633 0.000000 0.000000 0.000000
0.997361 -1.381060 1.629694 0.000000 0.000000 0.000000
1.056013 -1.428597 2.124121 0.000000 0.000000 0.000000
1.053346 -1.430290 2.135877 0.000000 0.000000 0.000000
1.020917 -1.410928 1.850264 0.000000 0.000000 0.000000
1.136986 -1.374132 1.516914 0.000000 0.000000 0.000000
0.839040 -1.441674 1.676723 0.000000 0.000000 0.000000
0.888792 -1.398769 1.584025 0.000000 0.000000 0.000000
0.911061 -1.431914 1.729530 0.000000 0.000000 0.000000
1.040296 -1.380591 1.649027 0.000000 0.000000 0.000000
1.040428 -1.356855 1.536590 0.000000 0.000000 0.000000
1.027372 -1.354717 1.523931 0.000000 0.000000 0.000000
0.857558 -1.418012 1.596358 0.000000 0.000000 0.000000
1.104554 -1.371474 1.811349 0.000000 0.000000 0.000000
1.131366 -1.365346 2.011881 0.000000 0.000000 0.000000
1.040737 -1.422399 2.084466 0.000000 0.000000 0.000000
0.849808 -1.447851 1.801960 0.000000 0.000000 0.000000
1.084222 -1.386982 1.869395 0.000000 0.000000 0.000000
1.068118 -1.393783 1.828493 0.000000 0.000000 0.000000
0.818351 -1.439824 1.770860 0.000000 0.000000 0.000000
1.065421 -1.426841 2.059300 0.000000 0.000000 0.000000
0.868140 -1.433237 1.675928 0.000000 0.000000 0.000000
1.044949 -1.394102 1.466883 0.000000 0.000000 0.000000
0.812866 -1.453882 1.815663 0.000000 0.000000 0.000000
1.095094 -1.402704 1.912745 0.000000 0.000000 0.000000
1.086805 -1.373732 1.584824 0.000000 0.000000 0.000000
0.945636 -1.305871 1.467499 0.000000 0.000000 0.000000
0.968654 -1.360131 1.538622 0.000000 0.000000 0.000000
0.881702 -1.378387 1.530782 0.000000 0.000000 0.000000
0.781605 -1.455648 1.631462 0.000000 0.000000 0.000000
1.009578 -1.369329 1.586364 0.000000 0.000000 0.000000
0.818642 -1.403555 1.522952 0.000000 0.000000 0.000000
0.863814 -1.368026 1.493483 0.000000 0.000000 0.000000
1.083195 -1.390180 1.830523 0.000000 0.000000 0.000000
0.719442 -1.484152 1.686875 0.000000 0.000000 0.000000
0.744102 -1.422916 1.733254 0.000000 0.000000 0.000000
0.947308 -1.331720 1.510594 0.000000 0.000000 0.000000
0.988985 -1.342584 1.510642 0.000000 0.000000 0.000000
1.177316 -1.314669 1.782852 0.000000 0.000000 0.000000
1.130021 -1.372161 1.878858 0.000000 0.000000 0.000000
0.768677 -1.433214 1.548183 0.000000 0.000000 0.000000
1.079984 -1.420776 2.148210 0.000000 0.000000 0.000000
0.721795 -1.470021 1.698240 0.000000 0.000000 0.000000
0.722440 -1.469038 1.676604 0.000000 0.000000 0.000000
1.146915 -1.402638 1.977072 0.000000 0.000000 0.000000
1.142819 -1.387417 1.971277 0.000000 0.000000 0.000000
0.839325 -1.446447 1.884108 0.000000 0.000000 0.000000
0.720283 -1.483869 1.678948 0.000000 0.000000 0.000000
0.727383 -1.468264 1.649952 0.000000 0.000000 0.000000
0.799755 -1.447282 1.859694 0.000000 0.000000 0.000000
1.135555 -1.397479 1.978521 0.000000 0.000000 0.000000
1.171296 -1.370695 1.803223 0.000000 0.000000 0.000000
0.719526 -1.481245 1.678043 0.000000 0.000000 0.000000
1.140673 -1.382790 1.933837 0.000000 0.000000 0.000000
1.126047 -1.375407 1.826642 0.000000 0.000000 0.000000
1.092143 -1.396436 2.106067 0.000000 0.000000 0.000000
0.944288 -1.291075 1.462032 0.000000 0.000000 0.000000
0.718515 -1.468535 1.702809 0.000000 0.000000 0.000000
0.723754 -1.476300 1.678833 0.000000 0.000000 0.000000
0.747637 -1.412004 1.568730 0.000000 0.000000 0.000000
1.091914 -1.406070 2.073223 0.000000 0.000000 0.000000
1.111362 -1.397466 1.926207 0.000000 0.000000 0.000000
0.891274 -1.326488 1.455865 0.000000 0.000000 0.000000
0.722428 -1.456868 1.708265 0.000000 0.000000 0.000000
0.831819 -1.384451 1.561127 0.000000 0.000000 0.000000
0.863659 -1.452172 1.870682 0.000000 0.000000 0.000000
1.127500 -1.358415 1.585130 0.000000 0.000000 0.000000
0.834118 -1.442684 1.876282 0.000000 0.000000 0.000000
1.159578 -1.344474 1.618686 0.000000 0.000000 0.000000
1.148764 -1.383284 1.581978 0.000000 0.000000 0.000000
1.133391 -1.377412 1.951716 0.000000 0.000000 0.000000
0.878484 -1.340571 1.456376 0.000000 0.000000 0.000000
0.852538 -1.362833 1.476816 0.000000 0.000000 0.000000
0.852459 -1.356775 1.459702 0.000000 0.000000 0.000000
1.090241 -1.404653 2.093032 0.000000 0.000000 0.000000
0.875005 -1.344059 1.467884 0.000000 0.000000 0.000000
0.945178 -1.347129 1.462550 0.000000 0.000000 0.000000
0.828195 -1.446987 1.865721 0.000000 0.000000 0.000000
0.966222 -1.307207 1.441860 0.000000 0.000000 0.000000
1.147058 -1.369439 1.923853 0.000000 0.000000 0.000000
0.763384 -1.411273 1.561094 0.000000 0.000000 0.000000
1.142634 -1.394732 1.972667 0.000000 0.000000 0.000000
0.818758 -1.441127 1.866980 0.000000 0.000000 0.000000
0.894147 -1.337355 1.447549 0.000000 0.000000 0.000000
0.894394 -1.345618 1.436156 0.000000 0.000000 0.000000
1.108785 -1.379344 2.052155 0.000000 0.000000 0.000000
1.136603 -1.379608 1.977098 0.000000 0.000000 0.000000
0.715760 -1.477225 1.683859 0.000000 0.000000 0.000000
1.028971 -1.410556 1.879028 0.000000 0.000000 0.000000
0.930426 -1.439576 1.886325 0.000000 0.000000 0.000000
1.157897 -1.391683 1.734821 0.000000 0.000000 0.000000
0.725286 -1.489128 1.685027 0.000000 0.000000 0.000000
0.923525 -1.322518 1.455992 0.000000 0.000000 0.000000
0.828370 -1.384457 1.470680 0.000000 0.000000 0.000000
0.776270 -1.441433 1.767739 0.000000 0.000000 0.000000
1.105492 -1.342100 1.509352 0.000000 0.000000 0.000000
0.969304 -1.363938 1.592564 0.000000 0.000000 0.000000
1.074921 -1.421987 2.101337 0.000000 0.000000 0.000000
0.783322 -1.424725 1.583736 0.000000 0.000000 0.000000
1.147401 -1.404021 1.678912 0.000000 0.000000 0.000000
0.898412 -1.406392 1.631114 0.000000 0.000000 0.000000
1.079380 -1.399312 1.855814 0.000000 0.000000 0.000000
1.089516 -1.389576 2.017680 0.000000 0.000000 0.000000
0.990942 -1.325621 1.463801 0.000000 0.000000 0.000000
0.727994 -1.476657 1.658419 0.000000 0.000000 0.000000
1.091589 -1.425189 2.129968 0.000000 0.000000 0.000000
0.951375 -1.304526 1.477058 0.000000 0.000000 0.000000
1.058661 -1.415935 2.068726 0.000000 0.000000 0.000000
1.108204 -1.397815 1.909418 0.000000 0.000000 0.000000
1.116210 -1.379265 1.500985 0.000000 0.000000 0.000000
0.862422 -1.362674 1.496818 0.000000 0.000000 0.000000
0.798091 -1.412722 1.536093 0.000000 0.000000 0.000000
1.061618 -1.430523 2.069740 0.000000 0.000000 0.000000
0.827589 -1.385645 1.521938 0.000000 0.000000 0.000000
0.753567 -1.464733 1.689182 0.000000 0.000000 0.000000
1.124846 -1.391837 1.914622 0.000000 0.000000 0.000000
0.733914 -1.432801 1.607285 0.000000 0.000000 0.000000
0.761194 -1.430946 1.551196 0.000000 0.000000 0.000000
0.736546 -1.478705 1.691949 0.000000 0.000000 0.000000
0.782237 -1.448188 1.750017 0.000000 0.000000 0.000000
0.860977 -1.430580 1.713240 0.000000 0.000000 0.000000
1.141838 -1.369706 1.508931 0.000000 0.000000 0.000000
1.093796 -1.356232 1.494645 0.000000 0.000000 0.000000
1.182709 -1.307315 1.767356 0.000000 0.000000 0.000000
1.139172 -1.377941 1.523989 0.000000 0.000000 0.000000
0.853877 -1.389029 1.534003 0.000000 0.000000 0.000000
0.875319 -1.415353 1.665186 0.000000 0.000000 0.000000
1.134669 -1.370295 1.828588 0.000000 0.000000 0.000000
1.097128 -1.399263 2.110758 0.000000 0.000000 0.000000
0.723605 -1.467770 1.697128 0.000000 0.000000 0.000000
0.730018 -1.475880 1.691057 0.000000 0.000000 0.000000
0.750165 -1.458095 1.597909 0.000000 0.000000 0.000000
1.070685 -1.428143 2.097034 0.000000 0.000000 0.000000
1.147087 -1.412748 1.712699 0.000000 0.000000 0.000000
1.113307 -1.394054 1.950998 0.000000 0.000000 0.000000
0.861047 -1.365790 1.553384 0.000000 0.000000 0.000000
0.724460 -1.465925 1.666915 0.000000 0.000000 0.000000
1.152586 -1.342802 1.578714 0.000000 0.000000 0.000000
0.839956 -1.442489 1.877064 0.000000 0.000000 0.000000
1.161457 -1.343125 1.623354 0.000000 0.000000 0.000000
1.143257 -1.400397 1.683684 0.000000 0.000000 0.000000
0.885801 -1.330249 1.444796 0.000000 0.000000 0.000000
0.882450 -1.329819 1.466244 0.000000 0.000000 0.000000
0.887178 -1.337532 1.463915 0.000000 0.000000 0.000000
0.743760 -1.405242 1.561129 0.000000 0.000000 0.000000
0.844363 -1.445684 1.869403 0.000000 0.000000 0.000000
0.892459 -1.344801 1.478785 0.000000 0.000000 0.000000
1.144901 -1.370426 1.918903 0.000000 0.000000 0.000000
0.744231 -1.425684 1.580924 0.000000 0.000000 0.000000
0.856757 -1.437595 1.895068 0.000000 0.000000 0.000000
0.894803 -1.346207 1.464386 0.000000 0.000000 0.000000
1.119816 -1.367191 2.041278 0.000000 0.000000 0.000000
1.089358 -1.413063 2.116639 0.000000 0.000000 0.000000
0.961420 -1.439509 1.893302 0.000000 0.000000 0.000000
1.145935 -1.378276 1.576454 0.000000 0.000000 0.000000
0.728164 -1.486552 1.682974 0.000000 0.000000 0.000000
0.879777 -1.332660 1.472071 0.000000 0.000000 0.000000
1.129208 -1.373126 1.500796 0.000000 0.000000 0.000000
0.771261 -1.444041 1.774614 0.000000 0.000000 0.000000
1.125353 -1.353092 1.517314 0.000000 0.000000 0.000000
0.858093 -1.438513 1.884677 0.000000 0.000000 0.000000
0.833912 -1.370906 1.519886 0.000000 0.000000 0.000000
0.858078 -1.435094 1.900240 0.000000 0.000000 0.000000
0.948933 -1.426739 1.776025 0.000000 0.000000 0.000000
1.065632 -1.397572 1.842415 0.000000 0.000000 0.000000
1.100346 -1.386416 2.023848 0.000000 0.000000 0.000000
0.996231 -1.340305 1.478923 0.000000 0.000000 0.000000
0.727032 -1.480958 1.666256 0.000000 0.000000 0.000000
1.089184 -1.430331 2.152092 0.000000 0.000000 0.000000
0.962857 -1.304446 1.489257 0.000000 0.000000 0.000000
1.104457 -1.331565 1.487713 0.000000 0.000000 0.000000
1.069425 -1.421697 2.049618 0.000000 0.000000 0.000000
0.906916 -1.353713 1.520820 0.000000 0.000000 0.000000
0.886107 -1.411719 1.623759 0.000000 0.000000 0.000000
0.983052 -1.331927 1.480635 0.000000 0.000000 0.000000
0.829649 -1.399886 1.524981 0.000000 0.000000 0.000000
0.748394 -1.461940 1.699982 0.000000 0.000000 0.000000
0.759172 -1.448904 1.572158 0.000000 0.000000 0.000000
1.123258 -1.392604 1.923965 0.000000 0.000000 0.000000
0.729707 -1.444890 1.650953 0.000000 0.000000 0.000000
0.847173 -1.360087 1.473066 0.000000 0.000000 0.000000
1.147295 -1.373977 1.800693 0.000000 0.000000 0.000000
0.766518 -1.454852 1.734451 0.000000 0.000000 0.000000
0.809225 -1.444314 1.725240 0.000000 0.000000 0.000000
1.107437 -1.372767 1.522249 0.000000 0.000000 0.000000
1.185886 -1.305614 1.758527 0.000000 0.000000 0.000000
1.140696 -1.359243 1.538190 0.000000 0.000000 0.000000
0.853814 -1.387530 1.522592 0.000000 0.000000 0.000000
0.729282 -1.450694 1.762620 0.000000 0.000000 0.000000
0.929819 -1.399351 1.659007 0.000000 0.000000 0.000000
1.190493 -1.282882 1.733945 0.000000 0.000000 0.000000
1.182046 -1.300892 1.724137 0.000000 0.000000 0.000000
1.143213 -1.398965 1.979210 0.000000 0.000000 0.000000
0.854098 -1.425142 1.910988 0.000000 0.000000 0.000000
0.810910 -1.443040 1.862208 0.000000 0.000000 0.000000
0.734243 -1.444881 1.655127 0.000000 0.000000 0.000000
0.863608 -1.396040 1.940272 0.000000 0.000000 0.000000
0.923801 -1.403131 2.020201 0.000000 0.000000 0.000000
1.134824 -1.371999 1.911743 0.000000 0.000000 0.000000
1.086597 -1.399429 2.068316 0.000000 0.000000 0.000000
0.863542 -1.417933 1.931270 0.000000 0.000000 0.000000
1.118415 -1.290677 1.768394 0.000000 0.000000 0.000000
0.730742 -1.449094 1.625884 0.000000 0.000000 0.000000
1.102205 -1.397747 2.086865 0.000000 0.000000 0.000000
1.174897 -1.355036 1.647559 0.000000 0.000000 0.000000
1.184467 -1.318997 1.731998 0.000000 0.000000 0.000000
0.746594 -1.406377 1.561329 0.000000 0.000000 0.000000
0.967736 -1.409067 2.078995 0.000000 0.000000 0.000000
1.137931 -1.389487 1.939930 0.000000 0.000000 0.000000
1.127703 -1.355304 1.922397 0.000000 0.000000 0.000000
1.120016 -1.391762 1.937387 0.000000 0.000000 0.000000
1.155427 -1.362334 1.789202 0.000000 0.000000 0.000000
1.004538 -1.420395 2.008181 0.000000 0.000000 0.000000
0.848960 -1.429468 1.904709 0.000000 0.000000 0.000000
1.076977 -1.417149 2.058082 0.000000 0.000000 0.000000
1.149488 -1.393138 1.733372 0.000000 0.000000 0.000000
0.938164 -1.404874 2.057039 0.000000 0.000000 0.000000
0.943720 -1.435846 1.922317 0.000000 0.000000 0.000000
0.847972 -1.432667 1.901006 0.000000 0.000000 0.000000
1.156026 -1.380019 1.781117 0.000000 0.000000 0.000000
1.134179 -1.384167 1.879249 0.000000 0.000000 0.000000
0.762797 -1.393817 1.549771 0.000000 0.000000 0.000000
1.146424 -1.360944 1.857686 0.000000 0.000000 0.000000
1.087437 -1.357882 1.802767 0.000000 0.000000 0.000000
1.079187 -1.368157 1.513608 0.000000 0.000000 0.000000
1.145103 -1.362224 1.848832 0.000000 0.000000 0.000000
0.986188 -1.401318 2.086522 0.000000 0.000000 0.000000
0.967126 -1.422556 2.048918 0.000000 0.000000 0.000000
0.940755 -1.309470 1.470336 0.000000 0.000000 0.000000
1.175822 -1.314475 1.742032 0.000000 0.000000 0.000000
0.846014 -1.416182 1.894142 0.000000 0.000000 0.000000
1.122449 -1.368844 1.589560 0.000000 0.000000 0.000000
1.094257 -1.378360 1.958264 0.000000 0.000000 0.000000
1.155542 -1.374258 1.936224 0.000000 0.000000 0.000000
0.936590 -1.391327 1.625390 0.000000 0.000000 0.000000
0.843856 -1.384911 1.516546 0.000000 0.000000 0.000000
1.135996 -1.377913 1.891222 0.000000 0.000000 0.000000
1.102208 -1.388334 2.072133 0.000000 0.000000 0.000000
1.163809 -1.380764 1.779209 0.000000 0.000000 0.000000
0.926235 -1.315186 1.437377 0.000000 0.000000 0.000000
1.130427 -1.308434 1.771083 0.000000 0.000000 0.000000
0.952869 -1.409422 2.061129 0.000000 0.000000 0.000000
0.722985 -1.436345 1.627844 0.000000 0.000000 0.000000
1.105018 -1.394756 2.093056 0.000000 0.000000 0.000000
1.081838 -1.413140 2.130885 0.000000 0.000000 0.000000
1.174716 -1.361739 1.646115 0.000000 0.000000 0.000000
1.182896 -1.328367 1.745230 0.000000 0.000000 0.000000
0.778332 -1.405112 1.551383 0.000000 0.000000 0.000000
0.940162 -1.408593 2.051710 0.000000 0.000000 0.000000
0.958718 -1.410295 2.076580 0.000000 0.000000 0.000000
1.133368 -1.372358 1.928087 0.000000 0.000000 0.000000
1.134817 -1.383975 1.899739 0.000000 0.000000 0.000000
1.122458 -1.352831 1.888172 0.000000 0.000000 0.000000
1.124978 -1.356690 1.920745 0.000000 0.000000 0.000000
1.191490 -1.286052 1.722234 0.000000 0.000000 0.000000
1.133756 -1.391000 1.940477 0.000000 0.000000 0.000000
0.833365 -1.382592 1.495715 0.000000 0.000000 0.000000
1.011369 -1.429505 2.041083 0.000000 0.000000 0.000000
1.151056 -1.358093 1.838392 0.000000 0.000000 0.000000
0.845951 -1.432219 1.900810 0.000000 0.000000 0.000000
1.075219 -1.418221 2.077561 0.000000 0.000000 0.000000
1.119367 -1.377623 1.724016 0.000000 0.000000 0.000000
0.865276 -1.423437 1.921777 0.000000 0.000000 0.000000
0.950090 -1.404578 2.061830 0.000000 0.000000 0.000000
0.926907 -1.355103 1.433091 0.000000 0.000000 0.000000
0.958247 -1.422881 1.992291 0.000000 0.000000 0.000000
0.862513 -1.436459 1.903909 0.000000 0.000000 0.000000
1.131373 -1.350446 1.882284 0.000000 0.000000 0.000000
1.116783 -1.388618 1.890051 0.000000 0.000000 0.000000
0.765599 -1.376899 1.543362 0.000000 0.000000 0.000000
1.122143 -1.381354 1.937330 0.000000 0.000000 0.000000
1.048610 -1.363202 1.790151 0.000000 0.000000 0.000000
1.075269 -1.372265 1.516853 0.000000 0.000000 0.000000
1.148909 -1.358187 1.863208 0.000000 0.000000 0.000000
0.964493 -1.407636 2.070803 0.000000 0.000000 0.000000
0.983429 -1.328285 1.505645 0.000000 0.000000 0.000000
1.176854 -1.331077 1.737584 0.000000 0.000000 0.000000
0.837910 -1.412519 1.896890 0.000000 0.000000 0.000000
0.817708 -1.387168 1.490049 0.000000 0.000000 0.000000
1.119066 -1.373170 2.042584 0.000000 0.000000 0.000000
1.121180 -1.354282 1.476924 0.000000 0.000000 0.000000
1.082305 -1.362006 1.556275 0.000000 0.000000 0.000000
1.102656 -1.377716 1.555836 0.000000 0.000000 0.000000
1.081535 -1.419207 2.108003 0.000000 0.000000 0.000000
1.115402 -1.369690 1.550298 0.000000 0.000000 0.000000
1.141261 -1.393260 1.978731 0.000000 0.000000 0.000000
1.169933 -1.304736 1.749461 0.000000 0.000000 0.000000
1.163258 -1.370921 1.793830 0.000000 0.000000 0.000000
0.757944 -1.382198 1.530279 0.000000 0.000000 0.000000
0.721801 -1.474818 1.668057 0.000000 0.000000 0.000000
0.715542 -1.423521 1.613510 0.000000 0.000000 0.000000
0.744137 -1.381043 1.527170 0.000000 0.000000 0.000000
0.814732 -1.395475 1.504024 0.000000 0.000000 0.000000
1.135283 -1.387346 1.996619 0.000000 0.000000 0.000000
0.750502 -1.391483 1.540581 0.000000 0.000000 0.000000
1.133222 -1.306050 1.778276 0.000000 0.000000 0.000000
1.122434 -1.302610 1.774872 0.000000 0.000000 0.000000
0.750368 -1.399543 1.533191 0.000000 0.000000 0.000000
1.126474 -1.380699 1.621383 0.000000 0.000000 0.000000
0.752840 -1.388677 1.523980 0.000000 0.000000 0.000000
1.141595 -1.366936 1.917274 0.000000 0.000000 0.000000
1.173278 -1.290784 1.755644 0.000000 0.000000 0.000000
0.720590 -1.463419 1.743237 0.000000 0.000000 0.000000
0.747409 -1.392303 1.547907 0.000000 0.000000 0.000000
0.993969 -1.434512 1.931021 0.000000 0.000000 0.000000
0.747531 -1.396245 1.553025 0.000000 0.000000 0.000000
1.113375 -1.383896 2.069908 0.000000 0.000000 0.000000
1.114210 -1.360039 1.585705 0.000000 0.000000 0.000000
1.158841 -1.302096 1.738554 0.000000 0.000000 0.000000
1.124265 -1.376283 1.915294 0.000000 0.000000 0.000000
1.125097 -1.371344 1.813004 0.000000 0.000000 0.000000
1.120360 -1.391560 2.006323 0.000000 0.000000 0.000000
0.717672 -1.423831 1.614500 0.000000 0.000000 0.000000
1.126774 -1.302272 1.765168 0.000000 0.000000 0.000000
0.744912 -1.396036 1.523882 0.000000 0.000000 0.000000
1.133970 -1.385897 1.634426 0.000000 0.000000 0.000000
1.145300 -1.360410 1.899998 0.000000 0.000000 0.000000
0.952029 -1.406550 1.631707 0.000000 0.000000 0.000000
1.158838 -1.293617 1.762871 0.000000 0.000000 0.000000
0.722935 -1.457168 1.731447 0.000000 0.000000 0.000000
0.758659 -1.383509 1.535512 0.000000 0.000000 0.000000
0.744612 -1.383016 1.538496 0.000000 0.000000 0.000000
1.108990 -1.382336 1.537409 0.000000 0.000000 0.000000
1.177628 -1.314712 1.733775 0.000000 0.000000 0.000000
1.155482 -1.371569 1.802065 0.000000 0.000000 0.000000
1.130528 -1.398051 1.988759 0.000000 0.000000 0.000000
1.154903 -1.355636 1.954516 0.000000 0.000000 0.000000
1.071971 -1.367200 1.499969 0.000000 0.000000 0.000000
1.126647 -1.382512 1.885908 0.000000 0.000000 0.000000
1.113706 -1.374059 1.508006 0.000000 0.000000 0.000000
1.138888 -1.362257 1.867317 0.000000 0.000000 0.000000
0.723432 -1.426335 1.629839 0.000000 0.000000 0.000000
0.923800 -1.404088 2.025075 0.000000 0.000000 0.000000
1.047016 -1.443481 2.078504 0.000000 0.000000 0.000000
1.187941 -1.292223 1.718393 0.000000 0.000000 0.000000
1.022177 -1.420016 2.116804 0.000000 0.000000 0.000000
0.942914 -1.417789 1.984967 0.000000 0.000000 0.000000
1.151347 -1.401773 1.592699 0.000000 0.000000 0.000000
0.919132 -1.415886 2.031054 0.000000 0.000000 0.000000
0.774636 -1.384582 1.538701 0.000000 0.000000 0.000000
0.836443 -1.406863 1.898920 0.000000 0.000000 0.000000
1.129577 -1.399800 1.975982 0.000000 0.000000 0.000000
1.145766 -1.354874 1.630184 0.000000 0.000000 0.000000
0.976061 -1.425963 2.007349 0.000000 0.000000 0.000000
0.833756 -1.458022 1.791359 0.000000 0.000000 0.000000
1.189600 -1.320968 1.716658 0.000000 0.000000 0.000000
1.173589 -1.281545 1.820391 0.000000 0.000000 0.000000
1.142871 -1.376805 1.990337 0.000000 0.000000 0.000000
0.943471 -1.337078 1.461474 0.000000 0.000000 0.000000
1.166728 -1.295931 1.707863 0.000000 0.000000 0.000000
1.172366 -1.357472 1.640432 0.000000 0.000000 0.000000
1.132852 -1.367979 1.871029 0.000000 0.000000 0.000000
0.876393 -1.433141 1.700469 0.000000 0.000000 0.000000
1.136155 -1.382388 1.897041 0.000000 0.000000 0.000000
0.759511 -1.426709 1.817006 0.000000 0.000000 0.000000
0.836927 -1.431731 1.895587 0.000000 0.000000 0.000000
1.194646 -1.270377 1.738232 0.000000 0.000000 0.000000
1.045697 -1.429209 2.099135 0.000000 0.000000 0.000000
1.110096 -1.390215 2.012859 0.000000 0.000000 0.000000
1.133142 -1.369673 1.866700 0.000000 0.000000 0.000000
1.042328 -1.437588 2.069452 0.000000 0.000000 0.000000
0.941750 -1.423781 1.748565 0.000000 0.000000 0.000000
1.023301 -1.413465 1.826735 0.000000 0.000000 0.000000
0.820466 -1.387062 1.490809 0.000000 0.000000 0.000000
1.075717 -1.396400 2.098051 0.000000 0.000000 0.000000
1.077795 -1.368336 1.538064 0.000000 0.000000 0.000000
1.136861 -1.379886 1.564036 0.000000 0.000000 0.000000
1.049900 -1.419331 2.110354 0.000000 0.000000 0.000000
1.132778 -1.402057 1.904657 0.000000 0.000000 0.000000
0.847850 -1.423000 1.913486 0.000000 0.000000 0.000000
0.862550 -1.432299 1.914734 0.000000 0.000000 0.000000
1.134685 -1.396971 1.897730 0.000000 0.000000 0.000000
0.937645 -1.319949 1.437037 0.000000 0.000000 0.000000
0.941488 -1.410326 2.029524 0.000000 0.000000 0.000000
1.072597 -1.420998 2.105696 0.000000 0.000000 0.000000
0.812599 -1.392492 1.501734 0.000000 0.000000 0.000000
1.142773 -1.391640 1.925994 0.000000 0.000000 0.000000
1.004139 -1.427706 1.902091 0.000000 0.000000 0.000000
1.155193 -1.370454 1.668883 0.000000 0.000000 0.000000
1.096470 -1.412367 2.111819 0.000000 0.000000 0.000000
0.962360 -1.419016 2.005958 0.000000 0.000000 0.000000
0.843969 -1.437889 1.884065 0.000000 0.000000 0.000000
1.170081 -1.288264 1.818790 0.000000 0.000000 0.000000
1.133136 -1.380922 2.013641 0.000000 0.000000 0.000000
0.860048 -1.356387 1.462199 0.000000 0.000000 0.000000
1.178243 -1.289758 1.708526 0.000000 0.000000 0.000000
1.170109 -1.354908 1.641180 0.000000 0.000000 0.000000
0.785159 -1.459031 1.704324 0.000000 0.000000 0.000000
0.833459 -1.432183 1.890337 0.000000 0.000000 0.000000
1.191512 -1.277965 1.747973 0.000000 0.000000 0.000000
1.045897 -1.429926 2.093091 0.000000 0.000000 0.000000
0.982971 -1.369870 1.619516 0.000000 0.000000 0.000000
1.128652 -1.392070 1.971424 0.000000 0.000000 0.000000
1.042678 -1.438345 2.061801 0.000000 0.000000 0.000000
1.010771 -1.417025 1.809048 0.000000 0.000000 0.000000
1.136216 -1.388231 1.900783 0.000000 0.000000 0.000000
0.800184 -1.407573 1.512148 0.000000 0.000000 0.000000
1.066888 -1.416105 2.099651 0.000000 0.000000 0.000000
1.051863 -1.365445 1.508384 0.000000 0.000000 0.000000
1.122158 -1.372107 1.554292 0.000000 0.000000 0.000000
1.005908 -1.429421 1.947552 0.000000 0.000000 0.000000
1.056045 -1.422397 2.101517 0.000000 0.000000 0.000000
0.848212 -1.433507 1.921647 0.000000 0.000000 0.000000
1.138379 -1.380604 1.894449 0.000000 0.000000 0.000000
0.967717 -1.311342 1.446271 0.000000 0.000000 0.000000
0.948873 -1.409905 2.042800 0.000000 0.000000 0.000000
0.808381 -1.398783 1.506088 0.000000 0.000000 0.000000
1.145412 -1.387421 1.943023 0.000000 0.000000 0.000000
1.028025 -1.413542 1.895548 0.000000 0.000000 0.000000
0.715945 -1.465685 1.707058 0.000000 0.000000 0.000000
1.125700 -1.398487 1.987598 0.000000 0.000000 0.000000
1.145662 -1.406696 1.970621 0.000000 0.000000 0.000000
1.131788 -1.385873 1.961166 0.000000 0.000000 0.000000
0.924346 -1.416931 2.046257 0.000000 0.000000 0.000000
1.132130 -1.394821 1.970125 0.000000 0.000000 0.000000
1.153765 -1.353215 1.958365 0.000000 0.000000 0.000000
1.133469 -1.393767 1.906734 0.000000 0.000000 0.000000
1.101220 -1.390120 2.035774 0.000000 0.000000 0.000000
1.094668 -1.412660 2.108047 0.000000 0.000000 0.000000
1.090973 -1.394302 2.006166 0.000000 0.000000 0.000000
0.716143 -1.467821 1.726440 0.000000 0.000000 0.000000
0.767378 -1.421368 1.537769 0.000000 0.000000 0.000000
0.713354 -1.465697 1.714646 0.000000 0.000000 0.000000
1.155405 -1.382590 1.684599 0.000000 0.000000 0.000000
0.906059 -1.323137 1.449234 0.000000 0.000000 0.000000
0.830971 -1.381744 1.471120 0.000000 0.000000 0.000000
0.716997 -1.463290 1.740132 0.000000 0.000000 0.000000
1.163636 -1.395184 1.712706 0.000000 0.000000 0.000000
1.141943 -1.388854 1.968221 0.000000 0.000000 0.000000
1.112903 -1.376796 1.819999 0.000000 0.000000 0.000000
0.906620 -1.444383 1.812731 0.000000 0.000000 0.000000
0.931131 -1.287975 1.457504 0.000000 0.000000 0.000000
1.003995 -1.410878 2.087054 0.000000 0.000000 0.000000
0.802844 -1.434700 1.664001 0.000000 0.000000 0.000000
0.920690 -1.297737 1.444444 0.000000 0.000000 0.000000
1.089716 -1.394878 2.005855 0.000000 0.000000 0.000000
0.710238 -1.472358 1.704951 0.000000 0.000000 0.000000
1.133789 -1.376294 1.547971 0.000000 0.000000 0.000000
1.128922 -1.365633 1.505338 0.000000 0.000000 0.000000
0.877274 -1.331631 1.463278 0.000000 0.000000 0.000000
0.796440 -1.403755 1.510061 0.000000 0.000000 0.000000
0.787048 -1.413183 1.534414 0.000000 0.000000 0.000000
1.161176 -1.406786 1.706084 0.000000 0.000000 0.000000
0.739191 -1.444813 1.682802 0.000000 0.000000 0.000000
0.852627 -1.424320 1.657180 0.000000 0.000000 0.000000
1.093611 -1.324813 1.462052 0.000000 0.000000 0.000000
0.715330 -1.465428 1.664174 0.000000 0.000000 0.000000
1.145043 -1.393158 1.987019 0.000000 0.000000 0.000000
1.083777 -1.342178 1.490834 0.000000 0.000000 0.000000
1.093950 -1.395939 2.050207 0.000000 0.000000 0.000000
1.095268 -1.398329 2.069028 0.000000 0.000000 0.000000
0.787974 -1.417320 1.538061 0.000000 0.000000 0.000000
0.740408 -1.421874 1.548411 0.000000 0.000000 0.000000
0.709855 -1.473143 1.716684 0.000000 0.000000 0.000000
1.165765 -1.390224 1.686106 0.000000 0.000000 0.000000
0.750857 -1.446538 1.564216 0.000000 0.000000 0.000000
0.916454 -1.329315 1.457086 0.000000 0.000000 0.000000
0.952386 -1.323610 1.439850 0.000000 0.000000 0.000000
0.895984 -1.334599 1.432848 0.000000 0.000000 0.000000
0.865071 -1.422759 1.928590 0.000000 0.000000 0.000000
0.718050 -1.478261 1.684154 0.000000 0.000000 0.000000
1.142709 -1.391646 1.987425 0.000000 0.000000 0.000000
1.064942 -1.400841 1.868790 0.000000 0.000000 0.000000
1.036711 -1.433441 2.087609 0.000000 0.000000 0.000000
0.790678 -1.435644 1.672376 0.000000 0.000000 0.000000
0.928201 -1.305485 1.460330 0.000000 0.000000 0.000000
1.120450 -1.394609 2.005617 0.000000 0.000000 0.000000
0.711603 -1.468605 1.715604 0.000000 0.000000 0.000000
0.870402 -1.343539 1.475591 0.000000 0.000000 0.000000
0.804085 -1.400266 1.505733 0.000000 0.000000 0.000000
0.770110 -1.445782 1.653629 0.000000 0.000000 0.000000
0.875631 -1.415597 1.651078 0.000000 0.000000 0.000000
0.812296 -1.399581 1.512362 0.000000 0.000000 0.000000
1.106167 -1.373926 1.909003 0.000000 0.000000 0.000000
1.077394 -1.322159 1.465156 0.000000 0.000000 0.000000
1.002527 -1.408619 1.779219 0.000000 0.000000 0.000000
1.065079 -1.426032 2.125750 0.000000 0.000000 0.000000
1.134271 -1.355255 1.928126 0.000000 0.000000 0.000000
1.139030 -1.383919 1.898191 0.000000 0.000000 0.000000
1.071583 -1.415192 2.132129 0.000000 0.000000 0.000000
1.067035 -1.427874 2.115018 0.000000 0.000000 0.000000
1.144307 -1.373559 1.921731 0.000000 0.000000 0.000000
1.140340 -1.390882 1.970902 0.000000 0.000000 0.000000
1.155717 -1.293855 1.713758 0.000000 0.000000 0.000000
1.075589 -1.424751 2.124547 0.000000 0.000000 0.000000
1.152921 -1.334466 1.580818 0.000000 0.000000 0.000000
0.907829 -1.401690 1.999236 0.000000 0.000000 0.000000
1.156215 -1.358887 1.612544 0.000000 0.000000 0.000000
1.156263 -1.347557 1.604780 0.000000 0.000000 0.000000
0.914506 -1.403208 2.010771 0.000000 0.000000 0.000000
0.899687 -1.402799 1.987395 0.000000 0.000000 0.000000
1.157949 -1.399401 1.738249 0.000000 0.000000 0.000000
1.019492 -1.427520 2.077716 0.000000 0.000000 0.000000
1.066704 -1.420566 2.119443 0.000000 0.000000 0.000000
1.010098 -1.419088 2.114402 0.000000 0.000000 0.000000
1.074563 -1.351950 1.477374 0.000000 0.000000 0.000000
1.135682 -1.388432 1.988115 0.000000 0.000000 0.000000
1.136447 -1.387893 1.916706 0.000000 0.000000 0.000000
1.082679 -1.416842 2.125025 0.000000 0.000000 0.000000
1.158839 -1.334438 1.585759 0.000000 0.000000 0.000000
0.909776 -1.398407 2.001935 0.000000 0.000000 0.000000
1.156696 -1.358882 1.627164 0.000000 0.000000 0.000000
1.156969 -1.349483 1.612730 0.000000 0.000000 0.000000
0.916920 -1.402980 2.018617 0.000000 0.000000 0.000000
1.148328 -1.367694 1.931075 0.000000 0.000000 0.000000
1.197257 -1.290051 1.703305 0.000000 0.000000 0.000000
0.755395 -1.394480 1.523859 0.000000 0.000000 0.000000
1.013701 -1.411921 2.083410 0.000000 0.000000 0.000000
1.154860 -1.388112 1.588739 0.000000 0.000000 0.000000
0.855192 -1.364392 1.461554 0.000000 0.000000 0.000000
1.066675 -1.428901 2.102836 0.000000 0.000000 0.000000
1.003737 -1.410622 2.107888 0.000000 0.000000 0.000000
1.083270 -1.404548 2.127036 0.000000 0.000000 0.000000
1.070824 -1.351037 1.478509 0.000000 0.000000 0.000000
1.136824 -1.386166 2.006350 0.000000 0.000000 0.000000
1.136340 -1.390652 1.909974 0.000000 0.000000 0.000000
1.080006 -1.431092 2.147601 0.000000 0.000000 0.000000
0.724732 -1.457187 1.641371 0.000000 0.000000 0.000000
1.089039 -1.427387 2.143097 0.000000 0.000000 0.000000
0.710095 -1.470862 1.713268 0.000000 0.000000 0.000000
1.151728 -1.393728 1.658955 0.000000 0.000000 0.000000
1.074234 -1.437012 2.145421 0.000000 0.000000 0.000000
0.850677 -1.412978 1.905637 0.000000 0.000000 0.000000
0.782847 -1.449993 1.721566 0.000000 0.000000 0.000000
1.086912 -1.419418 2.141770 0.000000 0.000000 0.000000
0.760902 -1.425676 1.758120 0.000000 0.000000 0.000000
0.727462 -1.470889 1.647434 0.000000 0.000000 0.000000
1.154373 -1.401992 1.667399 0.000000 0.000000 0.000000
0.720856 -1.464429 1.716956 0.000000 0.000000 0.000000
0.719141 -1.477912 1.688343 0.000000 0.000000 0.000000
1.145317 -1.406173 1.683572 0.000000 0.000000 0.000000
0.896393 -1.330863 1.498553 0.000000 0.000000 0.000000
1.139957 -1.384745 1.967483 0.000000 0.000000 0.000000
0.997145 -1.415725 1.800581 0.000000 0.000000 0.000000
0.885824 -1.424379 1.712046 0.000000 0.000000 0.000000
0.781925 -1.455851 1.725318 0.000000 0.000000 0.000000
0.719830 -1.467181 1.629308 0.000000 0.000000 0.000000
1.086222 -1.419151 2.155387 0.000000 0.000000 0.000000
0.750229 -1.421610 1.755795 0.000000 0.000000 0.000000
0.791988 -1.426323 1.839113 0.000000 0.000000 0.000000
1.153044 -1.401370 1.683103 0.000000 0.000000 0.000000
0.715133 -1.474285 1.705226 0.000000 0.000000 0.000000
0.725768 -1.482464 1.690534 0.000000 0.000000 0.000000
1.145910 -1.405725 1.690543 0.000000 0.000000 0.000000
0.960865 -1.306305 1.457618 0.000000 0.000000 0.000000
1.058022 -1.407275 1.849479 0.000000 0.000000 0.000000
0.826783 -1.380846 1.477222 0.000000 0.000000 0.000000
0.788551 -1.426128 1.827231 0.000000 0.000000 0.000000
0.832205 -1.436156 1.884208 0.000000 0.000000 0.000000
1.168380 -1.370225 1.815269 0.000000 0.000000 0.000000
1.037573 -1.426285 2.114954 0.000000 0.000000 0.000000
0.835268 -1.416764 1.891841 0.000000 0.000000 0.000000
0.963787 -1.420855 2.021752 0.000000 0.000000 0.000000
0.959706 -1.420824 2.040841 0.000000 0.000000 0.000000
0.964186 -1.417012 2.061072 0.000000 0.000000 0.000000
0.731755 -1.444092 1.694106 0.000000 0.000000 0.000000
1.132096 -1.341733 1.856154 0.000000 0.000000 0.000000
0.761049 -1.424168 1.797006 0.000000 0.000000 0.000000
0.899202 -1.430492 1.932991 0.000000 0.000000 0.000000
1.122889 -1.355654 1.911592 0.000000 0.000000 0.000000
1.168688 -1.398596 1.701511 0.000000 0.000000 0.000000
0.728212 -1.463625 1.634819 0.000000 0.000000 0.000000
0.782977 -1.441803 1.702707 0.000000 0.000000 0.000000
0.959307 -1.408528 2.033025 0.000000 0.000000 0.000000
0.756179 -1.438169 1.555653 0.000000 0.000000 0.000000
0.785842 -1.449685 1.818061 0.000000 0.000000 0.000000
0.762788 -1.419448 1.805416 0.000000 0.000000 0.000000
0.950967 -1.409933 2.052684 0.000000 0.000000 0.000000
0.773005 -1.380519 1.533768 0.000000 0.000000 0.000000
0.797886 -1.441175 1.809007 0.000000 0.000000 0.000000
1.097481 -1.412387 2.118674 0.000000 0.000000 0.000000
0.748026 -1.445910 1.682616 0.000000 0.000000 0.000000
1.096887 -1.357611 1.496000 0.000000 0.000000 0.000000
0.741174 -1.439560 1.678444 0.000000 0.000000 0.000000
0.848069 -1.439161 1.688756 0.000000 0.000000 0.000000
0.954105 -1.367099 1.589058 0.000000 0.000000 0.000000
1.088699 -1.415286 2.108948 0.000000 0.000000 0.000000
0.761089 -1.422840 1.807429 0.000000 0.000000 0.000000
0.956829 -1.316949 1.441313 0.000000 0.000000 0.000000
0.961899 -1.389590 1.691255 0.000000 0.000000 0.000000
1.123115 -1.394170 1.966279 0.000000 0.000000 0.000000
1.074458 -1.410003 2.114234 0.000000 0.000000 0.000000
0.893244 -1.399908 1.987599 0.000000 0.000000 0.000000
0.925113 -1.402803 1.667518 0.000000 0.000000 0.000000
0.971740 -1.424081 2.030444 0.000000 0.000000 0.000000
0.960562 -1.420527 2.052544 0.000000 0.000000 0.000000
0.747189 -1.459350 1.709829 0.000000 0.000000 0.000000
0.762180 -1.418441 1.818013 0.000000 0.000000 0.000000
0.898100 -1.425294 1.933347 0.000000 0.000000 0.000000
1.084960 -1.359467 1.867344 0.000000 0.000000 0.000000
1.172246 -1.392401 1.693611 0.000000 0.000000 0.000000
0.724525 -1.459235 1.635367 0.000000 0.000000 0.000000
0.795540 -1.451610 1.669499 0.000000 0.000000 0.000000
0.761734 -1.431415 1.555788 0.000000 0.000000 0.000000
0.796716 -1.451224 1.804472 0.000000 0.000000 0.000000
0.764122 -1.420843 1.811109 0.000000 0.000000 0.000000
0.936875 -1.413362 2.062672 0.000000 0.000000 0.000000
0.766700 -1.376500 1.530356 0.000000 0.000000 0.000000
0.792888 -1.446838 1.791055 0.000000 0.000000 0.000000
1.119280 -1.399617 1.969855 0.000000 0.000000 0.000000
1.091919 -1.409367 2.131076 0.000000 0.000000 0.000000
0.740571 -1.446819 1.753888 0.000000 0.000000 0.000000
0.759094 -1.445265 1.648288 0.000000 0.000000 0.000000
0.826339 -1.435247 1.688317 0.000000 0.000000 0.000000
1.083438 -1.416320 2.098313 0.000000 0.000000 0.000000
0.752132 -1.431609 1.802782 0.000000 0.000000 0.000000
0.976696 -1.317386 1.455327 0.000000 0.000000 0.000000
0.963966 -1.398150 1.720217 0.000000 0.000000 0.000000
1.123446 -1.399224 1.989764 0.000000 0.000000 0.000000
1.067338 -1.416830 2.122492 0.000000 0.000000 0.000000
0.898065 -1.401316 1.991794 0.000000 0.000000 0.000000
0.988523 -1.394178 1.689661 0.000000 0.000000 0.000000
1.184786 -1.285255 1.722649 0.000000 0.000000 0.000000
1.170371 -1.289528 1.732780 0.000000 0.000000 0.000000
0.720104 -1.437291 1.639781 0.000000 0.000000 0.000000
1.147712 -1.369366 1.933432 0.000000 0.000000 0.000000
0.719486 -1.426159 1.614596 0.000000 0.000000 0.000000
0.727691 -1.432171 1.613443 0.000000 0.000000 0.000000
1.170302 -1.391124 1.692041 0.000000 0.000000 0.000000
0.779949 -1.416576 1.825557 0.000000 0.000000 0.000000
0.977084 -1.424880 2.053967 0.000000 0.000000 0.000000
1.051465 -1.420749 2.137455 0.000000 0.000000 0.000000
0.846951 -1.434159 1.895599 0.000000 0.000000 0.000000
0.788254 -1.429974 1.819234 0.000000 0.000000 0.000000
0.727405 -1.435048 1.625173 0.000000 0.000000 0.000000
1.125935 -1.391536 1.927111 0.000000 0.000000 0.000000
0.721657 -1.473073 1.677285 0.000000 0.000000 0.000000
0.781179 -1.417565 1.827939 0.000000 0.000000 0.000000
0.985635 -1.419291 2.054150 0.000000 0.000000 0.000000
