ply
format ascii 1.0
comment VCGLIB generated
obj_info Generated by SPFormer!
element vertex 868
property float x
property float y
property float z
property float nx
property float ny
property float nz
end_header
0.723806 -0.572292 3.209517 0.000000 0.000000 0.000000
0.905458 -0.488401 3.038587 0.000000 0.000000 0.000000
0.813834 -0.548990 3.158488 0.000000 0.000000 0.000000
0.970082 -0.527123 3.257778 0.000000 0.000000 0.000000
0.810234 -0.520224 3.023584 0.000000 0.000000 0.000000
0.968274 -0.535813 3.266235 0.000000 0.000000 0.000000
0.855791 -0.526880 3.148961 0.000000 0.000000 0.000000
0.645913 -0.575488 3.206086 0.000000 0.000000 0.000000
0.670523 -0.571255 3.200387 0.000000 0.000000 0.000000
0.813159 -0.551734 3.217010 0.000000 0.000000 0.000000
0.637992 -0.571262 3.191390 0.000000 0.000000 0.000000
0.640111 -0.555810 3.263682 0.000000 0.000000 0.000000
0.652522 -0.558492 3.263706 0.000000 0.000000 0.000000
0.645179 -0.556175 3.260566 0.000000 0.000000 0.000000
0.907819 -0.485869 3.020504 0.000000 0.000000 0.000000
0.826713 -0.537855 3.149390 0.000000 0.000000 0.000000
0.654494 -0.584396 3.364748 0.000000 0.000000 0.000000
0.917847 -0.489898 3.073656 0.000000 0.000000 0.000000
0.783943 -0.556680 3.184732 0.000000 0.000000 0.000000
0.834695 -0.535821 3.160724 0.000000 0.000000 0.000000
0.632070 -0.587928 3.215477 0.000000 0.000000 0.000000
0.910202 -0.486978 3.025037 0.000000 0.000000 0.000000
0.752305 -0.524325 3.028612 0.000000 0.000000 0.000000
0.912146 -0.485758 3.010285 0.000000 0.000000 0.000000
1.001908 -0.528303 3.207014 0.000000 0.000000 0.000000
0.902814 -0.489516 3.004264 0.000000 0.000000 0.000000
0.992795 -0.526735 3.204446 0.000000 0.000000 0.000000
0.952939 -0.538891 3.295691 0.000000 0.000000 0.000000
1.008429 -0.495327 3.114159 0.000000 0.000000 0.000000
0.995597 -0.481498 3.057643 0.000000 0.000000 0.000000
0.884339 -0.501990 3.347292 0.000000 0.000000 0.000000
0.786101 -0.525607 3.030412 0.000000 0.000000 0.000000
0.795353 -0.522104 3.021815 0.000000 0.000000 0.000000
0.895779 -0.532571 3.282078 0.000000 0.000000 0.000000
0.832620 -0.513893 3.036694 0.000000 0.000000 0.000000
0.828915 -0.515704 3.028037 0.000000 0.000000 0.000000
0.662750 -0.522761 3.132853 0.000000 0.000000 0.000000
0.825799 -0.519419 3.031724 0.000000 0.000000 0.000000
0.803875 -0.523737 3.035081 0.000000 0.000000 0.000000
0.984134 -0.526499 3.200466 0.000000 0.000000 0.000000
1.003421 -0.518279 3.206667 0.000000 0.000000 0.000000
1.007540 -0.520770 3.188472 0.000000 0.000000 0.000000
0.669549 -0.561263 3.283797 0.000000 0.000000 0.000000
1.006403 -0.522031 3.205685 0.000000 0.000000 0.000000
0.805611 -0.514666 3.022695 0.000000 0.000000 0.000000
0.669480 -0.515556 3.075398 0.000000 0.000000 0.000000
1.011341 -0.520590 3.214878 0.000000 0.000000 0.000000
0.783886 -0.515783 3.022655 0.000000 0.000000 0.000000
0.783838 -0.523886 3.025395 0.000000 0.000000 0.000000
0.632752 -0.566660 3.185252 0.000000 0.000000 0.000000
0.681795 -0.518997 3.065910 0.000000 0.000000 0.000000
0.757394 -0.525824 3.027393 0.000000 0.000000 0.000000
1.005346 -0.524748 3.207433 0.000000 0.000000 0.000000
1.001034 -0.516129 3.197756 0.000000 0.000000 0.000000
0.817001 -0.519405 3.024426 0.000000 0.000000 0.000000
0.648852 -0.557875 3.265813 0.000000 0.000000 0.000000
1.007819 -0.525088 3.193732 0.000000 0.000000 0.000000
0.791603 -0.525524 3.026048 0.000000 0.000000 0.000000
0.659922 -0.560136 3.288154 0.000000 0.000000 0.000000
0.781985 -0.516964 3.016993 0.000000 0.000000 0.000000
0.765006 -0.521065 3.024504 0.000000 0.000000 0.000000
0.651698 -0.560398 3.261780 0.000000 0.000000 0.000000
0.635872 -0.555605 3.177807 0.000000 0.000000 0.000000
0.680998 -0.565681 3.458175 0.000000 0.000000 0.000000
0.768442 -0.526541 3.033506 0.000000 0.000000 0.000000
0.782409 -0.524656 3.023881 0.000000 0.000000 0.000000
0.810679 -0.519487 3.028970 0.000000 0.000000 0.000000
0.902506 -0.488571 3.012528 0.000000 0.000000 0.000000
0.855630 -0.507975 3.047778 0.000000 0.000000 0.000000
0.638622 -0.581072 3.223730 0.000000 0.000000 0.000000
0.642238 -0.581490 3.210424 0.000000 0.000000 0.000000
0.812354 -0.544970 3.159226 0.000000 0.000000 0.000000
0.848362 -0.529946 3.133497 0.000000 0.000000 0.000000
0.781419 -0.523418 3.025553 0.000000 0.000000 0.000000
0.801666 -0.519048 3.022406 0.000000 0.000000 0.000000
0.801833 -0.520779 3.022139 0.000000 0.000000 0.000000
0.890156 -0.496801 3.015032 0.000000 0.000000 0.000000
0.850197 -0.528627 3.136630 0.000000 0.000000 0.000000
0.787883 -0.547544 3.146497 0.000000 0.000000 0.000000
0.798624 -0.522493 3.022176 0.000000 0.000000 0.000000
0.814892 -0.520846 3.030425 0.000000 0.000000 0.000000
0.893283 -0.491369 3.008588 0.000000 0.000000 0.000000
0.786583 -0.527239 3.035786 0.000000 0.000000 0.000000
0.629314 -0.578937 3.202537 0.000000 0.000000 0.000000
0.854322 -0.507285 3.018931 0.000000 0.000000 0.000000
0.645668 -0.581433 3.217943 0.000000 0.000000 0.000000
0.638052 -0.584501 3.212221 0.000000 0.000000 0.000000
0.852185 -0.528949 3.141412 0.000000 0.000000 0.000000
0.842399 -0.532873 3.141546 0.000000 0.000000 0.000000
0.784505 -0.543811 3.138142 0.000000 0.000000 0.000000
0.812571 -0.517474 3.019197 0.000000 0.000000 0.000000
0.899272 -0.491487 3.012671 0.000000 0.000000 0.000000
0.822358 -0.540957 3.149008 0.000000 0.000000 0.000000
0.802571 -0.548353 3.158821 0.000000 0.000000 0.000000
0.782223 -0.523902 3.025720 0.000000 0.000000 0.000000
0.731206 -0.526043 3.032998 0.000000 0.000000 0.000000
1.006301 -0.517166 3.142317 0.000000 0.000000 0.000000
0.654437 -0.543545 3.170777 0.000000 0.000000 0.000000
0.641255 -0.566221 3.191231 0.000000 0.000000 0.000000
0.666487 -0.512830 3.079660 0.000000 0.000000 0.000000
0.996948 -0.517144 3.139463 0.000000 0.000000 0.000000
0.645409 -0.539810 3.173156 0.000000 0.000000 0.000000
0.638042 -0.560030 3.186407 0.000000 0.000000 0.000000
0.686296 -0.516926 3.078985 0.000000 0.000000 0.000000
0.658890 -0.581155 3.393576 0.000000 0.000000 0.000000
1.007131 -0.516495 3.150833 0.000000 0.000000 0.000000
0.735167 -0.568860 3.498550 0.000000 0.000000 0.000000
0.740334 -0.574196 3.223366 0.000000 0.000000 0.000000
0.873084 -0.500732 3.012280 0.000000 0.000000 0.000000
0.635262 -0.582979 3.198403 0.000000 0.000000 0.000000
1.004185 -0.512195 3.139242 0.000000 0.000000 0.000000
0.725311 -0.566971 3.505199 0.000000 0.000000 0.000000
0.669501 -0.578534 3.415808 0.000000 0.000000 0.000000
0.868167 -0.505868 3.024861 0.000000 0.000000 0.000000
0.631009 -0.583636 3.197767 0.000000 0.000000 0.000000
0.738856 -0.529684 3.027931 0.000000 0.000000 0.000000
0.677693 -0.558960 3.458715 0.000000 0.000000 0.000000
0.749576 -0.575588 3.476791 0.000000 0.000000 0.000000
0.687378 -0.552005 3.463695 0.000000 0.000000 0.000000
0.672250 -0.566189 3.412230 0.000000 0.000000 0.000000
0.691526 -0.563678 3.478606 0.000000 0.000000 0.000000
0.673001 -0.563934 3.451394 0.000000 0.000000 0.000000
0.667571 -0.557906 3.439218 0.000000 0.000000 0.000000
0.689372 -0.559930 3.482078 0.000000 0.000000 0.000000
0.683917 -0.560786 3.470917 0.000000 0.000000 0.000000
0.740156 -0.524077 3.040168 0.000000 0.000000 0.000000
0.691984 -0.563211 3.470697 0.000000 0.000000 0.000000
0.663684 -0.571440 3.407975 0.000000 0.000000 0.000000
0.682349 -0.564102 3.467518 0.000000 0.000000 0.000000
0.675610 -0.556085 3.451529 0.000000 0.000000 0.000000
0.674964 -0.563436 3.454056 0.000000 0.000000 0.000000
0.675219 -0.561559 3.467481 0.000000 0.000000 0.000000
0.746629 -0.528424 3.028414 0.000000 0.000000 0.000000
0.637230 -0.580795 3.205911 0.000000 0.000000 0.000000
0.685399 -0.556954 3.182783 0.000000 0.000000 0.000000
0.712047 -0.571923 3.490852 0.000000 0.000000 0.000000
0.715841 -0.567628 3.481726 0.000000 0.000000 0.000000
0.808400 -0.530838 3.405870 0.000000 0.000000 0.000000
0.805797 -0.536808 3.399927 0.000000 0.000000 0.000000
0.804410 -0.536173 3.415603 0.000000 0.000000 0.000000
0.805725 -0.520238 3.412197 0.000000 0.000000 0.000000
0.769775 -0.526190 3.032108 0.000000 0.000000 0.000000
0.712929 -0.568046 3.514456 0.000000 0.000000 0.000000
0.705934 -0.568517 3.507040 0.000000 0.000000 0.000000
0.943220 -0.532595 3.297645 0.000000 0.000000 0.000000
0.803966 -0.543624 3.422750 0.000000 0.000000 0.000000
0.804302 -0.541622 3.412969 0.000000 0.000000 0.000000
0.799714 -0.546761 3.429224 0.000000 0.000000 0.000000
0.736447 -0.524744 3.033422 0.000000 0.000000 0.000000
0.641543 -0.582367 3.223994 0.000000 0.000000 0.000000
0.636825 -0.577438 3.228727 0.000000 0.000000 0.000000
0.869713 -0.505310 3.022342 0.000000 0.000000 0.000000
0.644417 -0.567570 3.238393 0.000000 0.000000 0.000000
0.661540 -0.575740 3.224840 0.000000 0.000000 0.000000
0.918079 -0.481560 3.018011 0.000000 0.000000 0.000000
0.664053 -0.580808 3.388514 0.000000 0.000000 0.000000
0.905618 -0.521219 3.299355 0.000000 0.000000 0.000000
0.655633 -0.577510 3.378729 0.000000 0.000000 0.000000
0.870082 -0.535490 3.287262 0.000000 0.000000 0.000000
0.660301 -0.576728 3.382161 0.000000 0.000000 0.000000
0.638180 -0.565098 3.237603 0.000000 0.000000 0.000000
0.660911 -0.578307 3.372129 0.000000 0.000000 0.000000
0.871047 -0.502788 3.018281 0.000000 0.000000 0.000000
0.913081 -0.485138 3.013392 0.000000 0.000000 0.000000
0.883368 -0.497134 3.013296 0.000000 0.000000 0.000000
0.652249 -0.573420 3.233660 0.000000 0.000000 0.000000
0.642570 -0.577131 3.228046 0.000000 0.000000 0.000000
0.894346 -0.526179 3.293044 0.000000 0.000000 0.000000
0.655646 -0.579547 3.383931 0.000000 0.000000 0.000000
0.873796 -0.527691 3.302464 0.000000 0.000000 0.000000
0.655152 -0.578707 3.368738 0.000000 0.000000 0.000000
0.863790 -0.505431 3.020933 0.000000 0.000000 0.000000
0.646375 -0.571455 3.236403 0.000000 0.000000 0.000000
0.647015 -0.573712 3.235289 0.000000 0.000000 0.000000
0.656183 -0.580516 3.385830 0.000000 0.000000 0.000000
0.899458 -0.491114 3.011234 0.000000 0.000000 0.000000
0.884047 -0.497386 3.018653 0.000000 0.000000 0.000000
0.911836 -0.486463 3.011433 0.000000 0.000000 0.000000
0.729683 -0.522747 3.035039 0.000000 0.000000 0.000000
0.793579 -0.524744 3.018561 0.000000 0.000000 0.000000
0.997147 -0.522823 3.181638 0.000000 0.000000 0.000000
0.874667 -0.514124 3.356567 0.000000 0.000000 0.000000
0.986021 -0.488395 3.068576 0.000000 0.000000 0.000000
0.957989 -0.453638 3.003570 0.000000 0.000000 0.000000
0.813709 -0.518790 3.397519 0.000000 0.000000 0.000000
0.920992 -0.481000 3.008415 0.000000 0.000000 0.000000
0.818837 -0.526779 3.386575 0.000000 0.000000 0.000000
0.821160 -0.512064 3.391959 0.000000 0.000000 0.000000
0.850778 -0.515956 3.372097 0.000000 0.000000 0.000000
0.829515 -0.513123 3.389104 0.000000 0.000000 0.000000
0.920841 -0.482234 3.016680 0.000000 0.000000 0.000000
0.927143 -0.480997 3.013476 0.000000 0.000000 0.000000
0.794897 -0.526887 3.023116 0.000000 0.000000 0.000000
0.920820 -0.518903 3.327055 0.000000 0.000000 0.000000
0.965494 -0.538949 3.276288 0.000000 0.000000 0.000000
0.966179 -0.539802 3.281525 0.000000 0.000000 0.000000
0.978022 -0.533145 3.257210 0.000000 0.000000 0.000000
0.934907 -0.522147 3.142802 0.000000 0.000000 0.000000
0.915778 -0.523496 3.328705 0.000000 0.000000 0.000000
0.774327 -0.557107 3.176240 0.000000 0.000000 0.000000
0.908179 -0.510933 3.331795 0.000000 0.000000 0.000000
1.008548 -0.529988 3.194119 0.000000 0.000000 0.000000
0.971636 -0.537390 3.274600 0.000000 0.000000 0.000000
0.982545 -0.533005 3.253685 0.000000 0.000000 0.000000
0.922070 -0.517371 3.321175 0.000000 0.000000 0.000000
0.913714 -0.509819 3.331309 0.000000 0.000000 0.000000
0.786491 -0.553177 3.165256 0.000000 0.000000 0.000000
1.002893 -0.531202 3.202304 0.000000 0.000000 0.000000
0.723857 -0.521204 3.038608 0.000000 0.000000 0.000000
0.726474 -0.523669 3.034616 0.000000 0.000000 0.000000
0.865245 -0.509279 3.357659 0.000000 0.000000 0.000000
0.716819 -0.521977 3.044469 0.000000 0.000000 0.000000
0.752049 -0.525329 3.031166 0.000000 0.000000 0.000000
0.976786 -0.480640 3.050440 0.000000 0.000000 0.000000
0.762266 -0.526458 3.030428 0.000000 0.000000 0.000000
0.856507 -0.536001 3.195251 0.000000 0.000000 0.000000
0.831988 -0.547496 3.204638 0.000000 0.000000 0.000000
0.981185 -0.474326 3.040153 0.000000 0.000000 0.000000
0.862495 -0.509695 3.371945 0.000000 0.000000 0.000000
0.868928 -0.512445 3.349632 0.000000 0.000000 0.000000
0.752279 -0.524616 3.035414 0.000000 0.000000 0.000000
0.979954 -0.478453 3.054224 0.000000 0.000000 0.000000
0.916394 -0.515619 3.161712 0.000000 0.000000 0.000000
0.815988 -0.552734 3.214043 0.000000 0.000000 0.000000
0.994598 -0.475537 3.041469 0.000000 0.000000 0.000000
0.638692 -0.578426 3.229609 0.000000 0.000000 0.000000
0.638537 -0.571430 3.234751 0.000000 0.000000 0.000000
0.846163 -0.524010 3.380073 0.000000 0.000000 0.000000
0.830959 -0.516257 3.380964 0.000000 0.000000 0.000000
0.846753 -0.516856 3.376992 0.000000 0.000000 0.000000
0.650309 -0.513463 3.114304 0.000000 0.000000 0.000000
0.835375 -0.517868 3.382130 0.000000 0.000000 0.000000
0.881140 -0.499996 3.351094 0.000000 0.000000 0.000000
0.867297 -0.503200 3.363249 0.000000 0.000000 0.000000
0.625677 -0.568468 3.180208 0.000000 0.000000 0.000000
0.784887 -0.564281 3.418750 0.000000 0.000000 0.000000
0.787149 -0.574276 3.435963 0.000000 0.000000 0.000000
0.691212 -0.564010 3.488997 0.000000 0.000000 0.000000
0.930190 -0.474702 3.026610 0.000000 0.000000 0.000000
0.917475 -0.477944 3.035203 0.000000 0.000000 0.000000
0.746524 -0.572836 3.452830 0.000000 0.000000 0.000000
0.660035 -0.579260 3.389697 0.000000 0.000000 0.000000
0.639455 -0.518272 3.143671 0.000000 0.000000 0.000000
0.639549 -0.517981 3.142133 0.000000 0.000000 0.000000
0.643635 -0.516282 3.140814 0.000000 0.000000 0.000000
0.695633 -0.573048 3.498387 0.000000 0.000000 0.000000
0.659861 -0.576192 3.403156 0.000000 0.000000 0.000000
0.823230 -0.509341 3.042512 0.000000 0.000000 0.000000
0.651142 -0.519787 3.149137 0.000000 0.000000 0.000000
0.693183 -0.517687 3.058080 0.000000 0.000000 0.000000
0.913164 -0.489117 3.021004 0.000000 0.000000 0.000000
0.671023 -0.571853 3.411819 0.000000 0.000000 0.000000
0.661446 -0.580429 3.401033 0.000000 0.000000 0.000000
0.905437 -0.489231 3.044994 0.000000 0.000000 0.000000
0.734666 -0.574481 3.392555 0.000000 0.000000 0.000000
0.639616 -0.521907 3.142711 0.000000 0.000000 0.000000
0.692020 -0.525203 3.069638 0.000000 0.000000 0.000000
0.654542 -0.528974 3.152580 0.000000 0.000000 0.000000
0.631830 -0.527051 3.164645 0.000000 0.000000 0.000000
0.659060 -0.574457 3.410514 0.000000 0.000000 0.000000
0.843563 -0.496241 3.019330 0.000000 0.000000 0.000000
0.683162 -0.514784 3.065411 0.000000 0.000000 0.000000
0.691735 -0.522649 3.055034 0.000000 0.000000 0.000000
0.934302 -0.479410 3.018179 0.000000 0.000000 0.000000
0.920834 -0.485189 3.015161 0.000000 0.000000 0.000000
0.662359 -0.580313 3.396620 0.000000 0.000000 0.000000
0.959126 -0.452678 3.013216 0.000000 0.000000 0.000000
0.828437 -0.512859 3.016616 0.000000 0.000000 0.000000
0.883447 -0.502153 3.044400 0.000000 0.000000 0.000000
0.636122 -0.549540 3.174386 0.000000 0.000000 0.000000
0.893659 -0.494181 3.030360 0.000000 0.000000 0.000000
0.874161 -0.506336 3.044499 0.000000 0.000000 0.000000
0.866796 -0.505610 3.017586 0.000000 0.000000 0.000000
0.864239 -0.506527 3.038791 0.000000 0.000000 0.000000
0.850739 -0.512801 3.047036 0.000000 0.000000 0.000000
0.798655 -0.567596 3.443933 0.000000 0.000000 0.000000
1.011432 -0.497343 3.096786 0.000000 0.000000 0.000000
0.883242 -0.496800 3.035766 0.000000 0.000000 0.000000
0.900221 -0.504858 3.336689 0.000000 0.000000 0.000000
0.652709 -0.533980 3.166151 0.000000 0.000000 0.000000
0.649084 -0.548136 3.175341 0.000000 0.000000 0.000000
0.651198 -0.510088 3.118315 0.000000 0.000000 0.000000
0.919866 -0.480804 3.021791 0.000000 0.000000 0.000000
0.873569 -0.502088 3.046137 0.000000 0.000000 0.000000
0.831849 -0.515278 3.030190 0.000000 0.000000 0.000000
0.787619 -0.582645 3.456062 0.000000 0.000000 0.000000
0.918146 -0.481441 3.025234 0.000000 0.000000 0.000000
0.873362 -0.501867 3.030589 0.000000 0.000000 0.000000
0.853812 -0.509887 3.053280 0.000000 0.000000 0.000000
0.846603 -0.511708 3.018743 0.000000 0.000000 0.000000
0.806575 -0.555487 3.431227 0.000000 0.000000 0.000000
0.798130 -0.575369 3.446975 0.000000 0.000000 0.000000
0.647220 -0.511290 3.125718 0.000000 0.000000 0.000000
0.693157 -0.516951 3.053775 0.000000 0.000000 0.000000
0.778831 -0.522536 3.038202 0.000000 0.000000 0.000000
0.861642 -0.505011 3.031564 0.000000 0.000000 0.000000
0.642901 -0.514433 3.132270 0.000000 0.000000 0.000000
0.766854 -0.573270 3.459795 0.000000 0.000000 0.000000
0.773006 -0.572575 3.451821 0.000000 0.000000 0.000000
0.656660 -0.518723 3.139013 0.000000 0.000000 0.000000
0.902235 -0.496161 3.040684 0.000000 0.000000 0.000000
0.645694 -0.547935 3.170813 0.000000 0.000000 0.000000
0.880204 -0.499846 3.044771 0.000000 0.000000 0.000000
0.851954 -0.511023 3.053042 0.000000 0.000000 0.000000
0.888867 -0.497089 3.029317 0.000000 0.000000 0.000000
0.751573 -0.573146 3.456598 0.000000 0.000000 0.000000
0.820877 -0.523935 3.059228 0.000000 0.000000 0.000000
0.846479 -0.510923 3.026887 0.000000 0.000000 0.000000
0.793684 -0.557829 3.438398 0.000000 0.000000 0.000000
0.858971 -0.508208 3.024240 0.000000 0.000000 0.000000
0.895910 -0.507590 3.338612 0.000000 0.000000 0.000000
0.645620 -0.529295 3.166855 0.000000 0.000000 0.000000
0.641548 -0.529581 3.168857 0.000000 0.000000 0.000000
0.660074 -0.511375 3.115210 0.000000 0.000000 0.000000
0.891273 -0.496169 3.041617 0.000000 0.000000 0.000000
0.785810 -0.571500 3.450249 0.000000 0.000000 0.000000
0.874137 -0.501069 3.024204 0.000000 0.000000 0.000000
0.898053 -0.490092 3.033603 0.000000 0.000000 0.000000
0.807653 -0.559001 3.436612 0.000000 0.000000 0.000000
0.786610 -0.576402 3.450494 0.000000 0.000000 0.000000
0.643491 -0.515226 3.130250 0.000000 0.000000 0.000000
0.765986 -0.525035 3.027723 0.000000 0.000000 0.000000
0.872365 -0.502030 3.029187 0.000000 0.000000 0.000000
0.859838 -0.509341 3.038700 0.000000 0.000000 0.000000
0.875138 -0.504000 3.034537 0.000000 0.000000 0.000000
0.646860 -0.511182 3.120041 0.000000 0.000000 0.000000
0.780129 -0.571428 3.451218 0.000000 0.000000 0.000000
0.778807 -0.577301 3.457441 0.000000 0.000000 0.000000
0.648167 -0.513716 3.131906 0.000000 0.000000 0.000000
0.666705 -0.562466 3.423795 0.000000 0.000000 0.000000
0.674663 -0.577580 3.403785 0.000000 0.000000 0.000000
0.668276 -0.560327 3.430959 0.000000 0.000000 0.000000
0.664543 -0.567270 3.425338 0.000000 0.000000 0.000000
0.670896 -0.511232 3.092409 0.000000 0.000000 0.000000
1.003842 -0.495355 3.084274 0.000000 0.000000 0.000000
0.697389 -0.520056 3.041266 0.000000 0.000000 0.000000
0.670381 -0.513336 3.081926 0.000000 0.000000 0.000000
0.752297 -0.516916 3.025101 0.000000 0.000000 0.000000
0.669092 -0.569502 3.434182 0.000000 0.000000 0.000000
0.713596 -0.569833 3.509908 0.000000 0.000000 0.000000
1.009059 -0.510618 3.113879 0.000000 0.000000 0.000000
0.671087 -0.564903 3.429525 0.000000 0.000000 0.000000
0.667081 -0.560010 3.435536 0.000000 0.000000 0.000000
0.650868 -0.566712 3.314013 0.000000 0.000000 0.000000
0.661252 -0.511306 3.081761 0.000000 0.000000 0.000000
0.685896 -0.518067 3.050660 0.000000 0.000000 0.000000
0.661615 -0.510903 3.091414 0.000000 0.000000 0.000000
0.672978 -0.566699 3.447247 0.000000 0.000000 0.000000
1.002292 -0.486331 3.058223 0.000000 0.000000 0.000000
0.933001 -0.483147 3.026552 0.000000 0.000000 0.000000
0.867115 -0.515670 3.083029 0.000000 0.000000 0.000000
0.916995 -0.487251 3.059288 0.000000 0.000000 0.000000
0.949630 -0.474739 3.049120 0.000000 0.000000 0.000000
0.640781 -0.560860 3.244909 0.000000 0.000000 0.000000
0.871169 -0.526128 3.077828 0.000000 0.000000 0.000000
0.878935 -0.510445 3.089514 0.000000 0.000000 0.000000
0.934351 -0.475675 3.035464 0.000000 0.000000 0.000000
0.887685 -0.501920 3.074586 0.000000 0.000000 0.000000
0.890833 -0.498706 3.345355 0.000000 0.000000 0.000000
0.959051 -0.448458 3.012363 0.000000 0.000000 0.000000
0.648977 -0.514358 3.113660 0.000000 0.000000 0.000000
0.873320 -0.500795 3.023792 0.000000 0.000000 0.000000
0.848143 -0.513870 3.025294 0.000000 0.000000 0.000000
0.858595 -0.507455 3.020320 0.000000 0.000000 0.000000
0.834561 -0.517821 3.050079 0.000000 0.000000 0.000000
0.868022 -0.503073 3.019360 0.000000 0.000000 0.000000
0.888979 -0.495356 3.345755 0.000000 0.000000 0.000000
0.649741 -0.516304 3.122586 0.000000 0.000000 0.000000
0.909057 -0.486425 3.016266 0.000000 0.000000 0.000000
0.856845 -0.511386 3.027074 0.000000 0.000000 0.000000
0.856357 -0.506652 3.023322 0.000000 0.000000 0.000000
0.717175 -0.566256 3.518225 0.000000 0.000000 0.000000
0.716578 -0.565425 3.523458 0.000000 0.000000 0.000000
0.664147 -0.579228 3.376255 0.000000 0.000000 0.000000
0.728832 -0.563981 3.501076 0.000000 0.000000 0.000000
0.737660 -0.573196 3.349215 0.000000 0.000000 0.000000
0.690188 -0.571445 3.429997 0.000000 0.000000 0.000000
0.638095 -0.571773 3.173457 0.000000 0.000000 0.000000
0.698103 -0.573957 3.420483 0.000000 0.000000 0.000000
0.680004 -0.560501 3.477189 0.000000 0.000000 0.000000
0.679551 -0.576718 3.397234 0.000000 0.000000 0.000000
0.725160 -0.566165 3.513981 0.000000 0.000000 0.000000
0.724774 -0.573837 3.379164 0.000000 0.000000 0.000000
0.698449 -0.574322 3.392022 0.000000 0.000000 0.000000
0.630697 -0.580709 3.180069 0.000000 0.000000 0.000000
0.700715 -0.574877 3.403432 0.000000 0.000000 0.000000
0.681821 -0.562922 3.472372 0.000000 0.000000 0.000000
1.005967 -0.508360 3.117744 0.000000 0.000000 0.000000
0.908594 -0.487206 3.011590 0.000000 0.000000 0.000000
0.920524 -0.531123 3.180234 0.000000 0.000000 0.000000
0.896871 -0.492217 3.012372 0.000000 0.000000 0.000000
0.934205 -0.527466 3.163471 0.000000 0.000000 0.000000
0.710095 -0.567435 3.448534 0.000000 0.000000 0.000000
0.662203 -0.566664 3.329867 0.000000 0.000000 0.000000
0.649497 -0.565620 3.319139 0.000000 0.000000 0.000000
0.645566 -0.578886 3.342161 0.000000 0.000000 0.000000
0.638803 -0.577449 3.190062 0.000000 0.000000 0.000000
0.685432 -0.551527 3.156047 0.000000 0.000000 0.000000
0.706802 -0.544906 3.131976 0.000000 0.000000 0.000000
0.688539 -0.542509 3.139513 0.000000 0.000000 0.000000
0.651383 -0.564601 3.307784 0.000000 0.000000 0.000000
0.656690 -0.582515 3.364233 0.000000 0.000000 0.000000
0.778728 -0.520934 3.026774 0.000000 0.000000 0.000000
0.647033 -0.570096 3.319741 0.000000 0.000000 0.000000
0.722479 -0.571219 3.444644 0.000000 0.000000 0.000000
0.661780 -0.574740 3.338034 0.000000 0.000000 0.000000
0.652202 -0.566811 3.317376 0.000000 0.000000 0.000000
0.643907 -0.567110 3.326654 0.000000 0.000000 0.000000
0.662596 -0.562399 3.172792 0.000000 0.000000 0.000000
0.675267 -0.549307 3.157426 0.000000 0.000000 0.000000
0.688751 -0.553802 3.150234 0.000000 0.000000 0.000000
0.690136 -0.536900 3.127899 0.000000 0.000000 0.000000
0.648444 -0.560511 3.302772 0.000000 0.000000 0.000000
0.659513 -0.582143 3.359276 0.000000 0.000000 0.000000
0.772291 -0.525164 3.027122 0.000000 0.000000 0.000000
0.650487 -0.567625 3.319688 0.000000 0.000000 0.000000
0.641338 -0.531696 3.163994 0.000000 0.000000 0.000000
0.638783 -0.521188 3.150869 0.000000 0.000000 0.000000
0.647221 -0.521534 3.142096 0.000000 0.000000 0.000000
0.953249 -0.530106 3.281555 0.000000 0.000000 0.000000
0.643658 -0.518362 3.135210 0.000000 0.000000 0.000000
0.742624 -0.574606 3.478893 0.000000 0.000000 0.000000
0.753011 -0.569100 3.474352 0.000000 0.000000 0.000000
0.996785 -0.528577 3.196380 0.000000 0.000000 0.000000
1.000475 -0.523872 3.186831 0.000000 0.000000 0.000000
0.753698 -0.568247 3.198379 0.000000 0.000000 0.000000
0.925636 -0.515902 3.323557 0.000000 0.000000 0.000000
0.914645 -0.515008 3.327441 0.000000 0.000000 0.000000
0.753817 -0.573597 3.462381 0.000000 0.000000 0.000000
0.758959 -0.573816 3.469724 0.000000 0.000000 0.000000
0.996756 -0.528988 3.204060 0.000000 0.000000 0.000000
0.999537 -0.526179 3.190517 0.000000 0.000000 0.000000
0.744786 -0.568878 3.189092 0.000000 0.000000 0.000000
0.926885 -0.527856 3.317798 0.000000 0.000000 0.000000
0.915053 -0.510541 3.330055 0.000000 0.000000 0.000000
0.714509 -0.526320 3.041764 0.000000 0.000000 0.000000
0.640678 -0.565324 3.241256 0.000000 0.000000 0.000000
0.643229 -0.561025 3.269472 0.000000 0.000000 0.000000
0.642902 -0.564309 3.241306 0.000000 0.000000 0.000000
0.633330 -0.560337 3.243653 0.000000 0.000000 0.000000
0.646820 -0.562899 3.246136 0.000000 0.000000 0.000000
0.639536 -0.556822 3.253821 0.000000 0.000000 0.000000
0.643655 -0.559196 3.250411 0.000000 0.000000 0.000000
1.009800 -0.514044 3.182316 0.000000 0.000000 0.000000
0.644362 -0.558720 3.254970 0.000000 0.000000 0.000000
0.640730 -0.559882 3.258866 0.000000 0.000000 0.000000
0.640478 -0.556296 3.261793 0.000000 0.000000 0.000000
0.647776 -0.559869 3.253637 0.000000 0.000000 0.000000
0.641346 -0.558654 3.247544 0.000000 0.000000 0.000000
0.642138 -0.557699 3.243370 0.000000 0.000000 0.000000
1.008626 -0.517571 3.170743 0.000000 0.000000 0.000000
0.642762 -0.557184 3.267194 0.000000 0.000000 0.000000
1.015673 -0.521003 3.169376 0.000000 0.000000 0.000000
0.722606 -0.525177 3.033043 0.000000 0.000000 0.000000
0.635645 -0.555314 3.259504 0.000000 0.000000 0.000000
0.727761 -0.522917 3.034858 0.000000 0.000000 0.000000
0.958742 -0.539602 3.290944 0.000000 0.000000 0.000000
0.666469 -0.579085 3.410015 0.000000 0.000000 0.000000
0.949270 -0.528753 3.294186 0.000000 0.000000 0.000000
0.813107 -0.544356 3.138827 0.000000 0.000000 0.000000
0.974281 -0.541240 3.282191 0.000000 0.000000 0.000000
0.694544 -0.518356 3.051481 0.000000 0.000000 0.000000
0.715375 -0.517530 3.038291 0.000000 0.000000 0.000000
0.957206 -0.538892 3.300961 0.000000 0.000000 0.000000
0.668463 -0.579720 3.401462 0.000000 0.000000 0.000000
0.948342 -0.533470 3.295053 0.000000 0.000000 0.000000
0.796428 -0.551872 3.155109 0.000000 0.000000 0.000000
0.967984 -0.540763 3.284325 0.000000 0.000000 0.000000
0.698251 -0.518536 3.052452 0.000000 0.000000 0.000000
0.694966 -0.515734 3.048753 0.000000 0.000000 0.000000
0.638774 -0.559366 3.250027 0.000000 0.000000 0.000000
0.634645 -0.564057 3.234639 0.000000 0.000000 0.000000
0.803338 -0.511357 3.021007 0.000000 0.000000 0.000000
0.904545 -0.530611 3.310795 0.000000 0.000000 0.000000
0.909888 -0.528800 3.306744 0.000000 0.000000 0.000000
0.959136 -0.454511 3.012974 0.000000 0.000000 0.000000
0.728076 -0.522592 3.040397 0.000000 0.000000 0.000000
0.668519 -0.557824 3.436777 0.000000 0.000000 0.000000
0.640907 -0.567467 3.239489 0.000000 0.000000 0.000000
0.637296 -0.557016 3.244853 0.000000 0.000000 0.000000
1.011307 -0.520775 3.177055 0.000000 0.000000 0.000000
0.643785 -0.553986 3.270540 0.000000 0.000000 0.000000
0.641637 -0.555580 3.263654 0.000000 0.000000 0.000000
0.998480 -0.505555 3.112695 0.000000 0.000000 0.000000
0.645751 -0.556031 3.276717 0.000000 0.000000 0.000000
1.009231 -0.520044 3.178650 0.000000 0.000000 0.000000
0.643569 -0.554288 3.279755 0.000000 0.000000 0.000000
1.000742 -0.510301 3.119068 0.000000 0.000000 0.000000
1.008537 -0.510876 3.126855 0.000000 0.000000 0.000000
0.668904 -0.562778 3.285098 0.000000 0.000000 0.000000
0.993669 -0.515065 3.125180 0.000000 0.000000 0.000000
1.001138 -0.521049 3.156934 0.000000 0.000000 0.000000
0.640163 -0.525003 3.162459 0.000000 0.000000 0.000000
1.010351 -0.523851 3.155421 0.000000 0.000000 0.000000
1.002024 -0.516860 3.129817 0.000000 0.000000 0.000000
1.010343 -0.522353 3.163807 0.000000 0.000000 0.000000
0.777552 -0.567641 3.224350 0.000000 0.000000 0.000000
0.861586 -0.506801 3.020853 0.000000 0.000000 0.000000
0.998019 -0.483449 3.052693 0.000000 0.000000 0.000000
0.876037 -0.492526 3.360373 0.000000 0.000000 0.000000
0.640733 -0.553693 3.276834 0.000000 0.000000 0.000000
1.007796 -0.520544 3.151779 0.000000 0.000000 0.000000
1.007134 -0.525177 3.156350 0.000000 0.000000 0.000000
1.006576 -0.520209 3.147048 0.000000 0.000000 0.000000
0.794810 -0.560952 3.218271 0.000000 0.000000 0.000000
0.997582 -0.481784 3.053686 0.000000 0.000000 0.000000
0.900249 -0.493337 3.013829 0.000000 0.000000 0.000000
0.995432 -0.480443 3.045461 0.000000 0.000000 0.000000
0.881536 -0.496796 3.354902 0.000000 0.000000 0.000000
0.645491 -0.555283 3.293993 0.000000 0.000000 0.000000
0.648037 -0.576248 3.226984 0.000000 0.000000 0.000000
0.768264 -0.526906 3.031558 0.000000 0.000000 0.000000
0.846947 -0.510410 3.034746 0.000000 0.000000 0.000000
0.959382 -0.461144 3.031904 0.000000 0.000000 0.000000
0.824520 -0.517600 3.029146 0.000000 0.000000 0.000000
0.846353 -0.508661 3.011078 0.000000 0.000000 0.000000
0.792999 -0.523092 3.027601 0.000000 0.000000 0.000000
0.840395 -0.512818 3.027624 0.000000 0.000000 0.000000
0.802559 -0.524168 3.025441 0.000000 0.000000 0.000000
0.826217 -0.512819 3.015871 0.000000 0.000000 0.000000
0.902070 -0.490905 3.018082 0.000000 0.000000 0.000000
0.771145 -0.525819 3.029815 0.000000 0.000000 0.000000
0.842002 -0.511520 3.020852 0.000000 0.000000 0.000000
0.747933 -0.525509 3.032271 0.000000 0.000000 0.000000
0.755490 -0.527177 3.029100 0.000000 0.000000 0.000000
0.838578 -0.510260 3.382053 0.000000 0.000000 0.000000
0.812162 -0.517671 3.019523 0.000000 0.000000 0.000000
0.801645 -0.522714 3.027295 0.000000 0.000000 0.000000
0.827686 -0.510481 3.016956 0.000000 0.000000 0.000000
0.860267 -0.507288 3.027203 0.000000 0.000000 0.000000
0.850223 -0.502163 3.016019 0.000000 0.000000 0.000000
0.842534 -0.508241 3.019739 0.000000 0.000000 0.000000
0.835945 -0.514161 3.024157 0.000000 0.000000 0.000000
0.842803 -0.508513 3.013374 0.000000 0.000000 0.000000
0.790417 -0.523982 3.031357 0.000000 0.000000 0.000000
0.778629 -0.532023 3.025267 0.000000 0.000000 0.000000
0.762196 -0.526333 3.025720 0.000000 0.000000 0.000000
0.835080 -0.510434 3.014916 0.000000 0.000000 0.000000
0.829993 -0.512298 3.021025 0.000000 0.000000 0.000000
0.774979 -0.526304 3.030268 0.000000 0.000000 0.000000
0.803868 -0.517570 3.034415 0.000000 0.000000 0.000000
0.859508 -0.507376 3.021787 0.000000 0.000000 0.000000
0.824082 -0.514366 3.021267 0.000000 0.000000 0.000000
0.741783 -0.525115 3.033633 0.000000 0.000000 0.000000
0.825252 -0.507091 3.391346 0.000000 0.000000 0.000000
0.819959 -0.501156 3.022096 0.000000 0.000000 0.000000
0.817609 -0.515341 3.017469 0.000000 0.000000 0.000000
0.828018 -0.516463 3.024678 0.000000 0.000000 0.000000
0.817033 -0.511597 3.017828 0.000000 0.000000 0.000000
0.826534 -0.517340 3.040895 0.000000 0.000000 0.000000
0.837808 -0.511541 3.018215 0.000000 0.000000 0.000000
0.831281 -0.506678 3.017074 0.000000 0.000000 0.000000
1.008841 -0.535176 3.202496 0.000000 0.000000 0.000000
0.830261 -0.526454 3.088175 0.000000 0.000000 0.000000
0.988566 -0.520915 3.248241 0.000000 0.000000 0.000000
0.987179 -0.534201 3.258991 0.000000 0.000000 0.000000
0.984881 -0.523386 3.248908 0.000000 0.000000 0.000000
0.986868 -0.516372 3.247175 0.000000 0.000000 0.000000
0.980011 -0.527692 3.261205 0.000000 0.000000 0.000000
0.661315 -0.570436 3.423337 0.000000 0.000000 0.000000
0.805158 -0.538029 3.126393 0.000000 0.000000 0.000000
0.706375 -0.572894 3.516879 0.000000 0.000000 0.000000
0.823517 -0.530807 3.099130 0.000000 0.000000 0.000000
0.976593 -0.531003 3.261661 0.000000 0.000000 0.000000
0.983691 -0.524614 3.253873 0.000000 0.000000 0.000000
0.980487 -0.522831 3.254649 0.000000 0.000000 0.000000
0.979952 -0.532782 3.263830 0.000000 0.000000 0.000000
0.667539 -0.569529 3.413364 0.000000 0.000000 0.000000
0.795758 -0.534684 3.105260 0.000000 0.000000 0.000000
0.706597 -0.572159 3.508752 0.000000 0.000000 0.000000
0.755057 -0.527915 3.043158 0.000000 0.000000 0.000000
0.790481 -0.518298 3.025449 0.000000 0.000000 0.000000
0.816085 -0.516907 3.018498 0.000000 0.000000 0.000000
0.813395 -0.520107 3.018760 0.000000 0.000000 0.000000
0.787431 -0.518781 3.022498 0.000000 0.000000 0.000000
0.801574 -0.522594 3.030837 0.000000 0.000000 0.000000
0.808707 -0.518187 3.019122 0.000000 0.000000 0.000000
0.834205 -0.515144 3.020768 0.000000 0.000000 0.000000
0.790419 -0.524151 3.032942 0.000000 0.000000 0.000000
0.737683 -0.524276 3.033470 0.000000 0.000000 0.000000
0.817043 -0.516163 3.021768 0.000000 0.000000 0.000000
0.817284 -0.517378 3.020671 0.000000 0.000000 0.000000
0.791486 -0.518045 3.022357 0.000000 0.000000 0.000000
0.801626 -0.520103 3.020693 0.000000 0.000000 0.000000
0.820140 -0.521709 3.021812 0.000000 0.000000 0.000000
0.770051 -0.525573 3.028207 0.000000 0.000000 0.000000
0.674627 -0.567257 3.432751 0.000000 0.000000 0.000000
0.660215 -0.578039 3.404346 0.000000 0.000000 0.000000
0.679352 -0.570023 3.431646 0.000000 0.000000 0.000000
0.664385 -0.571950 3.421915 0.000000 0.000000 0.000000
1.000455 -0.530490 3.192900 0.000000 0.000000 0.000000
0.666918 -0.567273 3.426853 0.000000 0.000000 0.000000
1.002806 -0.490081 3.080886 0.000000 0.000000 0.000000
0.671133 -0.572889 3.417562 0.000000 0.000000 0.000000
0.662870 -0.574707 3.414336 0.000000 0.000000 0.000000
0.666273 -0.574901 3.412869 0.000000 0.000000 0.000000
0.663543 -0.574300 3.416589 0.000000 0.000000 0.000000
0.665437 -0.567511 3.419662 0.000000 0.000000 0.000000
1.003734 -0.490737 3.076709 0.000000 0.000000 0.000000
1.008896 -0.525602 3.204847 0.000000 0.000000 0.000000
1.000062 -0.482011 3.044468 0.000000 0.000000 0.000000
1.013539 -0.522341 3.206563 0.000000 0.000000 0.000000
0.995363 -0.478316 3.041403 0.000000 0.000000 0.000000
0.713621 -0.571652 3.516036 0.000000 0.000000 0.000000
0.652263 -0.533477 3.172834 0.000000 0.000000 0.000000
0.647220 -0.524146 3.163336 0.000000 0.000000 0.000000
1.002740 -0.509435 3.221261 0.000000 0.000000 0.000000
0.679868 -0.518602 3.072180 0.000000 0.000000 0.000000
0.663173 -0.509457 3.085888 0.000000 0.000000 0.000000
0.634188 -0.526654 3.166671 0.000000 0.000000 0.000000
0.867913 -0.488123 3.019343 0.000000 0.000000 0.000000
0.639787 -0.524456 3.167687 0.000000 0.000000 0.000000
0.987906 -0.517917 3.248276 0.000000 0.000000 0.000000
0.661549 -0.512692 3.083377 0.000000 0.000000 0.000000
0.672039 -0.517001 3.062152 0.000000 0.000000 0.000000
0.657815 -0.511020 3.091259 0.000000 0.000000 0.000000
0.635820 -0.527415 3.170053 0.000000 0.000000 0.000000
0.865448 -0.493800 3.018473 0.000000 0.000000 0.000000
0.663619 -0.578396 3.351109 0.000000 0.000000 0.000000
0.653881 -0.575703 3.325563 0.000000 0.000000 0.000000
0.870562 -0.509286 3.352720 0.000000 0.000000 0.000000
0.867860 -0.504920 3.367070 0.000000 0.000000 0.000000
0.882737 -0.497250 3.012521 0.000000 0.000000 0.000000
0.675785 -0.579490 3.362768 0.000000 0.000000 0.000000
0.890037 -0.494865 3.017355 0.000000 0.000000 0.000000
0.877653 -0.499794 3.014131 0.000000 0.000000 0.000000
0.890732 -0.494308 3.012045 0.000000 0.000000 0.000000
0.853957 -0.502096 3.376611 0.000000 0.000000 0.000000
0.862596 -0.503206 3.370828 0.000000 0.000000 0.000000
0.753293 -0.575877 3.471700 0.000000 0.000000 0.000000
0.854764 -0.509126 3.368653 0.000000 0.000000 0.000000
0.753654 -0.530086 3.029202 0.000000 0.000000 0.000000
0.996657 -0.533954 3.177661 0.000000 0.000000 0.000000
0.651637 -0.573755 3.319697 0.000000 0.000000 0.000000
0.887726 -0.513115 3.339775 0.000000 0.000000 0.000000
0.874481 -0.506201 3.358743 0.000000 0.000000 0.000000
0.888448 -0.495310 3.012117 0.000000 0.000000 0.000000
0.880091 -0.499866 3.016101 0.000000 0.000000 0.000000
0.890809 -0.495218 3.013388 0.000000 0.000000 0.000000
0.870817 -0.501256 3.361677 0.000000 0.000000 0.000000
0.758070 -0.578308 3.478709 0.000000 0.000000 0.000000
0.847723 -0.509898 3.379548 0.000000 0.000000 0.000000
0.710695 -0.517586 3.047534 0.000000 0.000000 0.000000
1.007500 -0.529190 3.178665 0.000000 0.000000 0.000000
0.977225 -0.478549 3.042218 0.000000 0.000000 0.000000
0.936076 -0.472401 3.009707 0.000000 0.000000 0.000000
0.924594 -0.478503 3.011679 0.000000 0.000000 0.000000
0.925388 -0.478945 3.013361 0.000000 0.000000 0.000000
0.970534 -0.477454 3.044448 0.000000 0.000000 0.000000
0.945119 -0.466103 3.011877 0.000000 0.000000 0.000000
0.975326 -0.486784 3.065705 0.000000 0.000000 0.000000
0.971248 -0.486756 3.061800 0.000000 0.000000 0.000000
0.948659 -0.482744 3.064197 0.000000 0.000000 0.000000
0.927276 -0.477280 3.011190 0.000000 0.000000 0.000000
0.938845 -0.471077 3.005977 0.000000 0.000000 0.000000
0.939867 -0.469567 3.012142 0.000000 0.000000 0.000000
0.974068 -0.475066 3.042688 0.000000 0.000000 0.000000
0.961838 -0.489332 3.060577 0.000000 0.000000 0.000000
0.953899 -0.470554 3.041647 0.000000 0.000000 0.000000
0.910915 -0.483679 3.006706 0.000000 0.000000 0.000000
0.930308 -0.474561 3.012012 0.000000 0.000000 0.000000
0.859887 -0.512370 3.368421 0.000000 0.000000 0.000000
0.850748 -0.508953 3.380777 0.000000 0.000000 0.000000
0.783817 -0.527291 3.023686 0.000000 0.000000 0.000000
0.635737 -0.569610 3.237792 0.000000 0.000000 0.000000
0.731925 -0.543771 3.125507 0.000000 0.000000 0.000000
0.939753 -0.469159 3.008851 0.000000 0.000000 0.000000
0.859497 -0.505988 3.375536 0.000000 0.000000 0.000000
0.706948 -0.551346 3.143730 0.000000 0.000000 0.000000
0.946764 -0.464205 3.014004 0.000000 0.000000 0.000000
0.861796 -0.509126 3.376964 0.000000 0.000000 0.000000
0.974117 -0.531236 3.270642 0.000000 0.000000 0.000000
0.974453 -0.525044 3.260632 0.000000 0.000000 0.000000
0.646067 -0.579596 3.221735 0.000000 0.000000 0.000000
0.649630 -0.543294 3.177634 0.000000 0.000000 0.000000
0.659464 -0.581462 3.351564 0.000000 0.000000 0.000000
0.900657 -0.531082 3.249889 0.000000 0.000000 0.000000
0.974308 -0.532696 3.262486 0.000000 0.000000 0.000000
0.645621 -0.511494 3.108821 0.000000 0.000000 0.000000
0.974523 -0.532703 3.268154 0.000000 0.000000 0.000000
0.678698 -0.516611 3.061145 0.000000 0.000000 0.000000
0.659476 -0.511323 3.089948 0.000000 0.000000 0.000000
0.950924 -0.538167 3.290420 0.000000 0.000000 0.000000
0.949202 -0.528399 3.273011 0.000000 0.000000 0.000000
0.685383 -0.518909 3.059471 0.000000 0.000000 0.000000
0.914087 -0.526861 3.283916 0.000000 0.000000 0.000000
0.932556 -0.528312 3.194231 0.000000 0.000000 0.000000
0.979208 -0.529582 3.253567 0.000000 0.000000 0.000000
0.651620 -0.510768 3.101547 0.000000 0.000000 0.000000
0.982512 -0.533665 3.259326 0.000000 0.000000 0.000000
0.673013 -0.516665 3.068455 0.000000 0.000000 0.000000
0.665851 -0.515204 3.076911 0.000000 0.000000 0.000000
0.935757 -0.520233 3.316511 0.000000 0.000000 0.000000
0.961024 -0.533431 3.278827 0.000000 0.000000 0.000000
0.668867 -0.517163 3.078212 0.000000 0.000000 0.000000
0.936500 -0.527201 3.270141 0.000000 0.000000 0.000000
1.005540 -0.517264 3.205964 0.000000 0.000000 0.000000
0.937801 -0.530813 3.312572 0.000000 0.000000 0.000000
0.996400 -0.515304 3.224660 0.000000 0.000000 0.000000
0.734775 -0.577424 3.246191 0.000000 0.000000 0.000000
0.940507 -0.530168 3.314055 0.000000 0.000000 0.000000
0.944658 -0.533965 3.310422 0.000000 0.000000 0.000000
0.927658 -0.523688 3.295034 0.000000 0.000000 0.000000
1.000486 -0.527263 3.236809 0.000000 0.000000 0.000000
0.915322 -0.525322 3.320147 0.000000 0.000000 0.000000
0.948040 -0.534699 3.302683 0.000000 0.000000 0.000000
0.995494 -0.511975 3.223084 0.000000 0.000000 0.000000
0.936254 -0.524001 3.310181 0.000000 0.000000 0.000000
0.996546 -0.513688 3.229499 0.000000 0.000000 0.000000
0.753884 -0.573367 3.239204 0.000000 0.000000 0.000000
0.945384 -0.528466 3.305702 0.000000 0.000000 0.000000
0.934213 -0.525570 3.320494 0.000000 0.000000 0.000000
0.936180 -0.522917 3.300951 0.000000 0.000000 0.000000
1.004479 -0.525767 3.220614 0.000000 0.000000 0.000000
0.908853 -0.526253 3.316166 0.000000 0.000000 0.000000
0.931163 -0.523678 3.314480 0.000000 0.000000 0.000000
0.649917 -0.579102 3.326653 0.000000 0.000000 0.000000
0.654227 -0.576901 3.324313 0.000000 0.000000 0.000000
0.979097 -0.538792 3.270515 0.000000 0.000000 0.000000
0.745448 -0.519806 3.028713 0.000000 0.000000 0.000000
0.992301 -0.529087 3.253768 0.000000 0.000000 0.000000
0.652800 -0.571608 3.326179 0.000000 0.000000 0.000000
0.990744 -0.534810 3.258729 0.000000 0.000000 0.000000
0.720168 -0.519741 3.040081 0.000000 0.000000 0.000000
0.997776 -0.528321 3.252299 0.000000 0.000000 0.000000
0.865111 -0.505173 3.011241 0.000000 0.000000 0.000000
0.848626 -0.506951 3.014786 0.000000 0.000000 0.000000
0.855595 -0.507136 3.017349 0.000000 0.000000 0.000000
1.012839 -0.532190 3.194981 0.000000 0.000000 0.000000
0.859631 -0.506135 3.016258 0.000000 0.000000 0.000000
0.926671 -0.476455 3.009215 0.000000 0.000000 0.000000
0.857537 -0.504490 3.013791 0.000000 0.000000 0.000000
0.865213 -0.504606 3.015137 0.000000 0.000000 0.000000
0.863565 -0.503142 3.012659 0.000000 0.000000 0.000000
1.015107 -0.531651 3.186636 0.000000 0.000000 0.000000
0.865750 -0.504902 3.016543 0.000000 0.000000 0.000000
0.915872 -0.482071 3.008799 0.000000 0.000000 0.000000
-0.270007 0.377663 3.873118 0.000000 0.000000 0.000000
-0.173764 0.316633 3.775366 0.000000 0.000000 0.000000
-0.196513 0.379190 3.798563 0.000000 0.000000 0.000000
-0.202748 0.435725 3.836843 0.000000 0.000000 0.000000
-0.238240 0.372817 3.832142 0.000000 0.000000 0.000000
-0.321821 0.311077 3.882988 0.000000 0.000000 0.000000
-0.175044 0.389082 3.791034 0.000000 0.000000 0.000000
-0.294745 0.256347 3.843132 0.000000 0.000000 0.000000
-0.246383 0.365666 3.836741 0.000000 0.000000 0.000000
-0.307007 0.336745 3.879161 0.000000 0.000000 0.000000
-0.154635 0.367123 3.787550 0.000000 0.000000 0.000000
-0.317386 0.279118 3.883402 0.000000 0.000000 0.000000
-0.329381 0.255862 3.885616 0.000000 0.000000 0.000000
-0.310596 0.265504 3.886440 0.000000 0.000000 0.000000
-0.334660 0.266109 3.890954 0.000000 0.000000 0.000000
-0.341778 0.267312 3.896437 0.000000 0.000000 0.000000
-0.218324 0.232054 3.769258 0.000000 0.000000 0.000000
-0.182297 0.368323 3.776534 0.000000 0.000000 0.000000
-0.355352 0.270744 3.914322 0.000000 0.000000 0.000000
-0.197881 0.396149 3.810091 0.000000 0.000000 0.000000
-0.228095 0.422837 3.843138 0.000000 0.000000 0.000000
-0.355928 0.261338 3.911246 0.000000 0.000000 0.000000
-0.341597 0.271194 3.914087 0.000000 0.000000 0.000000
-0.337004 0.258604 3.892189 0.000000 0.000000 0.000000
-0.134037 0.387605 3.782326 0.000000 0.000000 0.000000
-0.215708 0.415358 3.828046 0.000000 0.000000 0.000000
-0.314331 0.266880 3.863822 0.000000 0.000000 0.000000
-0.354850 0.279409 3.917140 0.000000 0.000000 0.000000
-0.334712 0.245994 3.887478 0.000000 0.000000 0.000000
-0.325591 0.339675 3.905774 0.000000 0.000000 0.000000
-0.219852 0.213670 3.768290 0.000000 0.000000 0.000000
-0.216902 0.411765 3.835631 0.000000 0.000000 0.000000
-0.360292 0.266201 3.926736 0.000000 0.000000 0.000000
-0.216083 0.366482 3.812220 0.000000 0.000000 0.000000
-0.203349 0.412583 3.828343 0.000000 0.000000 0.000000
-0.206075 0.392006 3.819714 0.000000 0.000000 0.000000
-0.120274 0.309895 3.736434 0.000000 0.000000 0.000000
-0.318897 0.260270 3.878817 0.000000 0.000000 0.000000
-0.356068 0.256327 3.933437 0.000000 0.000000 0.000000
-0.363062 0.259325 3.924085 0.000000 0.000000 0.000000
-0.343599 0.243958 3.902764 0.000000 0.000000 0.000000
-0.149085 0.199338 3.734937 0.000000 0.000000 0.000000
-0.278899 0.298537 3.829170 0.000000 0.000000 0.000000
-0.373389 0.261994 3.937983 0.000000 0.000000 0.000000
-0.182579 0.362779 3.777600 0.000000 0.000000 0.000000
-0.360800 0.238533 3.927046 0.000000 0.000000 0.000000
-0.231394 0.404772 3.839664 0.000000 0.000000 0.000000
-0.360087 0.268812 3.931110 0.000000 0.000000 0.000000
-0.174999 0.398501 3.794791 0.000000 0.000000 0.000000
-0.360488 0.269409 3.941058 0.000000 0.000000 0.000000
-0.225833 0.362312 3.845184 0.000000 0.000000 0.000000
-0.177422 0.375616 3.781289 0.000000 0.000000 0.000000
-0.169101 0.294708 3.761013 0.000000 0.000000 0.000000
-0.375815 0.256732 3.947194 0.000000 0.000000 0.000000
-0.285411 0.262030 3.850804 0.000000 0.000000 0.000000
-0.231272 0.414872 3.856906 0.000000 0.000000 0.000000
-0.370436 0.245819 3.934990 0.000000 0.000000 0.000000
-0.305030 0.271847 3.859071 0.000000 0.000000 0.000000
-0.185276 0.354080 3.799863 0.000000 0.000000 0.000000
-0.374247 0.246249 3.934480 0.000000 0.000000 0.000000
-0.196857 0.455491 3.840358 0.000000 0.000000 0.000000
-0.261341 0.367797 3.851324 0.000000 0.000000 0.000000
-0.114674 0.382619 3.765646 0.000000 0.000000 0.000000
-0.354158 0.275129 3.914670 0.000000 0.000000 0.000000
-0.165744 0.355736 3.786262 0.000000 0.000000 0.000000
-0.209467 0.360882 3.808068 0.000000 0.000000 0.000000
-0.191358 0.452426 3.846197 0.000000 0.000000 0.000000
-0.338366 0.247316 3.899333 0.000000 0.000000 0.000000
-0.198010 0.448729 3.841527 0.000000 0.000000 0.000000
-0.365903 0.264003 3.930878 0.000000 0.000000 0.000000
-0.325441 0.305946 3.900679 0.000000 0.000000 0.000000
-0.190611 0.191690 3.757391 0.000000 0.000000 0.000000
-0.272497 0.302888 3.840347 0.000000 0.000000 0.000000
-0.198137 0.379370 3.799863 0.000000 0.000000 0.000000
-0.255385 0.302741 3.831158 0.000000 0.000000 0.000000
-0.161630 0.383325 3.785486 0.000000 0.000000 0.000000
-0.263363 0.231981 3.800749 0.000000 0.000000 0.000000
-0.186018 0.468526 3.844032 0.000000 0.000000 0.000000
-0.303888 0.283150 3.864573 0.000000 0.000000 0.000000
-0.213919 0.351967 3.797894 0.000000 0.000000 0.000000
-0.368540 0.244976 3.936331 0.000000 0.000000 0.000000
-0.242454 0.210141 3.785818 0.000000 0.000000 0.000000
-0.336157 0.292172 3.894422 0.000000 0.000000 0.000000
-0.285826 0.309522 3.870787 0.000000 0.000000 0.000000
-0.202743 0.229231 3.763093 0.000000 0.000000 0.000000
-0.221718 0.376073 3.817814 0.000000 0.000000 0.000000
-0.307482 0.258143 3.875029 0.000000 0.000000 0.000000
-0.243437 0.376929 3.853925 0.000000 0.000000 0.000000
-0.354407 0.246990 3.913592 0.000000 0.000000 0.000000
-0.226268 0.423579 3.858044 0.000000 0.000000 0.000000
-0.323207 0.283622 3.887270 0.000000 0.000000 0.000000
-0.284794 0.291678 3.841785 0.000000 0.000000 0.000000
-0.172207 0.374601 3.776156 0.000000 0.000000 0.000000
-0.186924 0.353629 3.786342 0.000000 0.000000 0.000000
-0.188320 0.321769 3.772771 0.000000 0.000000 0.000000
-0.277312 0.252522 3.823372 0.000000 0.000000 0.000000
-0.266416 0.295823 3.830507 0.000000 0.000000 0.000000
-0.154312 0.377626 3.769449 0.000000 0.000000 0.000000
-0.364117 0.247328 3.925652 0.000000 0.000000 0.000000
-0.182965 0.335644 3.775509 0.000000 0.000000 0.000000
-0.347978 0.248532 3.905816 0.000000 0.000000 0.000000
-0.311438 0.338065 3.894808 0.000000 0.000000 0.000000
-0.319824 0.298148 3.881911 0.000000 0.000000 0.000000
-0.261555 0.313272 3.836600 0.000000 0.000000 0.000000
-0.275684 0.351484 3.858221 0.000000 0.000000 0.000000
-0.236770 0.294782 3.812666 0.000000 0.000000 0.000000
-0.275825 0.336913 3.859084 0.000000 0.000000 0.000000
-0.239492 0.220400 3.778956 0.000000 0.000000 0.000000
-0.203189 0.326565 3.789503 0.000000 0.000000 0.000000
-0.356385 0.241182 3.924977 0.000000 0.000000 0.000000
-0.377039 0.244254 3.942530 0.000000 0.000000 0.000000
-0.341860 0.306287 3.904510 0.000000 0.000000 0.000000
-0.236238 0.346308 3.811904 0.000000 0.000000 0.000000
-0.145610 0.392932 3.774806 0.000000 0.000000 0.000000
-0.165190 0.392726 3.789883 0.000000 0.000000 0.000000
-0.224789 0.281269 3.784578 0.000000 0.000000 0.000000
-0.199482 0.364659 3.798185 0.000000 0.000000 0.000000
-0.292575 0.362883 3.879088 0.000000 0.000000 0.000000
-0.159087 0.333686 3.767160 0.000000 0.000000 0.000000
-0.268979 0.254811 3.812116 0.000000 0.000000 0.000000
-0.295543 0.292300 3.858689 0.000000 0.000000 0.000000
-0.206190 0.333851 3.793106 0.000000 0.000000 0.000000
-0.240613 0.212617 3.790402 0.000000 0.000000 0.000000
-0.159007 0.288381 3.737474 0.000000 0.000000 0.000000
-0.219191 0.227084 3.779437 0.000000 0.000000 0.000000
-0.352542 0.259250 3.905482 0.000000 0.000000 0.000000
-0.159574 0.359564 3.769834 0.000000 0.000000 0.000000
-0.340967 0.285328 3.923452 0.000000 0.000000 0.000000
-0.239446 0.422010 3.859088 0.000000 0.000000 0.000000
-0.285995 0.376369 3.881384 0.000000 0.000000 0.000000
-0.159488 0.184478 3.742165 0.000000 0.000000 0.000000
