ply
format ascii 1.0
comment VCGLIB generated
obj_info Generated by SPFormer!
element vertex 884
property float x
property float y
property float z
property float nx
property float ny
property float nz
end_header
0.318824 1.420922 1.753310 0.000000 0.000000 0.000000
0.375103 1.384367 1.682333 0.000000 0.000000 0.000000
0.243853 1.367126 1.640265 0.000000 0.000000 0.000000
0.294258 1.402569 1.694824 0.000000 0.000000 0.000000
0.232087 1.357897 1.623500 0.000000 0.000000 0.000000
0.361732 1.443712 1.765803 0.000000 0.000000 0.000000
0.320810 1.414786 1.742009 0.000000 0.000000 0.000000
0.358883 1.429457 1.749249 0.000000 0.000000 0.000000
0.332873 1.409055 1.727841 0.000000 0.000000 0.000000
0.250252 1.388848 1.676767 0.000000 0.000000 0.000000
0.202075 1.397423 1.697064 0.000000 0.000000 0.000000
0.244059 1.377359 1.655447 0.000000 0.000000 0.000000
0.546504 1.405435 1.697009 0.000000 0.000000 0.000000
0.388781 1.238653 1.513992 0.000000 0.000000 0.000000
0.552428 1.407520 1.695824 0.000000 0.000000 0.000000
0.370814 1.523992 1.822042 0.000000 0.000000 0.000000
0.477479 1.441005 1.765778 0.000000 0.000000 0.000000
0.371548 1.412600 1.719492 0.000000 0.000000 0.000000
0.282528 1.475447 1.855750 0.000000 0.000000 0.000000
0.219923 1.361902 1.631753 0.000000 0.000000 0.000000
0.306639 1.405103 1.710057 0.000000 0.000000 0.000000
0.352901 1.259510 1.488771 0.000000 0.000000 0.000000
0.536356 1.304629 1.615800 0.000000 0.000000 0.000000
0.420341 1.182609 1.473591 0.000000 0.000000 0.000000
0.358837 1.258352 1.452732 0.000000 0.000000 0.000000
0.287665 1.432783 1.784464 0.000000 0.000000 0.000000
0.359057 1.419889 1.738643 0.000000 0.000000 0.000000
0.364399 1.405379 1.714164 0.000000 0.000000 0.000000
0.316121 1.272117 1.465916 0.000000 0.000000 0.000000
0.338339 1.429481 1.762437 0.000000 0.000000 0.000000
0.365127 1.416517 1.733930 0.000000 0.000000 0.000000
0.348017 1.403257 1.715691 0.000000 0.000000 0.000000
0.326683 1.400316 1.709148 0.000000 0.000000 0.000000
0.372787 1.520839 1.834918 0.000000 0.000000 0.000000
0.223707 1.349352 1.619808 0.000000 0.000000 0.000000
0.222240 1.358739 1.627319 0.000000 0.000000 0.000000
0.452278 1.164126 1.492458 0.000000 0.000000 0.000000
0.451410 1.157732 1.487838 0.000000 0.000000 0.000000
0.246226 1.282006 1.511261 0.000000 0.000000 0.000000
0.582023 1.342259 1.637157 0.000000 0.000000 0.000000
0.365000 1.530883 1.799627 0.000000 0.000000 0.000000
0.327517 1.269329 1.448523 0.000000 0.000000 0.000000
0.207966 1.385702 1.671675 0.000000 0.000000 0.000000
0.546485 1.217075 1.527765 0.000000 0.000000 0.000000
0.373524 1.520897 1.834117 0.000000 0.000000 0.000000
0.365257 1.497010 1.836281 0.000000 0.000000 0.000000
0.566222 1.305013 1.569794 0.000000 0.000000 0.000000
0.210289 1.325624 1.601696 0.000000 0.000000 0.000000
0.374728 1.521255 1.845278 0.000000 0.000000 0.000000
0.375262 1.537694 1.822900 0.000000 0.000000 0.000000
0.373130 1.523974 1.833742 0.000000 0.000000 0.000000
0.211811 1.330301 1.610492 0.000000 0.000000 0.000000
0.414359 1.184495 1.467433 0.000000 0.000000 0.000000
0.209648 1.438091 1.764192 0.000000 0.000000 0.000000
0.248723 1.281405 1.495962 0.000000 0.000000 0.000000
0.561064 1.276935 1.568728 0.000000 0.000000 0.000000
0.373892 1.528999 1.834307 0.000000 0.000000 0.000000
0.341799 1.264639 1.449298 0.000000 0.000000 0.000000
0.210120 1.370139 1.633956 0.000000 0.000000 0.000000
0.344491 1.265355 1.450538 0.000000 0.000000 0.000000
0.227860 1.355376 1.622566 0.000000 0.000000 0.000000
0.290435 1.356256 1.622624 0.000000 0.000000 0.000000
0.223055 1.350653 1.620886 0.000000 0.000000 0.000000
0.381360 1.241150 1.461400 0.000000 0.000000 0.000000
0.385469 1.237389 1.459789 0.000000 0.000000 0.000000
0.209331 1.356533 1.626498 0.000000 0.000000 0.000000
0.226150 1.356639 1.626106 0.000000 0.000000 0.000000
0.380038 1.242828 1.461335 0.000000 0.000000 0.000000
0.359246 1.485866 1.830463 0.000000 0.000000 0.000000
0.210267 1.323375 1.605945 0.000000 0.000000 0.000000
0.396047 1.413531 1.712194 0.000000 0.000000 0.000000
0.217121 1.354648 1.625062 0.000000 0.000000 0.000000
0.580171 1.324397 1.603715 0.000000 0.000000 0.000000
0.250233 1.282355 1.499171 0.000000 0.000000 0.000000
0.372736 1.524445 1.837114 0.000000 0.000000 0.000000
0.511547 1.381369 1.685107 0.000000 0.000000 0.000000
0.464186 1.165826 1.504732 0.000000 0.000000 0.000000
0.569734 1.281024 1.562832 0.000000 0.000000 0.000000
0.368031 1.505371 1.830132 0.000000 0.000000 0.000000
0.387060 1.231544 1.454406 0.000000 0.000000 0.000000
0.564566 1.285746 1.562603 0.000000 0.000000 0.000000
0.377992 1.238778 1.450167 0.000000 0.000000 0.000000
0.231760 1.349957 1.625192 0.000000 0.000000 0.000000
0.385958 1.238197 1.450212 0.000000 0.000000 0.000000
0.372463 1.511518 1.848133 0.000000 0.000000 0.000000
0.386077 1.237187 1.456639 0.000000 0.000000 0.000000
0.254578 1.455245 1.836368 0.000000 0.000000 0.000000
0.268608 1.348553 1.613899 0.000000 0.000000 0.000000
0.396597 1.231143 1.457115 0.000000 0.000000 0.000000
0.417139 1.191690 1.478717 0.000000 0.000000 0.000000
0.344723 1.357951 1.637714 0.000000 0.000000 0.000000
0.238503 1.350893 1.616594 0.000000 0.000000 0.000000
0.222947 1.332174 1.611182 0.000000 0.000000 0.000000
0.382447 1.241949 1.456135 0.000000 0.000000 0.000000
0.370873 1.519499 1.827503 0.000000 0.000000 0.000000
0.207611 1.336225 1.615202 0.000000 0.000000 0.000000
0.541035 1.208396 1.533198 0.000000 0.000000 0.000000
0.238519 1.447602 1.822725 0.000000 0.000000 0.000000
0.240063 1.277609 1.499131 0.000000 0.000000 0.000000
0.370308 1.522518 1.824733 0.000000 0.000000 0.000000
0.516777 1.390306 1.693414 0.000000 0.000000 0.000000
0.484201 1.153603 1.515316 0.000000 0.000000 0.000000
0.569511 1.281906 1.553477 0.000000 0.000000 0.000000
0.373083 1.514505 1.838202 0.000000 0.000000 0.000000
0.407112 1.210566 1.474709 0.000000 0.000000 0.000000
0.391015 1.227087 1.453804 0.000000 0.000000 0.000000
0.374130 1.246279 1.452242 0.000000 0.000000 0.000000
0.381799 1.243470 1.452439 0.000000 0.000000 0.000000
0.374112 1.251390 1.452388 0.000000 0.000000 0.000000
0.390546 1.236381 1.456676 0.000000 0.000000 0.000000
0.248697 1.453824 1.836127 0.000000 0.000000 0.000000
0.242321 1.334893 1.603726 0.000000 0.000000 0.000000
0.392800 1.221844 1.461029 0.000000 0.000000 0.000000
0.426472 1.184001 1.480238 0.000000 0.000000 0.000000
0.228932 1.444430 1.797746 0.000000 0.000000 0.000000
0.541969 1.223477 1.537680 0.000000 0.000000 0.000000
0.224735 1.441265 1.786264 0.000000 0.000000 0.000000
0.367142 1.525270 1.820495 0.000000 0.000000 0.000000
0.571345 1.381307 1.681130 0.000000 0.000000 0.000000
0.369282 1.532265 1.825338 0.000000 0.000000 0.000000
0.290240 1.474605 1.853951 0.000000 0.000000 0.000000
0.230025 1.444687 1.807273 0.000000 0.000000 0.000000
0.545180 1.223699 1.524985 0.000000 0.000000 0.000000
0.227630 1.444019 1.804444 0.000000 0.000000 0.000000
0.199544 1.407720 1.711896 0.000000 0.000000 0.000000
0.209235 1.397362 1.696223 0.000000 0.000000 0.000000
0.393867 1.240655 1.522250 0.000000 0.000000 0.000000
0.397732 1.226351 1.495011 0.000000 0.000000 0.000000
0.206281 1.390153 1.682688 0.000000 0.000000 0.000000
0.368739 1.392432 1.697620 0.000000 0.000000 0.000000
0.539802 1.207219 1.532848 0.000000 0.000000 0.000000
0.213207 1.327121 1.604444 0.000000 0.000000 0.000000
0.288707 1.473095 1.855428 0.000000 0.000000 0.000000
0.544122 1.213300 1.531246 0.000000 0.000000 0.000000
0.273519 1.468572 1.851899 0.000000 0.000000 0.000000
0.537976 1.202943 1.526379 0.000000 0.000000 0.000000
0.565434 1.389815 1.683573 0.000000 0.000000 0.000000
0.558800 1.397249 1.689481 0.000000 0.000000 0.000000
0.224908 1.441694 1.781613 0.000000 0.000000 0.000000
0.484583 1.431405 1.765408 0.000000 0.000000 0.000000
0.389165 1.230999 1.483421 0.000000 0.000000 0.000000
0.406805 1.211264 1.478050 0.000000 0.000000 0.000000
0.383430 1.398068 1.698636 0.000000 0.000000 0.000000
0.427094 1.233499 1.519262 0.000000 0.000000 0.000000
0.382717 1.240432 1.501450 0.000000 0.000000 0.000000
0.209386 1.392675 1.686216 0.000000 0.000000 0.000000
0.408969 1.388382 1.684729 0.000000 0.000000 0.000000
0.357033 1.263319 1.516949 0.000000 0.000000 0.000000
0.541984 1.205371 1.531023 0.000000 0.000000 0.000000
0.214297 1.324167 1.599526 0.000000 0.000000 0.000000
0.282973 1.478234 1.858061 0.000000 0.000000 0.000000
0.539306 1.199402 1.528908 0.000000 0.000000 0.000000
0.542134 1.203346 1.526635 0.000000 0.000000 0.000000
0.219041 1.441493 1.774662 0.000000 0.000000 0.000000
0.212608 1.440720 1.765469 0.000000 0.000000 0.000000
0.384174 1.238053 1.493227 0.000000 0.000000 0.000000
0.400356 1.220528 1.485227 0.000000 0.000000 0.000000
0.384248 1.404484 1.710994 0.000000 0.000000 0.000000
0.422298 1.198738 1.487147 0.000000 0.000000 0.000000
0.418051 1.197743 1.479263 0.000000 0.000000 0.000000
0.238917 1.282815 1.512656 0.000000 0.000000 0.000000
0.411546 1.202376 1.476587 0.000000 0.000000 0.000000
0.448993 1.159425 1.484817 0.000000 0.000000 0.000000
0.226634 1.440552 1.785198 0.000000 0.000000 0.000000
0.570504 1.322094 1.581411 0.000000 0.000000 0.000000
0.201753 1.403430 1.706021 0.000000 0.000000 0.000000
0.571354 1.312302 1.564567 0.000000 0.000000 0.000000
0.265313 1.284090 1.472519 0.000000 0.000000 0.000000
0.367951 1.529269 1.821873 0.000000 0.000000 0.000000
0.384541 1.238462 1.453837 0.000000 0.000000 0.000000
0.381912 1.246597 1.453077 0.000000 0.000000 0.000000
0.405286 1.216884 1.491910 0.000000 0.000000 0.000000
0.254812 1.279497 1.493215 0.000000 0.000000 0.000000
0.267750 1.284317 1.494894 0.000000 0.000000 0.000000
0.234513 1.446315 1.813953 0.000000 0.000000 0.000000
0.441261 1.487542 1.771008 0.000000 0.000000 0.000000
0.328597 1.274989 1.450580 0.000000 0.000000 0.000000
0.571748 1.324330 1.578171 0.000000 0.000000 0.000000
0.364157 1.259900 1.505609 0.000000 0.000000 0.000000
0.572554 1.290431 1.560770 0.000000 0.000000 0.000000
0.522079 1.418358 1.728081 0.000000 0.000000 0.000000
0.277263 1.280718 1.472838 0.000000 0.000000 0.000000
0.428756 1.505255 1.771416 0.000000 0.000000 0.000000
0.351003 1.392260 1.696446 0.000000 0.000000 0.000000
0.366463 1.443450 1.755798 0.000000 0.000000 0.000000
0.369918 1.533129 1.822672 0.000000 0.000000 0.000000
0.351386 1.363726 1.644738 0.000000 0.000000 0.000000
0.429437 1.186522 1.486022 0.000000 0.000000 0.000000
0.372564 1.248843 1.453983 0.000000 0.000000 0.000000
0.393179 1.225572 1.460193 0.000000 0.000000 0.000000
0.387259 1.232428 1.469144 0.000000 0.000000 0.000000
0.379690 1.244476 1.455355 0.000000 0.000000 0.000000
0.386234 1.232056 1.453492 0.000000 0.000000 0.000000
0.389730 1.230066 1.477336 0.000000 0.000000 0.000000
0.263271 1.282162 1.496573 0.000000 0.000000 0.000000
0.253243 1.282053 1.496973 0.000000 0.000000 0.000000
0.367277 1.531138 1.811462 0.000000 0.000000 0.000000
0.437892 1.496831 1.771227 0.000000 0.000000 0.000000
0.324846 1.275217 1.451277 0.000000 0.000000 0.000000
0.530868 1.197395 1.544392 0.000000 0.000000 0.000000
0.302044 1.281208 1.460444 0.000000 0.000000 0.000000
0.268662 1.282025 1.483312 0.000000 0.000000 0.000000
0.570565 1.306105 1.573273 0.000000 0.000000 0.000000
0.427087 1.506506 1.770796 0.000000 0.000000 0.000000
0.362634 1.384161 1.679094 0.000000 0.000000 0.000000
0.370409 1.415914 1.724098 0.000000 0.000000 0.000000
0.372683 1.528630 1.821693 0.000000 0.000000 0.000000
0.334590 1.394300 1.690336 0.000000 0.000000 0.000000
0.409042 1.215030 1.493999 0.000000 0.000000 0.000000
0.383246 1.240278 1.455286 0.000000 0.000000 0.000000
0.395538 1.228425 1.459097 0.000000 0.000000 0.000000
0.377397 1.242812 1.464293 0.000000 0.000000 0.000000
0.372472 1.253664 1.453369 0.000000 0.000000 0.000000
0.385195 1.237928 1.452887 0.000000 0.000000 0.000000
0.247041 1.445740 1.818896 0.000000 0.000000 0.000000
0.365838 1.507149 1.866690 0.000000 0.000000 0.000000
0.399832 1.210097 1.463443 0.000000 0.000000 0.000000
0.213651 1.377759 1.641687 0.000000 0.000000 0.000000
0.209881 1.425970 1.739695 0.000000 0.000000 0.000000
0.203996 1.415560 1.719697 0.000000 0.000000 0.000000
0.204103 1.417389 1.722878 0.000000 0.000000 0.000000
0.204937 1.418008 1.725869 0.000000 0.000000 0.000000
0.215503 1.422389 1.737259 0.000000 0.000000 0.000000
0.203170 1.408010 1.711865 0.000000 0.000000 0.000000
0.204105 1.412784 1.719704 0.000000 0.000000 0.000000
0.200390 1.401144 1.702029 0.000000 0.000000 0.000000
0.201360 1.412926 1.718114 0.000000 0.000000 0.000000
0.206125 1.379645 1.637058 0.000000 0.000000 0.000000
0.210811 1.430123 1.751166 0.000000 0.000000 0.000000
0.208917 1.365840 1.631620 0.000000 0.000000 0.000000
0.485580 1.422740 1.753183 0.000000 0.000000 0.000000
0.301748 1.489143 1.866523 0.000000 0.000000 0.000000
0.252732 1.277608 1.492480 0.000000 0.000000 0.000000
0.483763 1.433936 1.767552 0.000000 0.000000 0.000000
0.210775 1.383631 1.652116 0.000000 0.000000 0.000000
0.302994 1.491157 1.868416 0.000000 0.000000 0.000000
0.481618 1.426418 1.753293 0.000000 0.000000 0.000000
0.556698 1.244547 1.533804 0.000000 0.000000 0.000000
0.245994 1.452644 1.833395 0.000000 0.000000 0.000000
0.367578 1.502409 1.873541 0.000000 0.000000 0.000000
0.205358 1.420898 1.727559 0.000000 0.000000 0.000000
0.211362 1.319335 1.569673 0.000000 0.000000 0.000000
0.539650 1.208185 1.526651 0.000000 0.000000 0.000000
0.209406 1.321212 1.575619 0.000000 0.000000 0.000000
0.198575 1.405718 1.707755 0.000000 0.000000 0.000000
0.257101 1.276879 1.488438 0.000000 0.000000 0.000000
0.571381 1.306969 1.564110 0.000000 0.000000 0.000000
0.489424 1.147090 1.516058 0.000000 0.000000 0.000000
0.268967 1.461939 1.844031 0.000000 0.000000 0.000000
0.255470 1.454637 1.834461 0.000000 0.000000 0.000000
0.265177 1.462047 1.848102 0.000000 0.000000 0.000000
0.402723 1.205193 1.464856 0.000000 0.000000 0.000000
0.201440 1.402267 1.705417 0.000000 0.000000 0.000000
0.514354 1.419478 1.737131 0.000000 0.000000 0.000000
0.210823 1.306700 1.548337 0.000000 0.000000 0.000000
0.573802 1.292795 1.551146 0.000000 0.000000 0.000000
0.311710 1.491404 1.870310 0.000000 0.000000 0.000000
0.302269 1.489813 1.869681 0.000000 0.000000 0.000000
0.242280 1.446608 1.820704 0.000000 0.000000 0.000000
0.478362 1.151234 1.505109 0.000000 0.000000 0.000000
0.264576 1.460340 1.838585 0.000000 0.000000 0.000000
0.257994 1.454764 1.835949 0.000000 0.000000 0.000000
0.320407 1.501251 1.875567 0.000000 0.000000 0.000000
0.202839 1.400985 1.702781 0.000000 0.000000 0.000000
0.515591 1.416924 1.732601 0.000000 0.000000 0.000000
0.215364 1.301926 1.541322 0.000000 0.000000 0.000000
0.518196 1.417380 1.727419 0.000000 0.000000 0.000000
0.425982 1.176966 1.475772 0.000000 0.000000 0.000000
0.510792 1.419939 1.739797 0.000000 0.000000 0.000000
0.506821 1.410196 1.722795 0.000000 0.000000 0.000000
0.304552 1.490453 1.867090 0.000000 0.000000 0.000000
0.219295 1.448704 1.794552 0.000000 0.000000 0.000000
0.583110 1.343041 1.642730 0.000000 0.000000 0.000000
0.227281 1.446980 1.796666 0.000000 0.000000 0.000000
0.285521 1.277984 1.472825 0.000000 0.000000 0.000000
0.212855 1.318242 1.564121 0.000000 0.000000 0.000000
0.584259 1.348374 1.643484 0.000000 0.000000 0.000000
0.384372 1.237681 1.455794 0.000000 0.000000 0.000000
0.226694 1.445602 1.796230 0.000000 0.000000 0.000000
0.249216 1.441515 1.801041 0.000000 0.000000 0.000000
0.400365 1.225876 1.496721 0.000000 0.000000 0.000000
0.260368 1.458035 1.836824 0.000000 0.000000 0.000000
0.230516 1.446216 1.807864 0.000000 0.000000 0.000000
0.338271 1.272871 1.493797 0.000000 0.000000 0.000000
0.567813 1.273005 1.549411 0.000000 0.000000 0.000000
0.392084 1.235709 1.492715 0.000000 0.000000 0.000000
0.246238 1.450932 1.831024 0.000000 0.000000 0.000000
0.576331 1.372759 1.665018 0.000000 0.000000 0.000000
0.522459 1.418216 1.727423 0.000000 0.000000 0.000000
0.423992 1.189736 1.477323 0.000000 0.000000 0.000000
0.547151 1.221284 1.531803 0.000000 0.000000 0.000000
0.585206 1.339286 1.612232 0.000000 0.000000 0.000000
0.587151 1.340425 1.631707 0.000000 0.000000 0.000000
0.303510 1.279674 1.466086 0.000000 0.000000 0.000000
0.588760 1.355067 1.647168 0.000000 0.000000 0.000000
0.218884 1.288523 1.530561 0.000000 0.000000 0.000000
0.360107 1.255031 1.482768 0.000000 0.000000 0.000000
0.580234 1.355719 1.653641 0.000000 0.000000 0.000000
0.370833 1.252616 1.502947 0.000000 0.000000 0.000000
0.577611 1.369273 1.662868 0.000000 0.000000 0.000000
0.217189 1.440815 1.766485 0.000000 0.000000 0.000000
0.373186 1.511623 1.840062 0.000000 0.000000 0.000000
0.226261 1.445007 1.796774 0.000000 0.000000 0.000000
0.571344 1.280608 1.553622 0.000000 0.000000 0.000000
0.374257 1.514529 1.848815 0.000000 0.000000 0.000000
0.246019 1.449634 1.827986 0.000000 0.000000 0.000000
0.241357 1.448243 1.826658 0.000000 0.000000 0.000000
0.250624 1.451118 1.831080 0.000000 0.000000 0.000000
0.414405 1.216336 1.502951 0.000000 0.000000 0.000000
0.284053 1.470183 1.848903 0.000000 0.000000 0.000000
0.239146 1.440862 1.796702 0.000000 0.000000 0.000000
0.352929 1.265577 1.504988 0.000000 0.000000 0.000000
0.568673 1.273549 1.550144 0.000000 0.000000 0.000000
0.301905 1.275468 1.466662 0.000000 0.000000 0.000000
0.381991 1.243684 1.488671 0.000000 0.000000 0.000000
0.244677 1.449434 1.825973 0.000000 0.000000 0.000000
0.460016 1.470929 1.766118 0.000000 0.000000 0.000000
0.580849 1.363023 1.656906 0.000000 0.000000 0.000000
0.581867 1.338307 1.633716 0.000000 0.000000 0.000000
0.518672 1.419616 1.734092 0.000000 0.000000 0.000000
0.423483 1.185014 1.477150 0.000000 0.000000 0.000000
0.547981 1.229795 1.536673 0.000000 0.000000 0.000000
0.586543 1.342322 1.638998 0.000000 0.000000 0.000000
0.354207 1.262025 1.448826 0.000000 0.000000 0.000000
0.552703 1.237215 1.527698 0.000000 0.000000 0.000000
0.378583 1.241689 1.484659 0.000000 0.000000 0.000000
0.583463 1.351764 1.649932 0.000000 0.000000 0.000000
0.360267 1.259371 1.497047 0.000000 0.000000 0.000000
0.568965 1.357538 1.660303 0.000000 0.000000 0.000000
0.223823 1.442808 1.787671 0.000000 0.000000 0.000000
0.248203 1.453286 1.832687 0.000000 0.000000 0.000000
0.572809 1.301455 1.563410 0.000000 0.000000 0.000000
0.376060 1.519582 1.843797 0.000000 0.000000 0.000000
0.253822 1.456350 1.840709 0.000000 0.000000 0.000000
0.210452 1.384056 1.646894 0.000000 0.000000 0.000000
0.227312 1.441946 1.786942 0.000000 0.000000 0.000000
0.208698 1.383651 1.645636 0.000000 0.000000 0.000000
0.296584 1.280092 1.458729 0.000000 0.000000 0.000000
0.230166 1.442350 1.792583 0.000000 0.000000 0.000000
0.287590 1.282733 1.459395 0.000000 0.000000 0.000000
0.359091 1.542006 1.792623 0.000000 0.000000 0.000000
0.207455 1.385119 1.649807 0.000000 0.000000 0.000000
0.301707 1.279724 1.464914 0.000000 0.000000 0.000000
0.303011 1.276192 1.458528 0.000000 0.000000 0.000000
0.195432 1.395059 1.696464 0.000000 0.000000 0.000000
0.384599 1.240589 1.453319 0.000000 0.000000 0.000000
0.383971 1.236172 1.453131 0.000000 0.000000 0.000000
0.380908 1.235851 1.452988 0.000000 0.000000 0.000000
0.386231 1.235234 1.454383 0.000000 0.000000 0.000000
0.362804 1.539439 1.790188 0.000000 0.000000 0.000000
0.291857 1.279330 1.462536 0.000000 0.000000 0.000000
0.228046 1.381393 1.657005 0.000000 0.000000 0.000000
0.374653 1.522300 1.776998 0.000000 0.000000 0.000000
0.400396 1.479431 1.753457 0.000000 0.000000 0.000000
0.208724 1.384631 1.649709 0.000000 0.000000 0.000000
0.573852 1.323710 1.599295 0.000000 0.000000 0.000000
0.379404 1.504209 1.767981 0.000000 0.000000 0.000000
0.383003 1.505288 1.766628 0.000000 0.000000 0.000000
0.578668 1.371957 1.663238 0.000000 0.000000 0.000000
0.575767 1.377917 1.664582 0.000000 0.000000 0.000000
0.576003 1.374451 1.669060 0.000000 0.000000 0.000000
0.265983 1.280233 1.480104 0.000000 0.000000 0.000000
0.364780 1.531937 1.799306 0.000000 0.000000 0.000000
0.372584 1.498353 1.767431 0.000000 0.000000 0.000000
0.307436 1.276363 1.457594 0.000000 0.000000 0.000000
0.301850 1.271515 1.458298 0.000000 0.000000 0.000000
0.396449 1.495063 1.761299 0.000000 0.000000 0.000000
0.457310 1.244621 1.553120 0.000000 0.000000 0.000000
0.291334 1.283176 1.461333 0.000000 0.000000 0.000000
0.270223 1.282193 1.477595 0.000000 0.000000 0.000000
0.239386 1.447246 1.820253 0.000000 0.000000 0.000000
0.366522 1.515362 1.796624 0.000000 0.000000 0.000000
0.290090 1.279886 1.461818 0.000000 0.000000 0.000000
0.227046 1.378359 1.646691 0.000000 0.000000 0.000000
0.362191 1.531481 1.790221 0.000000 0.000000 0.000000
0.379870 1.487552 1.762353 0.000000 0.000000 0.000000
0.580073 1.334789 1.611387 0.000000 0.000000 0.000000
0.379657 1.498864 1.764685 0.000000 0.000000 0.000000
0.377684 1.486936 1.764500 0.000000 0.000000 0.000000
0.577190 1.368422 1.656837 0.000000 0.000000 0.000000
0.568743 1.374990 1.665478 0.000000 0.000000 0.000000
0.571455 1.379484 1.673137 0.000000 0.000000 0.000000
0.388721 1.230228 1.458355 0.000000 0.000000 0.000000
0.581500 1.330487 1.606699 0.000000 0.000000 0.000000
0.208889 1.319204 1.584884 0.000000 0.000000 0.000000
0.277644 1.278509 1.471405 0.000000 0.000000 0.000000
0.359255 1.532682 1.807275 0.000000 0.000000 0.000000
0.325708 1.272266 1.454573 0.000000 0.000000 0.000000
0.374593 1.492716 1.762467 0.000000 0.000000 0.000000
0.382624 1.435324 1.729613 0.000000 0.000000 0.000000
0.301404 1.277874 1.460379 0.000000 0.000000 0.000000
0.308715 1.275127 1.456122 0.000000 0.000000 0.000000
0.284919 1.279372 1.464578 0.000000 0.000000 0.000000
0.375706 1.461208 1.741730 0.000000 0.000000 0.000000
0.384962 1.480144 1.760477 0.000000 0.000000 0.000000
0.455774 1.250306 1.553549 0.000000 0.000000 0.000000
0.211493 1.364211 1.631274 0.000000 0.000000 0.000000
0.236741 1.447172 1.819213 0.000000 0.000000 0.000000
0.287517 1.282560 1.467558 0.000000 0.000000 0.000000
0.544068 1.210799 1.529847 0.000000 0.000000 0.000000
0.246854 1.442851 1.804897 0.000000 0.000000 0.000000
0.486209 1.416589 1.742891 0.000000 0.000000 0.000000
0.547891 1.222201 1.529930 0.000000 0.000000 0.000000
0.585953 1.338303 1.628875 0.000000 0.000000 0.000000
0.236719 1.444766 1.810768 0.000000 0.000000 0.000000
0.233048 1.446516 1.817491 0.000000 0.000000 0.000000
0.529023 1.421989 1.725204 0.000000 0.000000 0.000000
0.285264 1.280518 1.467426 0.000000 0.000000 0.000000
0.387330 1.233685 1.453008 0.000000 0.000000 0.000000
0.253093 1.445650 1.814738 0.000000 0.000000 0.000000
0.204676 1.416442 1.721495 0.000000 0.000000 0.000000
0.312132 1.480719 1.857254 0.000000 0.000000 0.000000
0.383373 1.237355 1.467396 0.000000 0.000000 0.000000
0.388478 1.233143 1.454525 0.000000 0.000000 0.000000
0.444284 1.244383 1.544443 0.000000 0.000000 0.000000
0.250823 1.445994 1.817347 0.000000 0.000000 0.000000
0.240135 1.446771 1.819048 0.000000 0.000000 0.000000
0.224952 1.446722 1.791919 0.000000 0.000000 0.000000
0.500132 1.425291 1.751565 0.000000 0.000000 0.000000
0.235607 1.446662 1.823050 0.000000 0.000000 0.000000
0.238749 1.447151 1.821974 0.000000 0.000000 0.000000
0.480740 1.409313 1.729564 0.000000 0.000000 0.000000
0.466632 1.221054 1.544413 0.000000 0.000000 0.000000
0.253964 1.448412 1.822790 0.000000 0.000000 0.000000
0.233565 1.446443 1.809660 0.000000 0.000000 0.000000
0.499579 1.423964 1.748215 0.000000 0.000000 0.000000
0.333627 1.448480 1.798555 0.000000 0.000000 0.000000
0.238649 1.449061 1.822445 0.000000 0.000000 0.000000
0.478089 1.404357 1.719681 0.000000 0.000000 0.000000
0.514771 1.179925 1.533305 0.000000 0.000000 0.000000
0.521437 1.177362 1.531585 0.000000 0.000000 0.000000
0.527025 1.176264 1.531624 0.000000 0.000000 0.000000
0.212083 1.317477 1.578593 0.000000 0.000000 0.000000
0.407656 1.193000 1.465943 0.000000 0.000000 0.000000
0.375773 1.500199 1.866209 0.000000 0.000000 0.000000
0.213875 1.315541 1.559222 0.000000 0.000000 0.000000
0.217181 1.309823 1.551127 0.000000 0.000000 0.000000
0.520662 1.170732 1.531347 0.000000 0.000000 0.000000
0.214084 1.317820 1.561407 0.000000 0.000000 0.000000
0.362860 1.503976 1.857743 0.000000 0.000000 0.000000
0.375698 1.514254 1.853686 0.000000 0.000000 0.000000
0.504178 1.167384 1.532823 0.000000 0.000000 0.000000
0.512324 1.171235 1.529718 0.000000 0.000000 0.000000
0.487351 1.428091 1.764742 0.000000 0.000000 0.000000
0.495826 1.428365 1.761848 0.000000 0.000000 0.000000
0.545762 1.213725 1.529658 0.000000 0.000000 0.000000
0.212503 1.370247 1.636069 0.000000 0.000000 0.000000
0.476242 1.157172 1.510138 0.000000 0.000000 0.000000
0.533863 1.184218 1.531609 0.000000 0.000000 0.000000
0.366717 1.501710 1.851032 0.000000 0.000000 0.000000
0.484764 1.148514 1.508021 0.000000 0.000000 0.000000
0.550797 1.230841 1.529583 0.000000 0.000000 0.000000
0.540188 1.205574 1.533878 0.000000 0.000000 0.000000
0.547074 1.204121 1.530559 0.000000 0.000000 0.000000
0.215783 1.367460 1.633757 0.000000 0.000000 0.000000
0.213014 1.363321 1.630681 0.000000 0.000000 0.000000
0.218812 1.367807 1.633173 0.000000 0.000000 0.000000
0.482591 1.153237 1.513347 0.000000 0.000000 0.000000
0.359348 1.537921 1.811072 0.000000 0.000000 0.000000
0.365850 1.503928 1.857496 0.000000 0.000000 0.000000
0.483944 1.148398 1.510966 0.000000 0.000000 0.000000
0.539421 1.209629 1.538420 0.000000 0.000000 0.000000
0.541485 1.197626 1.531512 0.000000 0.000000 0.000000
0.209749 1.362559 1.628663 0.000000 0.000000 0.000000
0.217331 1.367934 1.634418 0.000000 0.000000 0.000000
0.214210 1.371840 1.635343 0.000000 0.000000 0.000000
0.320724 1.270725 1.452006 0.000000 0.000000 0.000000
0.272936 1.283207 1.483091 0.000000 0.000000 0.000000
0.588819 1.333513 1.619797 0.000000 0.000000 0.000000
0.328901 1.268993 1.452468 0.000000 0.000000 0.000000
0.227668 1.287872 1.527437 0.000000 0.000000 0.000000
0.327822 1.271120 1.450934 0.000000 0.000000 0.000000
0.246195 1.280563 1.490079 0.000000 0.000000 0.000000
0.259697 1.280004 1.485580 0.000000 0.000000 0.000000
0.206626 1.316909 1.565619 0.000000 0.000000 0.000000
0.261653 1.282810 1.476457 0.000000 0.000000 0.000000
0.229570 1.440020 1.789152 0.000000 0.000000 0.000000
0.234646 1.435893 1.773840 0.000000 0.000000 0.000000
0.211261 1.388512 1.684413 0.000000 0.000000 0.000000
0.226855 1.441932 1.785282 0.000000 0.000000 0.000000
0.213505 1.367012 1.631658 0.000000 0.000000 0.000000
0.511336 1.172177 1.530495 0.000000 0.000000 0.000000
0.316679 1.272851 1.459299 0.000000 0.000000 0.000000
0.576351 1.328506 1.596575 0.000000 0.000000 0.000000
0.445301 1.332224 1.618077 0.000000 0.000000 0.000000
0.327525 1.267777 1.452200 0.000000 0.000000 0.000000
0.563895 1.296888 1.570053 0.000000 0.000000 0.000000
0.363088 1.391838 1.699846 0.000000 0.000000 0.000000
0.338693 1.269513 1.451068 0.000000 0.000000 0.000000
0.226354 1.287737 1.531116 0.000000 0.000000 0.000000
0.284146 1.280593 1.470880 0.000000 0.000000 0.000000
0.278950 1.281040 1.465968 0.000000 0.000000 0.000000
0.210370 1.390316 1.690142 0.000000 0.000000 0.000000
0.426457 1.183093 1.475325 0.000000 0.000000 0.000000
0.225962 1.443475 1.794638 0.000000 0.000000 0.000000
0.229700 1.439368 1.783138 0.000000 0.000000 0.000000
0.424837 1.183163 1.477671 0.000000 0.000000 0.000000
0.301394 1.274518 1.461649 0.000000 0.000000 0.000000
0.572101 1.320791 1.586553 0.000000 0.000000 0.000000
0.486912 1.150365 1.509596 0.000000 0.000000 0.000000
0.446372 1.333490 1.612056 0.000000 0.000000 0.000000
0.406209 1.198617 1.466022 0.000000 0.000000 0.000000
0.321819 1.273809 1.455523 0.000000 0.000000 0.000000
0.560625 1.278724 1.566823 0.000000 0.000000 0.000000
0.383655 1.376006 1.675247 0.000000 0.000000 0.000000
0.365190 1.258294 1.453843 0.000000 0.000000 0.000000
0.226209 1.285573 1.531294 0.000000 0.000000 0.000000
0.281065 1.280102 1.470284 0.000000 0.000000 0.000000
0.269463 1.281414 1.473747 0.000000 0.000000 0.000000
0.207701 1.385814 1.658246 0.000000 0.000000 0.000000
0.424820 1.181978 1.476434 0.000000 0.000000 0.000000
0.232857 1.442580 1.795147 0.000000 0.000000 0.000000
0.224390 1.441367 1.781358 0.000000 0.000000 0.000000
0.418130 1.190787 1.473948 0.000000 0.000000 0.000000
0.371080 1.507245 1.819371 0.000000 0.000000 0.000000
0.365555 1.511926 1.869523 0.000000 0.000000 0.000000
0.440642 1.472960 1.761158 0.000000 0.000000 0.000000
0.431440 1.466720 1.764620 0.000000 0.000000 0.000000
0.442282 1.486326 1.767796 0.000000 0.000000 0.000000
0.206046 1.390694 1.685006 0.000000 0.000000 0.000000
0.426940 1.180324 1.475047 0.000000 0.000000 0.000000
0.210483 1.393185 1.692345 0.000000 0.000000 0.000000
0.542433 1.207943 1.531393 0.000000 0.000000 0.000000
0.209234 1.317701 1.582643 0.000000 0.000000 0.000000
0.211177 1.316580 1.564402 0.000000 0.000000 0.000000
0.198622 1.405129 1.707814 0.000000 0.000000 0.000000
0.206171 1.393213 1.689760 0.000000 0.000000 0.000000
0.285996 1.474059 1.853563 0.000000 0.000000 0.000000
0.370819 1.533056 1.817543 0.000000 0.000000 0.000000
0.372600 1.531624 1.825543 0.000000 0.000000 0.000000
0.460627 1.469824 1.767283 0.000000 0.000000 0.000000
0.468672 1.464496 1.766733 0.000000 0.000000 0.000000
0.367091 1.505371 1.780931 0.000000 0.000000 0.000000
0.367118 1.510666 1.789266 0.000000 0.000000 0.000000
0.372454 1.496187 1.780288 0.000000 0.000000 0.000000
0.436800 1.492143 1.770861 0.000000 0.000000 0.000000
0.447174 1.468377 1.761299 0.000000 0.000000 0.000000
0.367347 1.480264 1.777039 0.000000 0.000000 0.000000
0.383328 1.496461 1.764622 0.000000 0.000000 0.000000
0.370427 1.516537 1.782744 0.000000 0.000000 0.000000
0.442379 1.461998 1.757562 0.000000 0.000000 0.000000
0.435062 1.473920 1.761285 0.000000 0.000000 0.000000
0.205969 1.392683 1.690555 0.000000 0.000000 0.000000
0.280583 1.481609 1.861094 0.000000 0.000000 0.000000
0.454753 1.464169 1.761935 0.000000 0.000000 0.000000
0.452519 1.473270 1.766286 0.000000 0.000000 0.000000
0.451814 1.478580 1.767135 0.000000 0.000000 0.000000
0.448444 1.473413 1.766031 0.000000 0.000000 0.000000
0.279591 1.473287 1.854582 0.000000 0.000000 0.000000
0.371527 1.510867 1.778835 0.000000 0.000000 0.000000
0.223291 1.390121 1.685485 0.000000 0.000000 0.000000
0.419345 1.506728 1.769596 0.000000 0.000000 0.000000
0.438680 1.479208 1.765220 0.000000 0.000000 0.000000
0.375095 1.538131 1.774629 0.000000 0.000000 0.000000
0.367340 1.496014 1.788687 0.000000 0.000000 0.000000
0.375560 1.507938 1.772999 0.000000 0.000000 0.000000
0.372714 1.505983 1.777274 0.000000 0.000000 0.000000
0.451285 1.474491 1.766314 0.000000 0.000000 0.000000
0.435749 1.483829 1.766252 0.000000 0.000000 0.000000
0.366456 1.502474 1.784243 0.000000 0.000000 0.000000
0.371056 1.499004 1.774511 0.000000 0.000000 0.000000
0.367275 1.527158 1.784852 0.000000 0.000000 0.000000
0.438985 1.480603 1.765955 0.000000 0.000000 0.000000
0.441737 1.466338 1.758776 0.000000 0.000000 0.000000
0.211077 1.390074 1.683678 0.000000 0.000000 0.000000
0.295880 1.492512 1.864706 0.000000 0.000000 0.000000
0.456985 1.458470 1.760139 0.000000 0.000000 0.000000
0.445166 1.485800 1.770269 0.000000 0.000000 0.000000
0.454825 1.478305 1.765212 0.000000 0.000000 0.000000
0.449603 1.460878 1.758466 0.000000 0.000000 0.000000
0.371348 1.519570 1.781253 0.000000 0.000000 0.000000
0.214869 1.389450 1.687536 0.000000 0.000000 0.000000
0.412335 1.522181 1.769264 0.000000 0.000000 0.000000
0.208371 1.387614 1.679056 0.000000 0.000000 0.000000
0.456340 1.473745 1.768762 0.000000 0.000000 0.000000
0.371679 1.538644 1.778178 0.000000 0.000000 0.000000
0.321433 1.270990 1.453382 0.000000 0.000000 0.000000
0.206423 1.384560 1.650976 0.000000 0.000000 0.000000
0.369234 1.510017 1.864485 0.000000 0.000000 0.000000
0.327115 1.270795 1.454122 0.000000 0.000000 0.000000
0.399388 1.212410 1.463525 0.000000 0.000000 0.000000
0.371018 1.511062 1.862280 0.000000 0.000000 0.000000
0.362133 1.503058 1.864911 0.000000 0.000000 0.000000
0.208169 1.319702 1.587909 0.000000 0.000000 0.000000
0.324044 1.268665 1.452167 0.000000 0.000000 0.000000
0.328262 1.264417 1.455466 0.000000 0.000000 0.000000
0.544600 1.201848 1.529449 0.000000 0.000000 0.000000
0.452507 1.156501 1.488095 0.000000 0.000000 0.000000
0.322199 1.271835 1.451833 0.000000 0.000000 0.000000
0.210382 1.376947 1.638032 0.000000 0.000000 0.000000
0.287300 1.282095 1.463762 0.000000 0.000000 0.000000
0.207192 1.320997 1.593616 0.000000 0.000000 0.000000
0.368585 1.511269 1.865541 0.000000 0.000000 0.000000
0.441177 1.168860 1.483835 0.000000 0.000000 0.000000
0.418155 1.513707 1.770680 0.000000 0.000000 0.000000
0.403607 1.385223 1.685124 0.000000 0.000000 0.000000
0.372703 1.516455 1.860833 0.000000 0.000000 0.000000
0.366896 1.252583 1.456391 0.000000 0.000000 0.000000
0.309200 1.275093 1.455081 0.000000 0.000000 0.000000
0.307523 1.279869 1.460545 0.000000 0.000000 0.000000
0.430577 1.173526 1.478078 0.000000 0.000000 0.000000
0.408291 1.523484 1.771492 0.000000 0.000000 0.000000
0.377555 1.528037 1.839332 0.000000 0.000000 0.000000
0.210945 1.320354 1.583556 0.000000 0.000000 0.000000
0.217464 1.359279 1.630944 0.000000 0.000000 0.000000
0.396061 1.214181 1.459737 0.000000 0.000000 0.000000
0.390261 1.377146 1.678416 0.000000 0.000000 0.000000
0.376178 1.519168 1.860256 0.000000 0.000000 0.000000
0.367874 1.253100 1.453256 0.000000 0.000000 0.000000
0.315671 1.272100 1.450144 0.000000 0.000000 0.000000
0.318615 1.275195 1.460158 0.000000 0.000000 0.000000
0.408476 1.524057 1.772508 0.000000 0.000000 0.000000
0.377109 1.523324 1.850841 0.000000 0.000000 0.000000
0.485306 1.155061 1.518084 0.000000 0.000000 0.000000
0.212483 1.319283 1.577941 0.000000 0.000000 0.000000
0.209361 1.376387 1.638010 0.000000 0.000000 0.000000
0.404214 1.205343 1.464673 0.000000 0.000000 0.000000
0.574139 1.375865 1.671967 0.000000 0.000000 0.000000
0.220448 1.444067 1.778723 0.000000 0.000000 0.000000
0.208065 1.330175 1.613296 0.000000 0.000000 0.000000
0.476483 1.155425 1.502928 0.000000 0.000000 0.000000
0.211639 1.430135 1.752168 0.000000 0.000000 0.000000
0.576187 1.374552 1.668753 0.000000 0.000000 0.000000
0.543279 1.194320 1.530632 0.000000 0.000000 0.000000
0.221959 1.384626 1.669768 0.000000 0.000000 0.000000
0.215564 1.320637 1.576649 0.000000 0.000000 0.000000
0.397190 1.526526 1.770977 0.000000 0.000000 0.000000
0.207596 1.425794 1.739932 0.000000 0.000000 0.000000
0.230200 1.286044 1.522564 0.000000 0.000000 0.000000
0.205608 1.437001 1.763740 0.000000 0.000000 0.000000
0.296826 1.475933 1.855071 0.000000 0.000000 0.000000
0.306681 1.488847 1.868231 0.000000 0.000000 0.000000
0.576691 1.375043 1.664518 0.000000 0.000000 0.000000
0.246431 1.453463 1.838523 0.000000 0.000000 0.000000
0.207891 1.386413 1.652836 0.000000 0.000000 0.000000
0.366434 1.507769 1.865427 0.000000 0.000000 0.000000
0.209339 1.428956 1.743375 0.000000 0.000000 0.000000
0.211114 1.423368 1.739551 0.000000 0.000000 0.000000
0.574990 1.332907 1.595236 0.000000 0.000000 0.000000
0.213051 1.386192 1.657412 0.000000 0.000000 0.000000
0.389841 1.527908 1.767985 0.000000 0.000000 0.000000
0.208959 1.385178 1.652938 0.000000 0.000000 0.000000
0.374753 1.535033 1.765952 0.000000 0.000000 0.000000
0.208450 1.334437 1.611212 0.000000 0.000000 0.000000
0.393879 1.530547 1.768617 0.000000 0.000000 0.000000
0.568657 1.389172 1.675558 0.000000 0.000000 0.000000
0.382709 1.538697 1.768346 0.000000 0.000000 0.000000
0.208068 1.330554 1.606881 0.000000 0.000000 0.000000
0.239290 1.278167 1.513692 0.000000 0.000000 0.000000
0.570302 1.385505 1.677223 0.000000 0.000000 0.000000
0.572184 1.381413 1.674534 0.000000 0.000000 0.000000
0.251556 1.450852 1.834686 0.000000 0.000000 0.000000
0.296005 1.280903 1.464918 0.000000 0.000000 0.000000
0.218436 1.445907 1.784163 0.000000 0.000000 0.000000
0.548159 1.211551 1.529440 0.000000 0.000000 0.000000
0.212588 1.431565 1.748930 0.000000 0.000000 0.000000
0.215593 1.427831 1.748272 0.000000 0.000000 0.000000
0.391427 1.529475 1.771624 0.000000 0.000000 0.000000
0.572056 1.326801 1.592660 0.000000 0.000000 0.000000
0.209888 1.383087 1.663775 0.000000 0.000000 0.000000
0.400349 1.522618 1.768565 0.000000 0.000000 0.000000
0.267398 1.467739 1.856405 0.000000 0.000000 0.000000
0.207986 1.386611 1.667527 0.000000 0.000000 0.000000
0.378763 1.532143 1.770564 0.000000 0.000000 0.000000
0.216396 1.328274 1.607811 0.000000 0.000000 0.000000
0.383763 1.532544 1.768770 0.000000 0.000000 0.000000
0.489853 1.230040 1.563971 0.000000 0.000000 0.000000
0.572251 1.383656 1.671293 0.000000 0.000000 0.000000
0.386804 1.534359 1.769284 0.000000 0.000000 0.000000
0.574470 1.381276 1.671969 0.000000 0.000000 0.000000
0.570306 1.382223 1.674530 0.000000 0.000000 0.000000
0.251845 1.454115 1.839300 0.000000 0.000000 0.000000
0.295826 1.281651 1.461394 0.000000 0.000000 0.000000
0.553388 1.235434 1.531704 0.000000 0.000000 0.000000
0.215077 1.316284 1.574267 0.000000 0.000000 0.000000
0.585984 1.347547 1.644203 0.000000 0.000000 0.000000
0.216601 1.317544 1.583838 0.000000 0.000000 0.000000
0.214998 1.318009 1.572441 0.000000 0.000000 0.000000
0.471797 1.155046 1.503027 0.000000 0.000000 0.000000
0.272670 1.282157 1.467790 0.000000 0.000000 0.000000
0.213258 1.391703 1.689862 0.000000 0.000000 0.000000
0.454628 1.154952 1.491656 0.000000 0.000000 0.000000
0.210424 1.319086 1.574860 0.000000 0.000000 0.000000
0.280731 1.470252 1.852618 0.000000 0.000000 0.000000
0.213918 1.435371 1.761623 0.000000 0.000000 0.000000
0.583210 1.340213 1.631880 0.000000 0.000000 0.000000
0.478968 1.149672 1.504974 0.000000 0.000000 0.000000
0.205353 1.405744 1.708923 0.000000 0.000000 0.000000
0.583346 1.346829 1.640554 0.000000 0.000000 0.000000
0.570136 1.291001 1.554048 0.000000 0.000000 0.000000
0.268421 1.281672 1.471812 0.000000 0.000000 0.000000
0.198715 1.408853 1.713018 0.000000 0.000000 0.000000
0.208556 1.393608 1.688254 0.000000 0.000000 0.000000
0.205978 1.393143 1.690057 0.000000 0.000000 0.000000
0.298260 1.486440 1.869006 0.000000 0.000000 0.000000
0.568665 1.291307 1.557614 0.000000 0.000000 0.000000
0.303522 1.488935 1.867749 0.000000 0.000000 0.000000
0.306448 1.493158 1.869030 0.000000 0.000000 0.000000
0.589493 1.341500 1.632546 0.000000 0.000000 0.000000
0.212527 1.318358 1.579450 0.000000 0.000000 0.000000
0.219996 1.390499 1.685546 0.000000 0.000000 0.000000
0.207982 1.389574 1.690186 0.000000 0.000000 0.000000
0.203786 1.394051 1.691098 0.000000 0.000000 0.000000
0.208459 1.391027 1.690108 0.000000 0.000000 0.000000
0.508177 1.353867 1.658482 0.000000 0.000000 0.000000
0.216412 1.387320 1.678769 0.000000 0.000000 0.000000
0.217730 1.316944 1.577076 0.000000 0.000000 0.000000
0.211373 1.319830 1.593590 0.000000 0.000000 0.000000
0.217112 1.323283 1.593347 0.000000 0.000000 0.000000
0.569835 1.299092 1.562153 0.000000 0.000000 0.000000
0.570978 1.285973 1.553710 0.000000 0.000000 0.000000
0.568398 1.292053 1.556056 0.000000 0.000000 0.000000
0.472452 1.154680 1.502938 0.000000 0.000000 0.000000
0.584982 1.337740 1.631586 0.000000 0.000000 0.000000
0.569328 1.287219 1.558763 0.000000 0.000000 0.000000
0.567740 1.300522 1.559451 0.000000 0.000000 0.000000
0.571262 1.296233 1.565310 0.000000 0.000000 0.000000
0.588948 1.339630 1.630973 0.000000 0.000000 0.000000
0.210304 1.394909 1.697357 0.000000 0.000000 0.000000
0.311597 1.488653 1.867219 0.000000 0.000000 0.000000
0.580808 1.333981 1.616513 0.000000 0.000000 0.000000
0.206397 1.386599 1.673575 0.000000 0.000000 0.000000
0.574476 1.308390 1.562834 0.000000 0.000000 0.000000
0.576995 1.328586 1.596115 0.000000 0.000000 0.000000
0.537710 1.382745 1.683940 0.000000 0.000000 0.000000
0.205587 1.400730 1.703827 0.000000 0.000000 0.000000
0.535347 1.365437 1.669210 0.000000 0.000000 0.000000
0.529074 1.349460 1.650877 0.000000 0.000000 0.000000
0.210696 1.388861 1.680957 0.000000 0.000000 0.000000
0.214541 1.314378 1.562442 0.000000 0.000000 0.000000
0.218232 1.318446 1.585170 0.000000 0.000000 0.000000
0.569781 1.298819 1.560187 0.000000 0.000000 0.000000
0.569776 1.299223 1.559181 0.000000 0.000000 0.000000
0.571612 1.296588 1.558961 0.000000 0.000000 0.000000
0.566777 1.287748 1.555611 0.000000 0.000000 0.000000
0.570856 1.288781 1.556511 0.000000 0.000000 0.000000
0.204652 1.397354 1.699451 0.000000 0.000000 0.000000
0.311377 1.493547 1.872229 0.000000 0.000000 0.000000
0.207316 1.385105 1.669763 0.000000 0.000000 0.000000
0.581233 1.346158 1.638897 0.000000 0.000000 0.000000
0.537373 1.377404 1.678303 0.000000 0.000000 0.000000
0.209408 1.395620 1.698416 0.000000 0.000000 0.000000
0.221608 1.446169 1.777008 0.000000 0.000000 0.000000
0.512426 1.168531 1.531438 0.000000 0.000000 0.000000
0.207372 1.398274 1.698808 0.000000 0.000000 0.000000
0.414895 1.516142 1.771761 0.000000 0.000000 0.000000
0.523992 1.416634 1.724146 0.000000 0.000000 0.000000
0.419092 1.187444 1.473737 0.000000 0.000000 0.000000
0.202237 1.408427 1.713891 0.000000 0.000000 0.000000
0.517410 1.176274 1.531420 0.000000 0.000000 0.000000
0.255086 1.457485 1.841435 0.000000 0.000000 0.000000
0.427331 1.180933 1.475987 0.000000 0.000000 0.000000
0.518599 1.175941 1.530730 0.000000 0.000000 0.000000
0.514618 1.173172 1.529693 0.000000 0.000000 0.000000
0.408284 1.525102 1.770584 0.000000 0.000000 0.000000
0.203486 1.400424 1.701341 0.000000 0.000000 0.000000
0.485320 1.397091 1.706534 0.000000 0.000000 0.000000
0.417961 1.189638 1.471009 0.000000 0.000000 0.000000
0.399244 1.214245 1.461713 0.000000 0.000000 0.000000
0.407317 1.198900 1.469852 0.000000 0.000000 0.000000
0.451836 1.164326 1.486547 0.000000 0.000000 0.000000
0.203029 1.387238 1.662098 0.000000 0.000000 0.000000
0.210089 1.401583 1.704548 0.000000 0.000000 0.000000
0.490972 1.418003 1.738541 0.000000 0.000000 0.000000
0.411570 1.199171 1.473538 0.000000 0.000000 0.000000
0.460221 1.156812 1.490918 0.000000 0.000000 0.000000
0.210386 1.433382 1.752670 0.000000 0.000000 0.000000
0.211558 1.428100 1.747266 0.000000 0.000000 0.000000
0.200744 1.389641 1.670679 0.000000 0.000000 0.000000
0.251524 1.282359 1.488005 0.000000 0.000000 0.000000
0.209793 1.431552 1.750568 0.000000 0.000000 0.000000
0.498237 1.423921 1.748723 0.000000 0.000000 0.000000
0.212085 1.436369 1.759777 0.000000 0.000000 0.000000
0.517755 1.311308 1.624944 0.000000 0.000000 0.000000
0.229311 1.276559 1.521299 0.000000 0.000000 0.000000
0.541708 1.302917 1.616740 0.000000 0.000000 0.000000
0.538916 1.295216 1.610945 0.000000 0.000000 0.000000
0.515223 1.334381 1.639506 0.000000 0.000000 0.000000
0.546055 1.321741 1.631672 0.000000 0.000000 0.000000
0.234448 1.275563 1.515747 0.000000 0.000000 0.000000
0.550529 1.327389 1.634725 0.000000 0.000000 0.000000
0.288362 1.480959 1.863344 0.000000 0.000000 0.000000
0.391362 1.223734 1.459867 0.000000 0.000000 0.000000
0.330127 1.267543 1.453736 0.000000 0.000000 0.000000
0.370913 1.505045 1.860673 0.000000 0.000000 0.000000
0.469440 1.442316 1.762652 0.000000 0.000000 0.000000
0.465410 1.441148 1.758152 0.000000 0.000000 0.000000
0.294284 1.476666 1.858869 0.000000 0.000000 0.000000
0.285159 1.281284 1.463352 0.000000 0.000000 0.000000
0.315020 1.487273 1.868801 0.000000 0.000000 0.000000
0.282379 1.467949 1.851047 0.000000 0.000000 0.000000
0.314695 1.482182 1.859963 0.000000 0.000000 0.000000
0.297479 1.484005 1.866243 0.000000 0.000000 0.000000
0.275932 1.474368 1.858977 0.000000 0.000000 0.000000
0.200803 1.405776 1.708513 0.000000 0.000000 0.000000
0.324673 1.490110 1.862245 0.000000 0.000000 0.000000
0.549970 1.240707 1.531192 0.000000 0.000000 0.000000
0.210216 1.328822 1.606254 0.000000 0.000000 0.000000
0.281298 1.476990 1.859342 0.000000 0.000000 0.000000
0.294838 1.483845 1.865316 0.000000 0.000000 0.000000
0.301125 1.492345 1.872868 0.000000 0.000000 0.000000
0.304762 1.487140 1.871309 0.000000 0.000000 0.000000
0.331853 1.502144 1.875970 0.000000 0.000000 0.000000
0.293874 1.482559 1.866722 0.000000 0.000000 0.000000
0.243450 1.449108 1.827847 0.000000 0.000000 0.000000
0.287947 1.469896 1.848351 0.000000 0.000000 0.000000
0.274652 1.477065 1.859162 0.000000 0.000000 0.000000
0.311193 1.491032 1.869594 0.000000 0.000000 0.000000
0.244327 1.452232 1.834476 0.000000 0.000000 0.000000
0.305307 1.491264 1.870796 0.000000 0.000000 0.000000
0.313432 1.486026 1.863403 0.000000 0.000000 0.000000
0.313148 1.488299 1.870445 0.000000 0.000000 0.000000
0.300213 1.462347 1.833478 0.000000 0.000000 0.000000
0.312118 1.476055 1.852015 0.000000 0.000000 0.000000
0.323550 1.477252 1.847453 0.000000 0.000000 0.000000
0.310207 1.486941 1.864914 0.000000 0.000000 0.000000
0.330719 1.489210 1.860964 0.000000 0.000000 0.000000
0.334104 1.485856 1.853521 0.000000 0.000000 0.000000
0.463909 1.452091 1.761661 0.000000 0.000000 0.000000
0.353236 1.497136 1.860703 0.000000 0.000000 0.000000
0.334199 1.492449 1.869434 0.000000 0.000000 0.000000
0.266466 1.458856 1.843811 0.000000 0.000000 0.000000
0.264259 1.462806 1.848621 0.000000 0.000000 0.000000
0.436523 1.172066 1.479383 0.000000 0.000000 0.000000
0.261193 1.456807 1.841126 0.000000 0.000000 0.000000
0.466680 1.451231 1.762463 0.000000 0.000000 0.000000
0.309013 1.489472 1.867978 0.000000 0.000000 0.000000
0.445302 1.452502 1.754947 0.000000 0.000000 0.000000
0.468198 1.450769 1.764052 0.000000 0.000000 0.000000
0.391179 1.224319 1.459997 0.000000 0.000000 0.000000
0.307643 1.484478 1.863450 0.000000 0.000000 0.000000
0.313097 1.478689 1.853049 0.000000 0.000000 0.000000
0.313663 1.480503 1.855476 0.000000 0.000000 0.000000
0.547469 1.241059 1.532067 0.000000 0.000000 0.000000
0.325251 1.499855 1.872657 0.000000 0.000000 0.000000
0.535135 1.283412 1.602957 0.000000 0.000000 0.000000
0.304341 1.470980 1.844985 0.000000 0.000000 0.000000
0.279607 1.469538 1.850003 0.000000 0.000000 0.000000
0.281586 1.472317 1.853786 0.000000 0.000000 0.000000
0.300648 1.475308 1.851600 0.000000 0.000000 0.000000
0.472316 1.440529 1.763807 0.000000 0.000000 0.000000
0.285320 1.478241 1.860632 0.000000 0.000000 0.000000
0.250199 1.448988 1.828887 0.000000 0.000000 0.000000
0.301914 1.485180 1.865325 0.000000 0.000000 0.000000
0.243341 1.448466 1.827077 0.000000 0.000000 0.000000
0.226758 1.446980 1.801649 0.000000 0.000000 0.000000
0.458973 1.454509 1.765499 0.000000 0.000000 0.000000
0.392481 1.216054 1.460216 0.000000 0.000000 0.000000
0.200640 1.387577 1.680823 0.000000 0.000000 0.000000
0.286255 1.451275 1.818372 0.000000 0.000000 0.000000
0.313085 1.473908 1.845272 0.000000 0.000000 0.000000
0.343155 1.496831 1.867411 0.000000 0.000000 0.000000
0.299779 1.484582 1.866752 0.000000 0.000000 0.000000
0.320869 1.485273 1.859997 0.000000 0.000000 0.000000
0.333672 1.481801 1.848456 0.000000 0.000000 0.000000
0.459845 1.453535 1.759306 0.000000 0.000000 0.000000
0.349700 1.495774 1.863554 0.000000 0.000000 0.000000
0.335813 1.495929 1.867027 0.000000 0.000000 0.000000
0.296184 1.480460 1.861469 0.000000 0.000000 0.000000
0.294251 1.480792 1.862655 0.000000 0.000000 0.000000
0.431943 1.175071 1.479155 0.000000 0.000000 0.000000
0.262996 1.453097 1.831915 0.000000 0.000000 0.000000
0.462622 1.446855 1.758986 0.000000 0.000000 0.000000
0.321332 1.493569 1.869079 0.000000 0.000000 0.000000
0.458466 1.445174 1.755104 0.000000 0.000000 0.000000
0.469679 1.447159 1.764109 0.000000 0.000000 0.000000
0.391310 1.218183 1.460353 0.000000 0.000000 0.000000
0.320512 1.493107 1.868883 0.000000 0.000000 0.000000
0.317474 1.486500 1.862237 0.000000 0.000000 0.000000
0.309031 1.480789 1.857349 0.000000 0.000000 0.000000
0.289312 1.478162 1.859095 0.000000 0.000000 0.000000
0.550454 1.249590 1.533314 0.000000 0.000000 0.000000
0.318276 1.494641 1.871838 0.000000 0.000000 0.000000
0.512833 1.264413 1.590731 0.000000 0.000000 0.000000
0.308406 1.472481 1.845977 0.000000 0.000000 0.000000
0.269800 1.466182 1.851426 0.000000 0.000000 0.000000
0.299055 1.481020 1.860369 0.000000 0.000000 0.000000
0.285899 1.466675 1.842832 0.000000 0.000000 0.000000
0.256296 1.456362 1.839887 0.000000 0.000000 0.000000
0.286522 1.477039 1.858894 0.000000 0.000000 0.000000
0.228258 1.445494 1.810214 0.000000 0.000000 0.000000
0.277702 1.471051 1.855745 0.000000 0.000000 0.000000
0.309298 1.491010 1.870295 0.000000 0.000000 0.000000
0.368619 1.259339 1.450302 0.000000 0.000000 0.000000
