ply
format ascii 1.0
comment VCGLIB generated
obj_info Generated by SPFormer!
element vertex 372
property float x
property float y
property float z
property float nx
property float ny
property float nz
end_header
1.482288 0.589932 1.421026 0.000000 0.000000 0.000000
1.489881 0.579184 1.423484 0.000000 0.000000 0.000000
1.484345 0.574587 1.416837 0.000000 0.000000 0.000000
1.497223 0.573748 1.422969 0.000000 0.000000 0.000000
1.540270 0.566652 1.419314 0.000000 0.000000 0.000000
1.527829 0.567150 1.413473 0.000000 0.000000 0.000000
1.524232 0.555139 1.419715 0.000000 0.000000 0.000000
1.491238 0.573325 1.412928 0.000000 0.000000 0.000000
1.514518 0.558711 1.420158 0.000000 0.000000 0.000000
1.532619 0.566540 1.412247 0.000000 0.000000 0.000000
1.526110 0.566350 1.413176 0.000000 0.000000 0.000000
1.523387 0.568587 1.422691 0.000000 0.000000 0.000000
1.529538 0.578679 1.413085 0.000000 0.000000 0.000000
1.754085 0.537382 2.182180 0.000000 0.000000 0.000000
1.480390 0.599963 1.415297 0.000000 0.000000 0.000000
1.541955 0.567308 1.418027 0.000000 0.000000 0.000000
1.730841 0.544865 2.178232 0.000000 0.000000 0.000000
1.511749 0.579156 1.417710 0.000000 0.000000 0.000000
1.737702 0.547603 2.156107 0.000000 0.000000 0.000000
1.733501 0.539464 2.184281 0.000000 0.000000 0.000000
1.540482 0.568461 1.412655 0.000000 0.000000 0.000000
1.494220 0.593280 1.404863 0.000000 0.000000 0.000000
1.523920 0.568569 1.416381 0.000000 0.000000 0.000000
1.526322 0.569727 1.416052 0.000000 0.000000 0.000000
1.752663 0.555625 2.177875 0.000000 0.000000 0.000000
1.525608 0.564059 1.425414 0.000000 0.000000 0.000000
1.723386 0.542562 2.196141 0.000000 0.000000 0.000000
1.490864 0.580652 1.416863 0.000000 0.000000 0.000000
1.482704 0.584110 1.420536 0.000000 0.000000 0.000000
1.537385 0.574594 1.417363 0.000000 0.000000 0.000000
1.735011 0.546710 2.187527 0.000000 0.000000 0.000000
1.489159 0.575023 1.418930 0.000000 0.000000 0.000000
1.726575 0.538825 2.175949 0.000000 0.000000 0.000000
1.737895 0.528735 2.153697 0.000000 0.000000 0.000000
1.539729 0.571308 1.420541 0.000000 0.000000 0.000000
1.540048 0.560320 1.424742 0.000000 0.000000 0.000000
1.743865 0.538625 2.181448 0.000000 0.000000 0.000000
1.748168 0.532618 2.167147 0.000000 0.000000 0.000000
1.748878 0.538795 2.172355 0.000000 0.000000 0.000000
1.535209 0.572101 1.423862 0.000000 0.000000 0.000000
1.732353 0.544306 2.197415 0.000000 0.000000 0.000000
1.535222 0.565481 1.419998 0.000000 0.000000 0.000000
1.756459 0.555460 2.161721 0.000000 0.000000 0.000000
1.757084 0.557521 2.164773 0.000000 0.000000 0.000000
1.746282 0.553842 2.155222 0.000000 0.000000 0.000000
1.506511 0.576872 1.412812 0.000000 0.000000 0.000000
1.756139 0.548340 2.173036 0.000000 0.000000 0.000000
1.747995 0.560387 2.159580 0.000000 0.000000 0.000000
1.751798 0.542765 2.159617 0.000000 0.000000 0.000000
1.740759 0.535598 2.180565 0.000000 0.000000 0.000000
1.529772 0.579706 1.420229 0.000000 0.000000 0.000000
1.518255 0.560061 1.413130 0.000000 0.000000 0.000000
1.534791 0.576554 1.420923 0.000000 0.000000 0.000000
1.522826 0.569370 1.420933 0.000000 0.000000 0.000000
1.534822 0.574644 1.412756 0.000000 0.000000 0.000000
1.526676 0.570561 1.422742 0.000000 0.000000 0.000000
1.762397 0.547743 2.178845 0.000000 0.000000 0.000000
1.746311 0.552649 2.179894 0.000000 0.000000 0.000000
1.501618 0.578764 1.417218 0.000000 0.000000 0.000000
1.528945 0.562038 1.423378 0.000000 0.000000 0.000000
1.732442 0.537986 2.189863 0.000000 0.000000 0.000000
1.746747 0.547563 2.175797 0.000000 0.000000 0.000000
1.535921 0.572989 1.416416 0.000000 0.000000 0.000000
1.752608 0.554453 2.164479 0.000000 0.000000 0.000000
1.742653 0.542064 2.184024 0.000000 0.000000 0.000000
1.734836 0.544240 2.185966 0.000000 0.000000 0.000000
1.720383 0.533972 2.147650 0.000000 0.000000 0.000000
1.741113 0.558223 2.166941 0.000000 0.000000 0.000000
1.532142 0.575956 1.419507 0.000000 0.000000 0.000000
1.539265 0.567457 1.420685 0.000000 0.000000 0.000000
1.727298 0.536627 2.178772 0.000000 0.000000 0.000000
1.500203 0.575838 1.416549 0.000000 0.000000 0.000000
1.737457 0.540430 2.190300 0.000000 0.000000 0.000000
1.484234 0.594896 1.423980 0.000000 0.000000 0.000000
1.730804 0.546233 2.186088 0.000000 0.000000 0.000000
1.721405 0.541706 2.197052 0.000000 0.000000 0.000000
1.738060 0.547667 2.179525 0.000000 0.000000 0.000000
1.524241 0.574766 1.417597 0.000000 0.000000 0.000000
1.536271 0.566497 1.421654 0.000000 0.000000 0.000000
1.490337 0.574654 1.412841 0.000000 0.000000 0.000000
1.517207 0.569800 1.416298 0.000000 0.000000 0.000000
1.725325 0.536489 2.187860 0.000000 0.000000 0.000000
1.727750 0.539584 2.197410 0.000000 0.000000 0.000000
1.720025 0.546957 2.196294 0.000000 0.000000 0.000000
1.766884 0.535523 2.155956 0.000000 0.000000 0.000000
1.737880 0.536456 2.167390 0.000000 0.000000 0.000000
1.534881 0.575072 1.415096 0.000000 0.000000 0.000000
1.729686 0.545112 2.164564 0.000000 0.000000 0.000000
1.735856 0.549092 2.162895 0.000000 0.000000 0.000000
1.523005 0.568515 1.424116 0.000000 0.000000 0.000000
1.514679 0.577314 1.417021 0.000000 0.000000 0.000000
1.737418 0.536257 2.167702 0.000000 0.000000 0.000000
1.723084 0.541943 2.186150 0.000000 0.000000 0.000000
1.749513 0.547861 2.164826 0.000000 0.000000 0.000000
1.758714 0.554288 2.170062 0.000000 0.000000 0.000000
1.731342 0.542813 2.170025 0.000000 0.000000 0.000000
1.749152 0.536021 2.178982 0.000000 0.000000 0.000000
1.751576 0.551217 2.161454 0.000000 0.000000 0.000000
1.759248 0.545620 2.168680 0.000000 0.000000 0.000000
1.506438 0.573401 1.416077 0.000000 0.000000 0.000000
1.735707 0.541556 2.172240 0.000000 0.000000 0.000000
1.758514 0.543463 2.159810 0.000000 0.000000 0.000000
1.766598 0.541274 2.181247 0.000000 0.000000 0.000000
1.758527 0.547450 2.162900 0.000000 0.000000 0.000000
1.532840 0.579531 1.412820 0.000000 0.000000 0.000000
1.736899 0.553971 2.156684 0.000000 0.000000 0.000000
1.489012 0.579900 1.416401 0.000000 0.000000 0.000000
1.740443 0.557666 2.174047 0.000000 0.000000 0.000000
1.495564 0.574091 1.416934 0.000000 0.000000 0.000000
1.752741 0.538772 2.162377 0.000000 0.000000 0.000000
1.484446 0.573527 1.410863 0.000000 0.000000 0.000000
1.480883 0.576354 1.414389 0.000000 0.000000 0.000000
1.482056 0.574698 1.421067 0.000000 0.000000 0.000000
1.482072 0.574423 1.406324 0.000000 0.000000 0.000000
1.529712 0.570611 1.416363 0.000000 0.000000 0.000000
1.493888 0.579776 1.420016 0.000000 0.000000 0.000000
1.486041 0.594593 1.406672 0.000000 0.000000 0.000000
1.745118 0.552248 2.180790 0.000000 0.000000 0.000000
1.529362 0.574331 1.414811 0.000000 0.000000 0.000000
1.523647 0.575477 1.418352 0.000000 0.000000 0.000000
1.518434 0.569693 1.418493 0.000000 0.000000 0.000000
1.512782 0.570136 1.422195 0.000000 0.000000 0.000000
1.485923 0.580494 1.417947 0.000000 0.000000 0.000000
1.534303 0.568734 1.420005 0.000000 0.000000 0.000000
1.526534 0.568842 1.421702 0.000000 0.000000 0.000000
1.530769 0.568409 1.423442 0.000000 0.000000 0.000000
1.755190 0.558346 2.161107 0.000000 0.000000 0.000000
1.510613 0.573417 1.416477 0.000000 0.000000 0.000000
1.547651 0.564848 1.418886 0.000000 0.000000 0.000000
1.539409 0.567271 1.423679 0.000000 0.000000 0.000000
1.539521 0.568242 1.417219 0.000000 0.000000 0.000000
1.517894 0.570569 1.423138 0.000000 0.000000 0.000000
1.753099 0.545884 2.156726 0.000000 0.000000 0.000000
1.751810 0.552438 2.160274 0.000000 0.000000 0.000000
1.531461 0.572657 1.422297 0.000000 0.000000 0.000000
1.532042 0.562541 1.428252 0.000000 0.000000 0.000000
1.490504 0.575423 1.420949 0.000000 0.000000 0.000000
1.489956 0.564392 1.439685 0.000000 0.000000 0.000000
1.491621 0.573291 1.423714 0.000000 0.000000 0.000000
1.483256 0.598520 1.418802 0.000000 0.000000 0.000000
1.483564 0.593853 1.401709 0.000000 0.000000 0.000000
1.528346 0.573949 1.412892 0.000000 0.000000 0.000000
1.522735 0.574702 1.423032 0.000000 0.000000 0.000000
1.480778 0.597966 1.425176 0.000000 0.000000 0.000000
1.511627 0.576318 1.418886 0.000000 0.000000 0.000000
1.754003 0.536159 2.175159 0.000000 0.000000 0.000000
1.533461 0.562184 1.424692 0.000000 0.000000 0.000000
1.746228 0.538433 2.165396 0.000000 0.000000 0.000000
1.730417 0.537267 2.174224 0.000000 0.000000 0.000000
1.485729 0.575349 1.422346 0.000000 0.000000 0.000000
1.749983 0.546846 2.172100 0.000000 0.000000 0.000000
1.731806 0.552917 2.172035 0.000000 0.000000 0.000000
1.530328 0.579599 1.428001 0.000000 0.000000 0.000000
1.487677 0.578689 1.409925 0.000000 0.000000 0.000000
1.723113 0.542441 2.189301 0.000000 0.000000 0.000000
1.484382 0.577538 1.416042 0.000000 0.000000 0.000000
1.484015 0.569069 1.428289 0.000000 0.000000 0.000000
1.756017 0.555674 2.172392 0.000000 0.000000 0.000000
1.487640 0.573087 1.407185 0.000000 0.000000 0.000000
1.743904 0.536575 2.189378 0.000000 0.000000 0.000000
1.731469 0.551496 2.167715 0.000000 0.000000 0.000000
1.515948 0.574672 1.412332 0.000000 0.000000 0.000000
1.509204 0.567336 1.423823 0.000000 0.000000 0.000000
1.527162 0.575175 1.418259 0.000000 0.000000 0.000000
1.528837 0.579374 1.410355 0.000000 0.000000 0.000000
1.521995 0.570055 1.413033 0.000000 0.000000 0.000000
1.536284 0.571058 1.418755 0.000000 0.000000 0.000000
1.518617 0.570486 1.411513 0.000000 0.000000 0.000000
1.483134 0.575857 1.419381 0.000000 0.000000 0.000000
1.740054 0.538599 2.172858 0.000000 0.000000 0.000000
1.731487 0.541380 2.185256 0.000000 0.000000 0.000000
1.722213 0.545523 2.180651 0.000000 0.000000 0.000000
1.720390 0.545599 2.174719 0.000000 0.000000 0.000000
1.735174 0.539798 2.179444 0.000000 0.000000 0.000000
1.730068 0.536909 2.182286 0.000000 0.000000 0.000000
1.747906 0.538464 2.176913 0.000000 0.000000 0.000000
1.725039 0.547477 2.166831 0.000000 0.000000 0.000000
1.534480 0.568101 1.429086 0.000000 0.000000 0.000000
1.481492 0.573461 1.405433 0.000000 0.000000 0.000000
1.484385 0.564740 1.426669 0.000000 0.000000 0.000000
1.510200 0.571967 1.419501 0.000000 0.000000 0.000000
1.486828 0.587384 1.420061 0.000000 0.000000 0.000000
1.531250 0.567953 1.422907 0.000000 0.000000 0.000000
1.519793 0.576175 1.419404 0.000000 0.000000 0.000000
1.496162 0.574993 1.415709 0.000000 0.000000 0.000000
1.481308 0.574652 1.404921 0.000000 0.000000 0.000000
1.483241 0.582103 1.416807 0.000000 0.000000 0.000000
1.480296 0.585788 1.425668 0.000000 0.000000 0.000000
1.723858 0.538046 2.154317 0.000000 0.000000 0.000000
1.546186 0.561075 1.422164 0.000000 0.000000 0.000000
1.526833 0.566481 1.419176 0.000000 0.000000 0.000000
1.480532 0.560619 1.428252 0.000000 0.000000 0.000000
1.522391 0.567557 1.415053 0.000000 0.000000 0.000000
1.482379 0.589402 1.418601 0.000000 0.000000 0.000000
1.493618 0.598475 1.424893 0.000000 0.000000 0.000000
1.734137 0.540620 2.161440 0.000000 0.000000 0.000000
1.497946 0.573938 1.413516 0.000000 0.000000 0.000000
1.726310 0.542006 2.197899 0.000000 0.000000 0.000000
1.760820 0.531161 2.165727 0.000000 0.000000 0.000000
1.754040 0.535713 2.164720 0.000000 0.000000 0.000000
1.491021 0.571592 1.400641 0.000000 0.000000 0.000000
1.731857 0.546140 2.191714 0.000000 0.000000 0.000000
1.743285 0.533566 2.170832 0.000000 0.000000 0.000000
1.535781 0.567380 1.422830 0.000000 0.000000 0.000000
1.752785 0.535159 2.167668 0.000000 0.000000 0.000000
1.755877 0.538446 2.168349 0.000000 0.000000 0.000000
1.724552 0.542540 2.192280 0.000000 0.000000 0.000000
1.492778 0.574613 1.422212 0.000000 0.000000 0.000000
1.501707 0.571149 1.416694 0.000000 0.000000 0.000000
1.483841 0.592158 1.425258 0.000000 0.000000 0.000000
1.727436 0.544128 2.196898 0.000000 0.000000 0.000000
1.486761 0.598288 1.400217 0.000000 0.000000 0.000000
1.531278 0.572616 1.416261 0.000000 0.000000 0.000000
1.518696 0.567263 1.423204 0.000000 0.000000 0.000000
1.525921 0.578328 1.423139 0.000000 0.000000 0.000000
1.515684 0.572288 1.417185 0.000000 0.000000 0.000000
1.485510 0.577530 1.416011 0.000000 0.000000 0.000000
1.487242 0.575858 1.419778 0.000000 0.000000 0.000000
1.525845 0.566412 1.422166 0.000000 0.000000 0.000000
1.520622 0.567575 1.420169 0.000000 0.000000 0.000000
1.485297 0.584440 1.423954 0.000000 0.000000 0.000000
1.487821 0.599229 1.405006 0.000000 0.000000 0.000000
1.485901 0.599079 1.421582 0.000000 0.000000 0.000000
1.485353 0.587892 1.419864 0.000000 0.000000 0.000000
1.513927 0.566927 1.417854 0.000000 0.000000 0.000000
1.495099 0.576797 1.421447 0.000000 0.000000 0.000000
1.537714 0.563706 1.420063 0.000000 0.000000 0.000000
1.534194 0.572566 1.419576 0.000000 0.000000 0.000000
1.530300 0.573696 1.414431 0.000000 0.000000 0.000000
1.523970 0.566552 1.421420 0.000000 0.000000 0.000000
1.534353 0.561706 1.422211 0.000000 0.000000 0.000000
1.534162 0.566349 1.422025 0.000000 0.000000 0.000000
1.507522 0.574019 1.423421 0.000000 0.000000 0.000000
1.514691 0.571268 1.420352 0.000000 0.000000 0.000000
1.505209 0.574568 1.419540 0.000000 0.000000 0.000000
1.510662 0.571894 1.419123 0.000000 0.000000 0.000000
1.502460 0.570968 1.420999 0.000000 0.000000 0.000000
1.506475 0.575103 1.416465 0.000000 0.000000 0.000000
1.520396 0.574793 1.418095 0.000000 0.000000 0.000000
1.513150 0.571115 1.421029 0.000000 0.000000 0.000000
1.536377 0.571674 1.415937 0.000000 0.000000 0.000000
1.535610 0.570673 1.421232 0.000000 0.000000 0.000000
1.484300 0.579360 1.421461 0.000000 0.000000 0.000000
1.530336 0.564023 1.422064 0.000000 0.000000 0.000000
1.530912 0.577494 1.414692 0.000000 0.000000 0.000000
1.498378 0.575230 1.423376 0.000000 0.000000 0.000000
1.480814 0.593328 1.410344 0.000000 0.000000 0.000000
1.725557 0.538053 2.185052 0.000000 0.000000 0.000000
1.512554 0.575544 1.416941 0.000000 0.000000 0.000000
1.482700 0.570620 1.401066 0.000000 0.000000 0.000000
1.737006 0.542638 2.175766 0.000000 0.000000 0.000000
1.514443 0.578781 1.415632 0.000000 0.000000 0.000000
1.730314 0.555046 2.169234 0.000000 0.000000 0.000000
1.487383 0.569332 1.402933 0.000000 0.000000 0.000000
1.535930 0.571427 1.414692 0.000000 0.000000 0.000000
1.487821 0.578755 1.419228 0.000000 0.000000 0.000000
1.545544 0.570819 1.415929 0.000000 0.000000 0.000000
1.725445 0.538597 2.156855 0.000000 0.000000 0.000000
1.526633 0.575968 1.414500 0.000000 0.000000 0.000000
1.506602 0.569738 1.419596 0.000000 0.000000 0.000000
1.531531 0.572585 1.413754 0.000000 0.000000 0.000000
1.512617 0.567984 1.420989 0.000000 0.000000 0.000000
1.726137 0.543560 2.161778 0.000000 0.000000 0.000000
1.757237 0.550358 2.157700 0.000000 0.000000 0.000000
1.735262 0.550114 2.177768 0.000000 0.000000 0.000000
1.757188 0.544246 2.158506 0.000000 0.000000 0.000000
1.741439 0.553625 2.164426 0.000000 0.000000 0.000000
1.754239 0.544020 2.155684 0.000000 0.000000 0.000000
1.534295 0.572587 1.415385 0.000000 0.000000 0.000000
1.513327 0.569498 1.412716 0.000000 0.000000 0.000000
1.520008 0.569279 1.416266 0.000000 0.000000 0.000000
1.520680 0.573425 1.415531 0.000000 0.000000 0.000000
1.510316 0.574119 1.419650 0.000000 0.000000 0.000000
1.506285 0.570358 1.412521 0.000000 0.000000 0.000000
1.500045 0.576182 1.410827 0.000000 0.000000 0.000000
1.514212 0.572099 1.415017 0.000000 0.000000 0.000000
1.508704 0.573260 1.420035 0.000000 0.000000 0.000000
1.510586 0.570283 1.409389 0.000000 0.000000 0.000000
1.734518 0.554557 2.158575 0.000000 0.000000 0.000000
1.488443 0.569701 1.407614 0.000000 0.000000 0.000000
1.492035 0.568291 1.406636 0.000000 0.000000 0.000000
1.736329 0.537941 2.146878 0.000000 0.000000 0.000000
1.745646 0.551451 2.161852 0.000000 0.000000 0.000000
1.536498 0.568088 1.420456 0.000000 0.000000 0.000000
1.492505 0.571597 1.419612 0.000000 0.000000 0.000000
1.481487 0.597559 1.428548 0.000000 0.000000 0.000000
1.529582 0.570486 1.416192 0.000000 0.000000 0.000000
1.723867 0.547188 2.161089 0.000000 0.000000 0.000000
1.535602 0.570784 1.429957 0.000000 0.000000 0.000000
1.486123 0.599012 1.429067 0.000000 0.000000 0.000000
1.744084 0.545965 2.155115 0.000000 0.000000 0.000000
1.726328 0.538312 2.194143 0.000000 0.000000 0.000000
1.742308 0.541386 2.156634 0.000000 0.000000 0.000000
1.732168 0.553032 2.163571 0.000000 0.000000 0.000000
1.737442 0.540643 2.183920 0.000000 0.000000 0.000000
1.721402 0.546141 2.197871 0.000000 0.000000 0.000000
1.504632 0.571549 1.423404 0.000000 0.000000 0.000000
1.726035 0.543997 2.182609 0.000000 0.000000 0.000000
1.721522 0.534112 2.153234 0.000000 0.000000 0.000000
1.728020 0.522420 2.148846 0.000000 0.000000 0.000000
1.726195 0.543451 2.190781 0.000000 0.000000 0.000000
1.728281 0.529778 2.147537 0.000000 0.000000 0.000000
1.721297 0.533714 2.145917 0.000000 0.000000 0.000000
1.728397 0.529701 2.148819 0.000000 0.000000 0.000000
1.724751 0.539664 2.186857 0.000000 0.000000 0.000000
1.734087 0.544253 2.183713 0.000000 0.000000 0.000000
1.737238 0.535229 2.157109 0.000000 0.000000 0.000000
1.724630 0.539182 2.153129 0.000000 0.000000 0.000000
1.722186 0.529272 2.148612 0.000000 0.000000 0.000000
1.540203 0.569983 1.419808 0.000000 0.000000 0.000000
1.535773 0.565045 1.419430 0.000000 0.000000 0.000000
1.497541 0.596710 1.403477 0.000000 0.000000 0.000000
1.734994 0.551780 2.156685 0.000000 0.000000 0.000000
1.735062 0.554546 2.161853 0.000000 0.000000 0.000000
1.507939 0.569244 1.421670 0.000000 0.000000 0.000000
1.755841 0.543699 2.154873 0.000000 0.000000 0.000000
1.755169 0.538181 2.160407 0.000000 0.000000 0.000000
1.538444 0.571531 1.415816 0.000000 0.000000 0.000000
1.525923 0.573738 1.417012 0.000000 0.000000 0.000000
1.523152 0.569954 1.410490 0.000000 0.000000 0.000000
1.516794 0.571497 1.413767 0.000000 0.000000 0.000000
1.720349 0.542407 2.185661 0.000000 0.000000 0.000000
1.730011 0.539350 2.152732 0.000000 0.000000 0.000000
1.758398 0.552244 2.161198 0.000000 0.000000 0.000000
1.755512 0.550116 2.158589 0.000000 0.000000 0.000000
1.726165 0.528066 2.147797 0.000000 0.000000 0.000000
1.771529 0.542606 2.167467 0.000000 0.000000 0.000000
1.758001 0.532786 2.160426 0.000000 0.000000 0.000000
1.726520 0.530848 2.154977 0.000000 0.000000 0.000000
1.751547 0.535362 2.158024 0.000000 0.000000 0.000000
1.751448 0.528254 2.163670 0.000000 0.000000 0.000000
1.756183 0.540985 2.163762 0.000000 0.000000 0.000000
1.732020 0.556883 2.172428 0.000000 0.000000 0.000000
1.771587 0.535535 2.166015 0.000000 0.000000 0.000000
1.743308 0.553162 2.166783 0.000000 0.000000 0.000000
1.762218 0.534206 2.175762 0.000000 0.000000 0.000000
1.720207 0.543453 2.164713 0.000000 0.000000 0.000000
1.534688 0.573374 1.414402 0.000000 0.000000 0.000000
1.549080 0.567210 1.418017 0.000000 0.000000 0.000000
1.498028 0.595858 1.425077 0.000000 0.000000 0.000000
1.497653 0.575707 1.419770 0.000000 0.000000 0.000000
1.511470 0.576344 1.416214 0.000000 0.000000 0.000000
1.516314 0.570943 1.414389 0.000000 0.000000 0.000000
1.725707 0.520581 2.142425 0.000000 0.000000 0.000000
1.496005 0.592299 1.427379 0.000000 0.000000 0.000000
1.498081 0.578499 1.417015 0.000000 0.000000 0.000000
1.515616 0.577360 1.416263 0.000000 0.000000 0.000000
1.516164 0.579034 1.415072 0.000000 0.000000 0.000000
1.744678 0.534510 2.176157 0.000000 0.000000 0.000000
1.721732 0.542034 2.162259 0.000000 0.000000 0.000000
1.727455 0.541334 2.154711 0.000000 0.000000 0.000000
1.743854 0.539391 2.181413 0.000000 0.000000 0.000000
1.750890 0.544886 2.156120 0.000000 0.000000 0.000000
1.720130 0.544208 2.189977 0.000000 0.000000 0.000000
1.749079 0.533250 2.171565 0.000000 0.000000 0.000000
1.732196 0.537571 2.181914 0.000000 0.000000 0.000000
1.745422 0.547437 2.157114 0.000000 0.000000 0.000000
1.729898 0.543033 2.174214 0.000000 0.000000 0.000000
1.743090 0.537242 2.159273 0.000000 0.000000 0.000000
1.749402 0.541099 2.157852 0.000000 0.000000 0.000000
1.736196 0.534044 2.178231 0.000000 0.000000 0.000000
1.747207 0.553527 2.157191 0.000000 0.000000 0.000000
1.739498 0.533527 2.171193 0.000000 0.000000 0.000000
1.735294 0.541774 2.182403 0.000000 0.000000 0.000000
1.745710 0.535442 2.161805 0.000000 0.000000 0.000000
1.729039 0.544296 2.190919 0.000000 0.000000 0.000000
1.730902 0.541956 2.175441 0.000000 0.000000 0.000000
1.749102 0.539025 2.156671 0.000000 0.000000 0.000000
1.534928 0.563244 1.414033 0.000000 0.000000 0.000000
1.506477 0.568854 1.423980 0.000000 0.000000 0.000000
1.484372 0.590204 1.429997 0.000000 0.000000 0.000000
1.480281 0.597587 1.430553 0.000000 0.000000 0.000000
