ply
format ascii 1.0
comment VCGLIB generated
obj_info Generated by SPFormer!
element vertex 216
property float x
property float y
property float z
property float nx
property float ny
property float nz
end_header
1.785096 0.580547 2.193984 0.000000 0.000000 0.000000
1.774833 0.595159 2.181163 0.000000 0.000000 0.000000
1.773943 0.579563 2.195196 0.000000 0.000000 0.000000
1.761173 0.574251 2.184125 0.000000 0.000000 0.000000
1.780019 0.578483 2.199954 0.000000 0.000000 0.000000
1.789330 0.576186 2.199971 0.000000 0.000000 0.000000
1.789704 0.565975 2.185131 0.000000 0.000000 0.000000
1.783488 0.577766 2.197884 0.000000 0.000000 0.000000
1.782303 0.603346 2.168799 0.000000 0.000000 0.000000
1.773146 0.574079 2.187981 0.000000 0.000000 0.000000
1.792570 0.611495 2.179505 0.000000 0.000000 0.000000
1.783984 0.577444 2.197300 0.000000 0.000000 0.000000
1.802240 0.615441 2.169125 0.000000 0.000000 0.000000
1.777714 0.579622 2.171091 0.000000 0.000000 0.000000
1.767529 0.576624 2.194039 0.000000 0.000000 0.000000
-0.107737 1.584604 2.664101 0.000000 0.000000 0.000000
-0.105691 1.591629 2.674422 0.000000 0.000000 0.000000
1.780815 0.572991 2.184242 0.000000 0.000000 0.000000
1.782863 0.599346 2.166282 0.000000 0.000000 0.000000
1.773469 0.592396 2.173197 0.000000 0.000000 0.000000
1.777783 0.574494 2.191097 0.000000 0.000000 0.000000
1.762024 0.576078 2.194594 0.000000 0.000000 0.000000
1.790446 0.569077 2.188627 0.000000 0.000000 0.000000
1.765329 0.585350 2.178185 0.000000 0.000000 0.000000
1.761105 0.581399 2.192191 0.000000 0.000000 0.000000
-0.094473 1.593790 2.666326 0.000000 0.000000 0.000000
1.783235 0.571102 2.187735 0.000000 0.000000 0.000000
1.786676 0.576438 2.195163 0.000000 0.000000 0.000000
1.775028 0.577964 2.199816 0.000000 0.000000 0.000000
-0.110954 1.578497 2.667443 0.000000 0.000000 0.000000
1.788621 0.571449 2.189200 0.000000 0.000000 0.000000
1.799696 0.572558 2.193097 0.000000 0.000000 0.000000
1.787521 0.598468 2.173123 0.000000 0.000000 0.000000
1.779895 0.574687 2.188812 0.000000 0.000000 0.000000
1.792992 0.571401 2.199456 0.000000 0.000000 0.000000
1.768171 0.572918 2.189620 0.000000 0.000000 0.000000
1.770703 0.575545 2.194338 0.000000 0.000000 0.000000
-0.105099 1.579020 2.671604 0.000000 0.000000 0.000000
1.781574 0.592590 2.173252 0.000000 0.000000 0.000000
1.792261 0.577854 2.197876 0.000000 0.000000 0.000000
1.778398 0.574805 2.184099 0.000000 0.000000 0.000000
1.783679 0.596775 2.161156 0.000000 0.000000 0.000000
1.787135 0.581554 2.198251 0.000000 0.000000 0.000000
1.784353 0.573789 2.190783 0.000000 0.000000 0.000000
-0.101781 1.590716 2.667820 0.000000 0.000000 0.000000
1.760830 0.578629 2.185096 0.000000 0.000000 0.000000
1.763338 0.571641 2.194927 0.000000 0.000000 0.000000
1.772094 0.580565 2.195118 0.000000 0.000000 0.000000
1.774095 0.575115 2.171582 0.000000 0.000000 0.000000
-0.114798 1.576127 2.665467 0.000000 0.000000 0.000000
1.784020 0.579553 2.191936 0.000000 0.000000 0.000000
-0.099829 1.590694 2.668997 0.000000 0.000000 0.000000
1.770329 0.590719 2.181222 0.000000 0.000000 0.000000
1.782782 0.599687 2.175862 0.000000 0.000000 0.000000
1.782285 0.579861 2.193630 0.000000 0.000000 0.000000
1.772934 0.573223 2.187235 0.000000 0.000000 0.000000
-0.102414 1.591714 2.668819 0.000000 0.000000 0.000000
1.793556 0.583372 2.198644 0.000000 0.000000 0.000000
-0.103309 1.584602 2.666943 0.000000 0.000000 0.000000
-0.102541 1.585737 2.666629 0.000000 0.000000 0.000000
-0.103229 1.584559 2.665967 0.000000 0.000000 0.000000
1.771443 0.575302 2.194918 0.000000 0.000000 0.000000
1.794368 0.575956 2.193645 0.000000 0.000000 0.000000
1.788814 0.605700 2.161448 0.000000 0.000000 0.000000
1.790409 0.614045 2.174534 0.000000 0.000000 0.000000
1.762527 0.563419 2.164354 0.000000 0.000000 0.000000
1.781289 0.602004 2.173482 0.000000 0.000000 0.000000
1.770071 0.574411 2.187710 0.000000 0.000000 0.000000
-0.112347 1.583900 2.673034 0.000000 0.000000 0.000000
1.795844 0.607003 2.177032 0.000000 0.000000 0.000000
-0.117277 1.575960 2.661935 0.000000 0.000000 0.000000
-0.108623 1.582516 2.674056 0.000000 0.000000 0.000000
1.785737 0.604918 2.171807 0.000000 0.000000 0.000000
-0.100705 1.589280 2.667226 0.000000 0.000000 0.000000
1.773321 0.589834 2.177274 0.000000 0.000000 0.000000
-0.106834 1.584786 2.668077 0.000000 0.000000 0.000000
-0.113322 1.577898 2.668168 0.000000 0.000000 0.000000
1.800865 0.609451 2.173203 0.000000 0.000000 0.000000
1.794388 0.604824 2.175928 0.000000 0.000000 0.000000
1.765453 0.573419 2.181076 0.000000 0.000000 0.000000
1.794507 0.608968 2.169336 0.000000 0.000000 0.000000
1.798916 0.602436 2.172624 0.000000 0.000000 0.000000
1.762830 0.581243 2.171139 0.000000 0.000000 0.000000
1.774734 0.585812 2.168930 0.000000 0.000000 0.000000
-0.098943 1.590356 2.668923 0.000000 0.000000 0.000000
1.760705 0.577868 2.192892 0.000000 0.000000 0.000000
1.776823 0.590952 2.175144 0.000000 0.000000 0.000000
1.787734 0.592761 2.168819 0.000000 0.000000 0.000000
1.781201 0.597679 2.179203 0.000000 0.000000 0.000000
1.782232 0.594940 2.181340 0.000000 0.000000 0.000000
1.774212 0.591738 2.176955 0.000000 0.000000 0.000000
1.781524 0.597749 2.169464 0.000000 0.000000 0.000000
-0.109457 1.580649 2.660512 0.000000 0.000000 0.000000
-0.097500 1.592042 2.666024 0.000000 0.000000 0.000000
1.782570 0.597740 2.177967 0.000000 0.000000 0.000000
1.787650 0.599005 2.160698 0.000000 0.000000 0.000000
-0.092795 1.599695 2.667920 0.000000 0.000000 0.000000
1.777269 0.589721 2.170606 0.000000 0.000000 0.000000
1.772021 0.588573 2.173826 0.000000 0.000000 0.000000
-0.096460 1.590135 2.669323 0.000000 0.000000 0.000000
-0.103164 1.591615 2.671616 0.000000 0.000000 0.000000
1.792186 0.568379 2.185792 0.000000 0.000000 0.000000
-0.095954 1.601087 2.668729 0.000000 0.000000 0.000000
1.795750 0.605824 2.176722 0.000000 0.000000 0.000000
-0.103386 1.588131 2.665982 0.000000 0.000000 0.000000
1.788702 0.601906 2.179877 0.000000 0.000000 0.000000
1.780616 0.595358 2.175492 0.000000 0.000000 0.000000
1.792570 0.603257 2.177538 0.000000 0.000000 0.000000
1.796049 0.610314 2.176791 0.000000 0.000000 0.000000
-0.110683 1.579412 2.666722 0.000000 0.000000 0.000000
1.770801 0.589842 2.167633 0.000000 0.000000 0.000000
1.790971 0.573714 2.195082 0.000000 0.000000 0.000000
1.775416 0.589987 2.173155 0.000000 0.000000 0.000000
1.792713 0.598276 2.160756 0.000000 0.000000 0.000000
1.789480 0.602708 2.176143 0.000000 0.000000 0.000000
-0.103052 1.590388 2.669612 0.000000 0.000000 0.000000
1.790787 0.600132 2.173177 0.000000 0.000000 0.000000
1.792714 0.596183 2.164717 0.000000 0.000000 0.000000
-0.106046 1.584055 2.668233 0.000000 0.000000 0.000000
-0.097996 1.592283 2.669138 0.000000 0.000000 0.000000
-0.103759 1.587223 2.668033 0.000000 0.000000 0.000000
-0.098940 1.588739 2.667383 0.000000 0.000000 0.000000
-0.105272 1.585685 2.668108 0.000000 0.000000 0.000000
-0.108056 1.582035 2.665520 0.000000 0.000000 0.000000
-0.110160 1.582742 2.666197 0.000000 0.000000 0.000000
-0.098367 1.591564 2.669704 0.000000 0.000000 0.000000
-0.102531 1.586940 2.665251 0.000000 0.000000 0.000000
-0.105775 1.582852 2.666973 0.000000 0.000000 0.000000
1.760859 0.575117 2.198848 0.000000 0.000000 0.000000
-0.098819 1.591748 2.669885 0.000000 0.000000 0.000000
-0.105279 1.584423 2.666872 0.000000 0.000000 0.000000
-0.102655 1.584440 2.666587 0.000000 0.000000 0.000000
-0.105387 1.585938 2.668097 0.000000 0.000000 0.000000
-0.092189 1.596046 2.666599 0.000000 0.000000 0.000000
-0.106225 1.587400 2.664460 0.000000 0.000000 0.000000
-0.111924 1.577926 2.666400 0.000000 0.000000 0.000000
-0.101581 1.585886 2.661998 0.000000 0.000000 0.000000
-0.101655 1.585781 2.662606 0.000000 0.000000 0.000000
1.769155 0.589388 2.169405 0.000000 0.000000 0.000000
-0.103829 1.589422 2.668038 0.000000 0.000000 0.000000
1.774854 0.590042 2.171037 0.000000 0.000000 0.000000
1.763340 0.583998 2.168225 0.000000 0.000000 0.000000
-0.098537 1.596204 2.672991 0.000000 0.000000 0.000000
1.774324 0.588524 2.171859 0.000000 0.000000 0.000000
1.767229 0.584784 2.170861 0.000000 0.000000 0.000000
-0.105230 1.586528 2.665549 0.000000 0.000000 0.000000
-0.101721 1.588026 2.668315 0.000000 0.000000 0.000000
-0.103114 1.589139 2.668319 0.000000 0.000000 0.000000
1.762491 0.572518 2.191322 0.000000 0.000000 0.000000
1.785274 0.571520 2.192071 0.000000 0.000000 0.000000
1.778299 0.578419 2.197370 0.000000 0.000000 0.000000
1.763619 0.582622 2.174077 0.000000 0.000000 0.000000
1.761180 0.580752 2.170240 0.000000 0.000000 0.000000
-0.100411 1.590230 2.667055 0.000000 0.000000 0.000000
-0.099709 1.589898 2.668491 0.000000 0.000000 0.000000
-0.110822 1.579142 2.667846 0.000000 0.000000 0.000000
-0.093633 1.592757 2.667292 0.000000 0.000000 0.000000
-0.099241 1.590453 2.669700 0.000000 0.000000 0.000000
-0.108326 1.580777 2.665053 0.000000 0.000000 0.000000
-0.103687 1.584833 2.664470 0.000000 0.000000 0.000000
1.795409 0.597736 2.172765 0.000000 0.000000 0.000000
1.799633 0.603817 2.177394 0.000000 0.000000 0.000000
1.777149 0.593879 2.169015 0.000000 0.000000 0.000000
1.790432 0.592742 2.178782 0.000000 0.000000 0.000000
1.782088 0.591687 2.167752 0.000000 0.000000 0.000000
-0.109357 1.582146 2.663891 0.000000 0.000000 0.000000
1.786765 0.605339 2.174520 0.000000 0.000000 0.000000
-0.114698 1.578718 2.670605 0.000000 0.000000 0.000000
1.791141 0.600865 2.182575 0.000000 0.000000 0.000000
1.791246 0.603161 2.181106 0.000000 0.000000 0.000000
-0.109421 1.582259 2.670626 0.000000 0.000000 0.000000
-0.095674 1.594659 2.671920 0.000000 0.000000 0.000000
-0.097487 1.592262 2.669424 0.000000 0.000000 0.000000
-0.101200 1.589439 2.670489 0.000000 0.000000 0.000000
-0.097942 1.593055 2.670839 0.000000 0.000000 0.000000
1.766141 0.571145 2.199926 0.000000 0.000000 0.000000
-0.098332 1.591939 2.669986 0.000000 0.000000 0.000000
-0.103598 1.591963 2.669194 0.000000 0.000000 0.000000
-0.096046 1.592232 2.667368 0.000000 0.000000 0.000000
-0.097744 1.590721 2.668633 0.000000 0.000000 0.000000
-0.097133 1.591944 2.670385 0.000000 0.000000 0.000000
-0.102535 1.587769 2.670907 0.000000 0.000000 0.000000
-0.104821 1.590508 2.669780 0.000000 0.000000 0.000000
-0.105132 1.586834 2.668667 0.000000 0.000000 0.000000
-0.101427 1.588902 2.667478 0.000000 0.000000 0.000000
-0.105970 1.587939 2.669107 0.000000 0.000000 0.000000
1.789847 0.607846 2.158933 0.000000 0.000000 0.000000
-0.102283 1.586280 2.667670 0.000000 0.000000 0.000000
-0.100576 1.589395 2.668760 0.000000 0.000000 0.000000
-0.099891 1.591293 2.669950 0.000000 0.000000 0.000000
1.780330 0.599279 2.164008 0.000000 0.000000 0.000000
1.781178 0.592073 2.163309 0.000000 0.000000 0.000000
1.774434 0.585962 2.165488 0.000000 0.000000 0.000000
1.781181 0.591841 2.170147 0.000000 0.000000 0.000000
1.786565 0.596210 2.164234 0.000000 0.000000 0.000000
-0.095970 1.593078 2.669362 0.000000 0.000000 0.000000
1.799252 0.616746 2.178810 0.000000 0.000000 0.000000
1.783501 0.600261 2.164302 0.000000 0.000000 0.000000
1.788602 0.560835 2.188881 0.000000 0.000000 0.000000
-0.098301 1.590927 2.667042 0.000000 0.000000 0.000000
-0.096531 1.592378 2.671311 0.000000 0.000000 0.000000
-0.095464 1.590641 2.670023 0.000000 0.000000 0.000000
-0.098312 1.595835 2.666558 0.000000 0.000000 0.000000
1.781910 0.566511 2.183486 0.000000 0.000000 0.000000
1.777144 0.570400 2.185954 0.000000 0.000000 0.000000
-0.108211 1.579535 2.665018 0.000000 0.000000 0.000000
-0.102034 1.586106 2.664938 0.000000 0.000000 0.000000
1.791428 0.571113 2.187395 0.000000 0.000000 0.000000
1.791447 0.614047 2.178468 0.000000 0.000000 0.000000
1.784965 0.598116 2.161790 0.000000 0.000000 0.000000
1.787281 0.593218 2.163152 0.000000 0.000000 0.000000
1.782403 0.596646 2.165991 0.000000 0.000000 0.000000
1.786655 0.606378 2.171186 0.000000 0.000000 0.000000
1.794677 0.608914 2.165609 0.000000 0.000000 0.000000
1.776481 0.604876 2.169757 0.000000 0.000000 0.000000
1.795075 0.606307 2.165600 0.000000 0.000000 0.000000
