ply
format ascii 1.0
comment VCGLIB generated
obj_info Generated by SPFormer!
element vertex 884
property float x
property float y
property float z
property float nx
property float ny
property float nz
end_header
1.570707 1.632021 0.684026 0.000000 0.000000 0.000000
1.319781 1.356773 0.516448 0.000000 0.000000 0.000000
1.302270 1.347832 0.508703 0.000000 0.000000 0.000000
1.299024 1.355427 0.492947 0.000000 0.000000 0.000000
1.389100 1.348076 0.488025 0.000000 0.000000 0.000000
1.344253 1.279312 0.489979 0.000000 0.000000 0.000000
1.393651 1.296486 0.592418 0.000000 0.000000 0.000000
1.290681 1.491396 0.319687 0.000000 0.000000 0.000000
1.497449 1.635550 0.457237 0.000000 0.000000 0.000000
1.509310 1.638587 0.496550 0.000000 0.000000 0.000000
1.335619 1.294581 0.473192 0.000000 0.000000 0.000000
1.298105 1.319690 0.507031 0.000000 0.000000 0.000000
1.565458 1.625244 0.707711 0.000000 0.000000 0.000000
1.497854 1.535787 0.888839 0.000000 0.000000 0.000000
1.500266 1.543047 0.882388 0.000000 0.000000 0.000000
1.511171 1.660302 0.608784 0.000000 0.000000 0.000000
1.566494 1.635781 0.724316 0.000000 0.000000 0.000000
1.577582 1.632892 0.694898 0.000000 0.000000 0.000000
1.475994 1.613129 0.417346 0.000000 0.000000 0.000000
1.485194 1.495507 0.932689 0.000000 0.000000 0.000000
1.580491 1.635898 0.687703 0.000000 0.000000 0.000000
1.549859 1.617802 0.745633 0.000000 0.000000 0.000000
1.515443 1.646641 0.514386 0.000000 0.000000 0.000000
1.496981 1.395398 0.848616 0.000000 0.000000 0.000000
1.494272 1.503927 0.941399 0.000000 0.000000 0.000000
1.523613 1.514272 0.787723 0.000000 0.000000 0.000000
1.578926 1.631446 0.695647 0.000000 0.000000 0.000000
1.522928 1.648247 0.536864 0.000000 0.000000 0.000000
1.489875 1.612272 0.474725 0.000000 0.000000 0.000000
1.492549 1.476792 0.919062 0.000000 0.000000 0.000000
1.494983 1.552316 0.880130 0.000000 0.000000 0.000000
1.305762 1.346045 0.501960 0.000000 0.000000 0.000000
1.490635 1.535925 0.900121 0.000000 0.000000 0.000000
1.294359 1.370814 0.483988 0.000000 0.000000 0.000000
1.479185 1.630302 0.433176 0.000000 0.000000 0.000000
1.478659 1.622360 0.433181 0.000000 0.000000 0.000000
1.483848 1.495183 0.941665 0.000000 0.000000 0.000000
1.481078 1.495337 0.947318 0.000000 0.000000 0.000000
1.497824 1.508858 0.926459 0.000000 0.000000 0.000000
1.474492 1.618757 0.421993 0.000000 0.000000 0.000000
1.475534 1.513971 0.963369 0.000000 0.000000 0.000000
1.303875 1.323629 0.510245 0.000000 0.000000 0.000000
1.503142 1.640739 0.468965 0.000000 0.000000 0.000000
1.435098 1.407157 0.533808 0.000000 0.000000 0.000000
1.517189 1.518134 0.847451 0.000000 0.000000 0.000000
1.476437 1.610005 0.463084 0.000000 0.000000 0.000000
1.482574 1.635791 0.442896 0.000000 0.000000 0.000000
1.504014 1.453730 0.687064 0.000000 0.000000 0.000000
1.477888 1.625215 0.426433 0.000000 0.000000 0.000000
1.286667 1.566011 0.341953 0.000000 0.000000 0.000000
1.461435 1.410230 0.583832 0.000000 0.000000 0.000000
1.491421 1.642059 0.456307 0.000000 0.000000 0.000000
1.515857 1.469710 0.745414 0.000000 0.000000 0.000000
1.392737 1.316928 0.555783 0.000000 0.000000 0.000000
1.332713 1.463147 0.343596 0.000000 0.000000 0.000000
1.475220 1.618481 0.416258 0.000000 0.000000 0.000000
1.440430 1.572797 0.399626 0.000000 0.000000 0.000000
1.482065 1.621499 0.443515 0.000000 0.000000 0.000000
1.477827 1.617637 0.438482 0.000000 0.000000 0.000000
1.477643 1.627057 0.435337 0.000000 0.000000 0.000000
1.501632 1.641659 0.465028 0.000000 0.000000 0.000000
1.475242 1.610145 0.440990 0.000000 0.000000 0.000000
1.485726 1.627262 0.449245 0.000000 0.000000 0.000000
1.483935 1.634655 0.448220 0.000000 0.000000 0.000000
1.479938 1.615767 0.455759 0.000000 0.000000 0.000000
1.500788 1.649742 0.473188 0.000000 0.000000 0.000000
1.528035 1.588295 0.817269 0.000000 0.000000 0.000000
1.331760 1.374386 0.506900 0.000000 0.000000 0.000000
1.525707 1.592120 0.833984 0.000000 0.000000 0.000000
1.304092 1.362340 0.508619 0.000000 0.000000 0.000000
1.417048 1.540293 0.368035 0.000000 0.000000 0.000000
1.471316 1.604845 0.413683 0.000000 0.000000 0.000000
1.491159 1.479995 0.922806 0.000000 0.000000 0.000000
1.500914 1.637854 0.466791 0.000000 0.000000 0.000000
1.582380 1.637525 0.689422 0.000000 0.000000 0.000000
1.566101 1.629236 0.699234 0.000000 0.000000 0.000000
1.512921 1.646210 0.506143 0.000000 0.000000 0.000000
1.494448 1.388922 0.848758 0.000000 0.000000 0.000000
1.492399 1.503666 0.930175 0.000000 0.000000 0.000000
1.575824 1.629837 0.699046 0.000000 0.000000 0.000000
1.523427 1.643466 0.541217 0.000000 0.000000 0.000000
1.455111 1.572514 0.450436 0.000000 0.000000 0.000000
1.498874 1.507030 0.935582 0.000000 0.000000 0.000000
1.489723 1.551021 0.896309 0.000000 0.000000 0.000000
1.486092 1.545745 0.889278 0.000000 0.000000 0.000000
1.303757 1.376833 0.480674 0.000000 0.000000 0.000000
1.474285 1.621934 0.422126 0.000000 0.000000 0.000000
1.455423 1.585240 0.423935 0.000000 0.000000 0.000000
1.473136 1.500054 0.947765 0.000000 0.000000 0.000000
1.489756 1.504074 0.942987 0.000000 0.000000 0.000000
1.471700 1.607839 0.420152 0.000000 0.000000 0.000000
1.487127 1.502253 0.952582 0.000000 0.000000 0.000000
1.503640 1.646740 0.470807 0.000000 0.000000 0.000000
1.526171 1.655402 0.505430 0.000000 0.000000 0.000000
1.511777 1.644344 0.501704 0.000000 0.000000 0.000000
1.422396 1.392651 0.515845 0.000000 0.000000 0.000000
1.514978 1.498534 0.831937 0.000000 0.000000 0.000000
1.498800 1.629217 0.488860 0.000000 0.000000 0.000000
1.474602 1.611708 0.423087 0.000000 0.000000 0.000000
1.484471 1.496696 0.561531 0.000000 0.000000 0.000000
1.476588 1.624009 0.426563 0.000000 0.000000 0.000000
1.488820 1.551890 0.884739 0.000000 0.000000 0.000000
1.428753 1.368512 0.563455 0.000000 0.000000 0.000000
1.489491 1.642198 0.455915 0.000000 0.000000 0.000000
1.524253 1.520393 0.788332 0.000000 0.000000 0.000000
1.424229 1.354090 0.565071 0.000000 0.000000 0.000000
1.354381 1.454297 0.379978 0.000000 0.000000 0.000000
1.499043 1.638723 0.464027 0.000000 0.000000 0.000000
1.444212 1.580670 0.392743 0.000000 0.000000 0.000000
1.480980 1.628582 0.432940 0.000000 0.000000 0.000000
1.468918 1.609323 0.432602 0.000000 0.000000 0.000000
1.484340 1.631497 0.447391 0.000000 0.000000 0.000000
1.503854 1.641529 0.470030 0.000000 0.000000 0.000000
1.491850 1.627030 0.472442 0.000000 0.000000 0.000000
1.484330 1.620071 0.453407 0.000000 0.000000 0.000000
1.494522 1.633368 0.468632 0.000000 0.000000 0.000000
1.362536 1.330157 0.512255 0.000000 0.000000 0.000000
1.500024 1.642019 0.458995 0.000000 0.000000 0.000000
1.528747 1.591665 0.824189 0.000000 0.000000 0.000000
1.327958 1.365948 0.517134 0.000000 0.000000 0.000000
1.525578 1.587337 0.837440 0.000000 0.000000 0.000000
1.302167 1.354545 0.511183 0.000000 0.000000 0.000000
1.409373 1.545867 0.374608 0.000000 0.000000 0.000000
1.472169 1.491250 0.941457 0.000000 0.000000 0.000000
1.466416 1.522014 0.971935 0.000000 0.000000 0.000000
1.544535 1.624217 0.761701 0.000000 0.000000 0.000000
1.532090 1.611429 0.778819 0.000000 0.000000 0.000000
1.500258 1.409338 0.871231 0.000000 0.000000 0.000000
1.389660 1.524178 0.363362 0.000000 0.000000 0.000000
1.359519 1.521049 0.319808 0.000000 0.000000 0.000000
1.378780 1.526157 0.339697 0.000000 0.000000 0.000000
1.542950 1.618036 0.755678 0.000000 0.000000 0.000000
1.490509 1.463099 0.925295 0.000000 0.000000 0.000000
1.541488 1.621054 0.763388 0.000000 0.000000 0.000000
1.387679 1.442373 0.423659 0.000000 0.000000 0.000000
1.408846 1.442088 0.459832 0.000000 0.000000 0.000000
1.390716 1.527064 0.363933 0.000000 0.000000 0.000000
1.345318 1.466111 0.377478 0.000000 0.000000 0.000000
1.364063 1.478727 0.342358 0.000000 0.000000 0.000000
1.306877 1.355890 0.493623 0.000000 0.000000 0.000000
1.347376 1.402704 0.385457 0.000000 0.000000 0.000000
1.320282 1.310155 0.474584 0.000000 0.000000 0.000000
1.338508 1.449805 0.360194 0.000000 0.000000 0.000000
1.304367 1.320589 0.519427 0.000000 0.000000 0.000000
1.468480 1.453934 0.557865 0.000000 0.000000 0.000000
1.340790 1.475459 0.324466 0.000000 0.000000 0.000000
1.378759 1.492482 0.344041 0.000000 0.000000 0.000000
1.399212 1.475602 0.393224 0.000000 0.000000 0.000000
1.494469 1.534873 0.898434 0.000000 0.000000 0.000000
1.397823 1.481444 0.404340 0.000000 0.000000 0.000000
1.421524 1.302501 0.654315 0.000000 0.000000 0.000000
1.375521 1.508487 0.335756 0.000000 0.000000 0.000000
1.355820 1.514457 0.317698 0.000000 0.000000 0.000000
1.384754 1.531086 0.340090 0.000000 0.000000 0.000000
1.535112 1.610318 0.767504 0.000000 0.000000 0.000000
1.493014 1.460776 0.926827 0.000000 0.000000 0.000000
1.258657 1.463168 0.269971 0.000000 0.000000 0.000000
1.263501 1.468781 0.274089 0.000000 0.000000 0.000000
1.390694 1.429349 0.442828 0.000000 0.000000 0.000000
1.404959 1.386548 0.491971 0.000000 0.000000 0.000000
1.360826 1.502958 0.316622 0.000000 0.000000 0.000000
1.288800 1.317212 0.501318 0.000000 0.000000 0.000000
1.291922 1.560897 0.338021 0.000000 0.000000 0.000000
1.400852 1.481169 0.413792 0.000000 0.000000 0.000000
1.382302 1.483794 0.374945 0.000000 0.000000 0.000000
1.401316 1.497720 0.376411 0.000000 0.000000 0.000000
1.306388 1.358608 0.507063 0.000000 0.000000 0.000000
1.403038 1.349743 0.530120 0.000000 0.000000 0.000000
1.414307 1.498310 0.426904 0.000000 0.000000 0.000000
1.301677 1.321099 0.521574 0.000000 0.000000 0.000000
1.383616 1.506226 0.353641 0.000000 0.000000 0.000000
1.456993 1.525613 0.969643 0.000000 0.000000 0.000000
1.487096 1.538933 0.885728 0.000000 0.000000 0.000000
1.486657 1.552560 0.877305 0.000000 0.000000 0.000000
1.462038 1.304872 0.713914 0.000000 0.000000 0.000000
1.367077 1.270776 0.582336 0.000000 0.000000 0.000000
1.477446 1.523259 0.968328 0.000000 0.000000 0.000000
1.503732 1.355548 0.820091 0.000000 0.000000 0.000000
1.464842 1.515911 0.958275 0.000000 0.000000 0.000000
1.539374 1.615367 0.775418 0.000000 0.000000 0.000000
1.529142 1.608824 0.785756 0.000000 0.000000 0.000000
1.368698 1.254613 0.589711 0.000000 0.000000 0.000000
1.507364 1.354778 0.813068 0.000000 0.000000 0.000000
1.398784 1.547034 0.347293 0.000000 0.000000 0.000000
1.546082 1.616783 0.651611 0.000000 0.000000 0.000000
1.348614 1.265591 0.530195 0.000000 0.000000 0.000000
1.366222 1.514142 0.322528 0.000000 0.000000 0.000000
1.400576 1.556427 0.359709 0.000000 0.000000 0.000000
1.468978 1.297958 0.727616 0.000000 0.000000 0.000000
1.496588 1.558260 0.885008 0.000000 0.000000 0.000000
1.338880 1.377563 0.494371 0.000000 0.000000 0.000000
1.345590 1.274736 0.536110 0.000000 0.000000 0.000000
1.374840 1.264896 0.591041 0.000000 0.000000 0.000000
1.407579 1.552768 0.352534 0.000000 0.000000 0.000000
1.530773 1.658064 0.638243 0.000000 0.000000 0.000000
1.342994 1.400732 0.485368 0.000000 0.000000 0.000000
1.381639 1.516798 0.323341 0.000000 0.000000 0.000000
1.375169 1.534405 0.331854 0.000000 0.000000 0.000000
1.460694 1.301298 0.709175 0.000000 0.000000 0.000000
1.527109 1.599556 0.807820 0.000000 0.000000 0.000000
1.493513 1.561232 0.888610 0.000000 0.000000 0.000000
1.530157 1.606363 0.801780 0.000000 0.000000 0.000000
1.360034 1.270629 0.525426 0.000000 0.000000 0.000000
1.347106 1.321604 0.508209 0.000000 0.000000 0.000000
1.300027 1.322805 0.514750 0.000000 0.000000 0.000000
1.479349 1.500994 0.950393 0.000000 0.000000 0.000000
1.527063 1.603732 0.793652 0.000000 0.000000 0.000000
1.308862 1.563940 0.344320 0.000000 0.000000 0.000000
1.419594 1.268265 0.664541 0.000000 0.000000 0.000000
1.478502 1.546423 0.914321 0.000000 0.000000 0.000000
1.398122 1.540152 0.343746 0.000000 0.000000 0.000000
1.503217 1.429930 0.868258 0.000000 0.000000 0.000000
1.463639 1.352472 0.687626 0.000000 0.000000 0.000000
1.503373 1.417131 0.878988 0.000000 0.000000 0.000000
1.446381 1.318663 0.674978 0.000000 0.000000 0.000000
1.316455 1.308938 0.497104 0.000000 0.000000 0.000000
1.509592 1.428571 0.895532 0.000000 0.000000 0.000000
1.498319 1.445843 0.900139 0.000000 0.000000 0.000000
1.305403 1.509186 0.317946 0.000000 0.000000 0.000000
1.291430 1.490469 0.295190 0.000000 0.000000 0.000000
1.266496 1.490603 0.287886 0.000000 0.000000 0.000000
1.276176 1.492164 0.303900 0.000000 0.000000 0.000000
1.433454 1.295730 0.663991 0.000000 0.000000 0.000000
1.305633 1.549734 0.334760 0.000000 0.000000 0.000000
1.477048 1.545593 0.918545 0.000000 0.000000 0.000000
1.406952 1.546566 0.354300 0.000000 0.000000 0.000000
1.470659 1.363541 0.707148 0.000000 0.000000 0.000000
1.497978 1.422139 0.878702 0.000000 0.000000 0.000000
1.507010 1.421297 0.888845 0.000000 0.000000 0.000000
1.270527 1.500354 0.294057 0.000000 0.000000 0.000000
1.276855 1.486169 0.305257 0.000000 0.000000 0.000000
1.502191 1.456455 0.890156 0.000000 0.000000 0.000000
1.520938 1.586712 0.845634 0.000000 0.000000 0.000000
1.309112 1.505239 0.328806 0.000000 0.000000 0.000000
1.275683 1.499451 0.296078 0.000000 0.000000 0.000000
1.291693 1.495326 0.304278 0.000000 0.000000 0.000000
1.384614 1.275060 0.609771 0.000000 0.000000 0.000000
1.536217 1.596663 0.762419 0.000000 0.000000 0.000000
1.540064 1.620810 0.768260 0.000000 0.000000 0.000000
1.533368 1.621586 0.770001 0.000000 0.000000 0.000000
1.477758 1.537897 0.940617 0.000000 0.000000 0.000000
1.316228 1.304568 0.491321 0.000000 0.000000 0.000000
1.287009 1.322246 0.492058 0.000000 0.000000 0.000000
1.383442 1.266799 0.629878 0.000000 0.000000 0.000000
1.506144 1.438024 0.907183 0.000000 0.000000 0.000000
1.295874 1.325820 0.514630 0.000000 0.000000 0.000000
1.325419 1.313608 0.496631 0.000000 0.000000 0.000000
1.486588 1.535522 0.941481 0.000000 0.000000 0.000000
1.502316 1.348072 0.789756 0.000000 0.000000 0.000000
1.462753 1.337239 0.702339 0.000000 0.000000 0.000000
1.498315 1.453029 0.918103 0.000000 0.000000 0.000000
1.502045 1.444086 0.907101 0.000000 0.000000 0.000000
1.348613 1.302690 0.463907 0.000000 0.000000 0.000000
1.465679 1.297452 0.719929 0.000000 0.000000 0.000000
1.387729 1.272775 0.636325 0.000000 0.000000 0.000000
1.311847 1.404920 0.309467 0.000000 0.000000 0.000000
1.356674 1.276390 0.552912 0.000000 0.000000 0.000000
1.382092 1.265265 0.614862 0.000000 0.000000 0.000000
1.400834 1.263190 0.654333 0.000000 0.000000 0.000000
1.293865 1.373079 0.497218 0.000000 0.000000 0.000000
1.502482 1.440614 0.893507 0.000000 0.000000 0.000000
1.310691 1.416635 0.320942 0.000000 0.000000 0.000000
1.319758 1.359141 0.516929 0.000000 0.000000 0.000000
1.315052 1.325330 0.519042 0.000000 0.000000 0.000000
1.351787 1.268673 0.510307 0.000000 0.000000 0.000000
1.510841 1.418613 0.893358 0.000000 0.000000 0.000000
1.502471 1.351345 0.808567 0.000000 0.000000 0.000000
1.452778 1.332058 0.685888 0.000000 0.000000 0.000000
1.495932 1.617157 0.496685 0.000000 0.000000 0.000000
1.421356 1.268723 0.658149 0.000000 0.000000 0.000000
1.502284 1.447971 0.897734 0.000000 0.000000 0.000000
1.465832 1.289543 0.715349 0.000000 0.000000 0.000000
1.306379 1.414205 0.308919 0.000000 0.000000 0.000000
1.358747 1.272074 0.541955 0.000000 0.000000 0.000000
1.380388 1.263212 0.614532 0.000000 0.000000 0.000000
1.405807 1.265223 0.652493 0.000000 0.000000 0.000000
1.504204 1.439990 0.907765 0.000000 0.000000 0.000000
1.351772 1.276549 0.526913 0.000000 0.000000 0.000000
1.294487 1.429683 0.300884 0.000000 0.000000 0.000000
1.355923 1.453111 0.389390 0.000000 0.000000 0.000000
1.317115 1.326247 0.531044 0.000000 0.000000 0.000000
1.345257 1.272545 0.541650 0.000000 0.000000 0.000000
1.504056 1.415982 0.880114 0.000000 0.000000 0.000000
1.314822 1.303370 0.509376 0.000000 0.000000 0.000000
1.468909 1.322873 0.729791 0.000000 0.000000 0.000000
1.463449 1.308663 0.733243 0.000000 0.000000 0.000000
1.542410 1.621897 0.765592 0.000000 0.000000 0.000000
1.479018 1.313218 0.753112 0.000000 0.000000 0.000000
1.530298 1.608538 0.781020 0.000000 0.000000 0.000000
1.312057 1.480692 0.290063 0.000000 0.000000 0.000000
1.312509 1.296648 0.509931 0.000000 0.000000 0.000000
1.315815 1.376413 0.499206 0.000000 0.000000 0.000000
1.423482 1.266370 0.660908 0.000000 0.000000 0.000000
1.512969 1.571236 0.851384 0.000000 0.000000 0.000000
1.527246 1.656032 0.632413 0.000000 0.000000 0.000000
1.330594 1.393792 0.387885 0.000000 0.000000 0.000000
1.546902 1.649502 0.651971 0.000000 0.000000 0.000000
1.332915 1.495638 0.304832 0.000000 0.000000 0.000000
1.308182 1.380895 0.493999 0.000000 0.000000 0.000000
1.431734 1.267380 0.665031 0.000000 0.000000 0.000000
1.513143 1.574475 0.847667 0.000000 0.000000 0.000000
1.539519 1.648969 0.644869 0.000000 0.000000 0.000000
1.327206 1.401303 0.357839 0.000000 0.000000 0.000000
1.305737 1.393733 0.485828 0.000000 0.000000 0.000000
1.316477 1.305213 0.500904 0.000000 0.000000 0.000000
1.545539 1.651754 0.640979 0.000000 0.000000 0.000000
1.273382 1.502536 0.297336 0.000000 0.000000 0.000000
1.300640 1.333806 0.521682 0.000000 0.000000 0.000000
1.318460 1.314641 0.517985 0.000000 0.000000 0.000000
1.324691 1.485459 0.299170 0.000000 0.000000 0.000000
1.365489 1.268641 0.577970 0.000000 0.000000 0.000000
1.378313 1.266780 0.614910 0.000000 0.000000 0.000000
1.502576 1.655277 0.590129 0.000000 0.000000 0.000000
1.543156 1.618901 0.772923 0.000000 0.000000 0.000000
1.492275 1.493399 0.914674 0.000000 0.000000 0.000000
1.359940 1.266404 0.586758 0.000000 0.000000 0.000000
1.501062 1.545100 0.892884 0.000000 0.000000 0.000000
1.382198 1.264536 0.622909 0.000000 0.000000 0.000000
1.498087 1.461051 0.904993 0.000000 0.000000 0.000000
1.486768 1.470426 0.920147 0.000000 0.000000 0.000000
1.416804 1.285321 0.648594 0.000000 0.000000 0.000000
1.483727 1.485456 0.924170 0.000000 0.000000 0.000000
1.411073 1.267565 0.657202 0.000000 0.000000 0.000000
1.294892 1.395326 0.471322 0.000000 0.000000 0.000000
1.299219 1.399556 0.477044 0.000000 0.000000 0.000000
1.467044 1.314035 0.740187 0.000000 0.000000 0.000000
1.480039 1.485990 0.938725 0.000000 0.000000 0.000000
1.472687 1.486297 0.937764 0.000000 0.000000 0.000000
1.388773 1.276593 0.617224 0.000000 0.000000 0.000000
1.370660 1.264808 0.612304 0.000000 0.000000 0.000000
1.466103 1.307137 0.725567 0.000000 0.000000 0.000000
1.389452 1.270887 0.645910 0.000000 0.000000 0.000000
1.495433 1.501870 0.919225 0.000000 0.000000 0.000000
1.371410 1.257920 0.602331 0.000000 0.000000 0.000000
1.378820 1.267340 0.609924 0.000000 0.000000 0.000000
1.479531 1.480349 0.930572 0.000000 0.000000 0.000000
1.468091 1.479539 0.932178 0.000000 0.000000 0.000000
1.346103 1.270592 0.524079 0.000000 0.000000 0.000000
1.491322 1.482875 0.929571 0.000000 0.000000 0.000000
1.392265 1.265832 0.649722 0.000000 0.000000 0.000000
1.491703 1.465073 0.921979 0.000000 0.000000 0.000000
1.498483 1.475913 0.890300 0.000000 0.000000 0.000000
1.394119 1.275037 0.640849 0.000000 0.000000 0.000000
1.480618 1.482426 0.926021 0.000000 0.000000 0.000000
1.436959 1.269158 0.662605 0.000000 0.000000 0.000000
1.482039 1.492433 0.941225 0.000000 0.000000 0.000000
1.504356 1.452337 0.919244 0.000000 0.000000 0.000000
1.461942 1.305536 0.735820 0.000000 0.000000 0.000000
1.480559 1.475510 0.932456 0.000000 0.000000 0.000000
1.378416 1.267262 0.597829 0.000000 0.000000 0.000000
1.396422 1.271432 0.647610 0.000000 0.000000 0.000000
1.477829 1.480806 0.933243 0.000000 0.000000 0.000000
1.401459 1.273202 0.654941 0.000000 0.000000 0.000000
1.376871 1.260607 0.611823 0.000000 0.000000 0.000000
1.374843 1.273631 0.598928 0.000000 0.000000 0.000000
1.481816 1.479188 0.927200 0.000000 0.000000 0.000000
1.468547 1.477141 0.928979 0.000000 0.000000 0.000000
1.345901 1.269347 0.548833 0.000000 0.000000 0.000000
1.478677 1.486973 0.939040 0.000000 0.000000 0.000000
1.394326 1.268235 0.647925 0.000000 0.000000 0.000000
1.484638 1.492777 0.938046 0.000000 0.000000 0.000000
1.455752 1.294331 0.696589 0.000000 0.000000 0.000000
1.484620 1.318174 0.763032 0.000000 0.000000 0.000000
1.479512 1.318664 0.763785 0.000000 0.000000 0.000000
1.497108 1.324691 0.779955 0.000000 0.000000 0.000000
1.485847 1.556043 0.888599 0.000000 0.000000 0.000000
1.492648 1.315812 0.771604 0.000000 0.000000 0.000000
1.528149 1.603796 0.797832 0.000000 0.000000 0.000000
1.493926 1.318320 0.773540 0.000000 0.000000 0.000000
1.482622 1.317036 0.766124 0.000000 0.000000 0.000000
1.482032 1.542553 0.876568 0.000000 0.000000 0.000000
1.377201 1.263061 0.624704 0.000000 0.000000 0.000000
1.487514 1.551088 0.868674 0.000000 0.000000 0.000000
1.313016 1.323883 0.538068 0.000000 0.000000 0.000000
1.388913 1.530489 0.333221 0.000000 0.000000 0.000000
1.458862 1.451220 0.533824 0.000000 0.000000 0.000000
1.379822 1.270886 0.621209 0.000000 0.000000 0.000000
1.378131 1.266078 0.616903 0.000000 0.000000 0.000000
1.488991 1.548695 0.872585 0.000000 0.000000 0.000000
1.318780 1.315127 0.529537 0.000000 0.000000 0.000000
1.442043 1.451704 0.516538 0.000000 0.000000 0.000000
1.373606 1.266180 0.615370 0.000000 0.000000 0.000000
1.371808 1.265579 0.608496 0.000000 0.000000 0.000000
1.322943 1.307567 0.486696 0.000000 0.000000 0.000000
1.308250 1.308651 0.495151 0.000000 0.000000 0.000000
1.319534 1.308814 0.509573 0.000000 0.000000 0.000000
1.478604 1.546152 0.923261 0.000000 0.000000 0.000000
1.557661 1.625664 0.732696 0.000000 0.000000 0.000000
1.493672 1.563149 0.866330 0.000000 0.000000 0.000000
1.532061 1.611923 0.782542 0.000000 0.000000 0.000000
1.558018 1.623866 0.753100 0.000000 0.000000 0.000000
1.285979 1.374559 0.483580 0.000000 0.000000 0.000000
1.500852 1.566995 0.871776 0.000000 0.000000 0.000000
1.313157 1.351799 0.513289 0.000000 0.000000 0.000000
1.325031 1.331589 0.502621 0.000000 0.000000 0.000000
1.531997 1.612321 0.793548 0.000000 0.000000 0.000000
1.286623 1.390333 0.478620 0.000000 0.000000 0.000000
1.301036 1.340788 0.511544 0.000000 0.000000 0.000000
1.498073 1.537503 0.920368 0.000000 0.000000 0.000000
1.290714 1.579626 0.343870 0.000000 0.000000 0.000000
1.547730 1.621171 0.749895 0.000000 0.000000 0.000000
1.557837 1.626422 0.741338 0.000000 0.000000 0.000000
1.538111 1.612781 0.792272 0.000000 0.000000 0.000000
1.552572 1.624740 0.756078 0.000000 0.000000 0.000000
1.463030 1.504734 0.949155 0.000000 0.000000 0.000000
1.282253 1.383452 0.485325 0.000000 0.000000 0.000000
1.497119 1.561235 0.871937 0.000000 0.000000 0.000000
1.352546 1.328716 0.513241 0.000000 0.000000 0.000000
1.320152 1.320984 0.507112 0.000000 0.000000 0.000000
1.538325 1.618071 0.771413 0.000000 0.000000 0.000000
1.282590 1.385516 0.481221 0.000000 0.000000 0.000000
1.291716 1.348290 0.506370 0.000000 0.000000 0.000000
1.364174 1.264107 0.592792 0.000000 0.000000 0.000000
1.466917 1.307437 0.744066 0.000000 0.000000 0.000000
1.384163 1.267015 0.635097 0.000000 0.000000 0.000000
1.465702 1.290015 0.714965 0.000000 0.000000 0.000000
1.502247 1.415783 0.878053 0.000000 0.000000 0.000000
1.362280 1.262286 0.593648 0.000000 0.000000 0.000000
1.484706 1.383444 0.836913 0.000000 0.000000 0.000000
1.467445 1.289838 0.714916 0.000000 0.000000 0.000000
1.373341 1.259511 0.593164 0.000000 0.000000 0.000000
1.492923 1.392644 0.829665 0.000000 0.000000 0.000000
1.517490 1.627195 0.561350 0.000000 0.000000 0.000000
1.298172 1.328933 0.511550 0.000000 0.000000 0.000000
1.514881 1.634799 0.574691 0.000000 0.000000 0.000000
1.529154 1.629668 0.570678 0.000000 0.000000 0.000000
1.345974 1.262700 0.552734 0.000000 0.000000 0.000000
1.373399 1.265642 0.592994 0.000000 0.000000 0.000000
1.523145 1.571615 0.832378 0.000000 0.000000 0.000000
1.347646 1.264973 0.516443 0.000000 0.000000 0.000000
1.389932 1.464483 0.418126 0.000000 0.000000 0.000000
1.369857 1.264309 0.615093 0.000000 0.000000 0.000000
1.363543 1.262533 0.581993 0.000000 0.000000 0.000000
1.393686 1.275708 0.630051 0.000000 0.000000 0.000000
1.494192 1.382284 0.835227 0.000000 0.000000 0.000000
1.393929 1.264126 0.631817 0.000000 0.000000 0.000000
1.308283 1.404047 0.475323 0.000000 0.000000 0.000000
1.380543 1.271492 0.612896 0.000000 0.000000 0.000000
1.345247 1.266321 0.541527 0.000000 0.000000 0.000000
1.378136 1.258449 0.603350 0.000000 0.000000 0.000000
1.522644 1.627837 0.581518 0.000000 0.000000 0.000000
1.306667 1.330616 0.513675 0.000000 0.000000 0.000000
1.524893 1.634855 0.580982 0.000000 0.000000 0.000000
1.521568 1.635548 0.592898 0.000000 0.000000 0.000000
1.355714 1.260610 0.560764 0.000000 0.000000 0.000000
1.498104 1.381064 0.842551 0.000000 0.000000 0.000000
1.524503 1.576625 0.824720 0.000000 0.000000 0.000000
1.351178 1.272307 0.512877 0.000000 0.000000 0.000000
1.507490 1.416490 0.886126 0.000000 0.000000 0.000000
1.369829 1.266218 0.603119 0.000000 0.000000 0.000000
1.363497 1.261493 0.588485 0.000000 0.000000 0.000000
1.410172 1.281441 0.645853 0.000000 0.000000 0.000000
1.497423 1.384835 0.833529 0.000000 0.000000 0.000000
1.377528 1.257716 0.624804 0.000000 0.000000 0.000000
1.318356 1.406191 0.458004 0.000000 0.000000 0.000000
1.383442 1.268389 0.623205 0.000000 0.000000 0.000000
1.339526 1.269007 0.534608 0.000000 0.000000 0.000000
1.369688 1.263051 0.596411 0.000000 0.000000 0.000000
1.314742 1.401495 0.474068 0.000000 0.000000 0.000000
1.475963 1.318220 0.745460 0.000000 0.000000 0.000000
1.469085 1.297283 0.723482 0.000000 0.000000 0.000000
1.484120 1.316762 0.765348 0.000000 0.000000 0.000000
1.482157 1.320854 0.767401 0.000000 0.000000 0.000000
1.468204 1.298522 0.728995 0.000000 0.000000 0.000000
1.469967 1.312094 0.749111 0.000000 0.000000 0.000000
1.540922 1.619930 0.763112 0.000000 0.000000 0.000000
1.467391 1.288878 0.710726 0.000000 0.000000 0.000000
1.491370 1.459229 0.920647 0.000000 0.000000 0.000000
1.455302 1.287328 0.694839 0.000000 0.000000 0.000000
1.426945 1.283373 0.662136 0.000000 0.000000 0.000000
1.493951 1.333943 0.776874 0.000000 0.000000 0.000000
1.464431 1.289874 0.707246 0.000000 0.000000 0.000000
1.453124 1.295823 0.691131 0.000000 0.000000 0.000000
1.290189 1.332633 0.493729 0.000000 0.000000 0.000000
1.474434 1.292920 0.724281 0.000000 0.000000 0.000000
1.286935 1.315310 0.482780 0.000000 0.000000 0.000000
1.307981 1.300451 0.511716 0.000000 0.000000 0.000000
1.312784 1.291730 0.507190 0.000000 0.000000 0.000000
1.423779 1.270014 0.664973 0.000000 0.000000 0.000000
1.437420 1.272576 0.668555 0.000000 0.000000 0.000000
1.485942 1.316496 0.768305 0.000000 0.000000 0.000000
1.483037 1.317785 0.763324 0.000000 0.000000 0.000000
1.293358 1.326451 0.495167 0.000000 0.000000 0.000000
1.468174 1.291295 0.716137 0.000000 0.000000 0.000000
1.467440 1.297624 0.726834 0.000000 0.000000 0.000000
1.484183 1.325965 0.763939 0.000000 0.000000 0.000000
1.472169 1.318365 0.753078 0.000000 0.000000 0.000000
1.466886 1.305959 0.744306 0.000000 0.000000 0.000000
1.433551 1.267525 0.671323 0.000000 0.000000 0.000000
1.540509 1.622126 0.766745 0.000000 0.000000 0.000000
1.433214 1.288073 0.663799 0.000000 0.000000 0.000000
1.406180 1.297979 0.626637 0.000000 0.000000 0.000000
1.438626 1.277707 0.669612 0.000000 0.000000 0.000000
1.424199 1.279340 0.661749 0.000000 0.000000 0.000000
1.290094 1.455502 0.319879 0.000000 0.000000 0.000000
1.447878 1.278575 0.677781 0.000000 0.000000 0.000000
1.488210 1.318253 0.771028 0.000000 0.000000 0.000000
1.480616 1.313387 0.758547 0.000000 0.000000 0.000000
1.492995 1.335165 0.781576 0.000000 0.000000 0.000000
1.487478 1.322598 0.770053 0.000000 0.000000 0.000000
1.490375 1.456692 0.923138 0.000000 0.000000 0.000000
1.417318 1.264010 0.666622 0.000000 0.000000 0.000000
1.426896 1.274916 0.665575 0.000000 0.000000 0.000000
1.291388 1.370091 0.492961 0.000000 0.000000 0.000000
1.475501 1.502272 0.945273 0.000000 0.000000 0.000000
1.481550 1.481510 0.939314 0.000000 0.000000 0.000000
1.544492 1.623185 0.758103 0.000000 0.000000 0.000000
1.483348 1.323382 0.764844 0.000000 0.000000 0.000000
1.470232 1.310669 0.747414 0.000000 0.000000 0.000000
1.465303 1.314391 0.745232 0.000000 0.000000 0.000000
1.434138 1.273108 0.667680 0.000000 0.000000 0.000000
1.407731 1.273750 0.653615 0.000000 0.000000 0.000000
1.503435 1.633719 0.492965 0.000000 0.000000 0.000000
1.550088 1.624098 0.752367 0.000000 0.000000 0.000000
1.446201 1.278571 0.677325 0.000000 0.000000 0.000000
1.405174 1.296727 0.625772 0.000000 0.000000 0.000000
1.434971 1.284908 0.665749 0.000000 0.000000 0.000000
1.419980 1.271817 0.661046 0.000000 0.000000 0.000000
1.442879 1.283326 0.675813 0.000000 0.000000 0.000000
1.499342 1.326510 0.781614 0.000000 0.000000 0.000000
1.484842 1.314511 0.764592 0.000000 0.000000 0.000000
1.499991 1.327403 0.782563 0.000000 0.000000 0.000000
1.488568 1.324165 0.774499 0.000000 0.000000 0.000000
1.495570 1.449993 0.915905 0.000000 0.000000 0.000000
1.418072 1.263577 0.663604 0.000000 0.000000 0.000000
1.434983 1.272413 0.673762 0.000000 0.000000 0.000000
1.474274 1.489844 0.940474 0.000000 0.000000 0.000000
1.488792 1.474029 0.933721 0.000000 0.000000 0.000000
1.295025 1.334887 0.506986 0.000000 0.000000 0.000000
1.550527 1.625953 0.751933 0.000000 0.000000 0.000000
1.405774 1.265947 0.657599 0.000000 0.000000 0.000000
1.513319 1.659342 0.591544 0.000000 0.000000 0.000000
1.502813 1.345994 0.797291 0.000000 0.000000 0.000000
1.511547 1.659116 0.592623 0.000000 0.000000 0.000000
1.513067 1.659309 0.585466 0.000000 0.000000 0.000000
1.499293 1.359307 0.818050 0.000000 0.000000 0.000000
1.527661 1.658734 0.627422 0.000000 0.000000 0.000000
1.420116 1.265821 0.654581 0.000000 0.000000 0.000000
1.416455 1.264194 0.662744 0.000000 0.000000 0.000000
1.503279 1.355633 0.818623 0.000000 0.000000 0.000000
1.496076 1.362926 0.787241 0.000000 0.000000 0.000000
1.405821 1.275800 0.654070 0.000000 0.000000 0.000000
1.509529 1.659936 0.600562 0.000000 0.000000 0.000000
1.476384 1.362279 0.761515 0.000000 0.000000 0.000000
1.498394 1.395670 0.779964 0.000000 0.000000 0.000000
1.508687 1.646923 0.574900 0.000000 0.000000 0.000000
1.325714 1.396432 0.479752 0.000000 0.000000 0.000000
1.324575 1.390936 0.492877 0.000000 0.000000 0.000000
1.407559 1.262409 0.655587 0.000000 0.000000 0.000000
1.483956 1.382861 0.731756 0.000000 0.000000 0.000000
1.499683 1.376609 0.803969 0.000000 0.000000 0.000000
1.501970 1.343792 0.793879 0.000000 0.000000 0.000000
1.507496 1.352859 0.818310 0.000000 0.000000 0.000000
1.508793 1.340405 0.796728 0.000000 0.000000 0.000000
1.486013 1.338350 0.767325 0.000000 0.000000 0.000000
1.347375 1.292075 0.488584 0.000000 0.000000 0.000000
1.508340 1.347425 0.811286 0.000000 0.000000 0.000000
1.449541 1.460162 0.507836 0.000000 0.000000 0.000000
1.492374 1.358429 0.776073 0.000000 0.000000 0.000000
1.333241 1.293830 0.477740 0.000000 0.000000 0.000000
1.412502 1.273089 0.660096 0.000000 0.000000 0.000000
1.330714 1.351069 0.374253 0.000000 0.000000 0.000000
1.324100 1.359051 0.371225 0.000000 0.000000 0.000000
1.350863 1.323254 0.471904 0.000000 0.000000 0.000000
1.579340 1.636572 0.695477 0.000000 0.000000 0.000000
1.351223 1.330950 0.493348 0.000000 0.000000 0.000000
1.539791 1.653880 0.640903 0.000000 0.000000 0.000000
1.425655 1.271034 0.665312 0.000000 0.000000 0.000000
1.412755 1.267786 0.664096 0.000000 0.000000 0.000000
1.399027 1.272627 0.655828 0.000000 0.000000 0.000000
1.509080 1.346761 0.801369 0.000000 0.000000 0.000000
1.486793 1.364581 0.749675 0.000000 0.000000 0.000000
1.511645 1.652405 0.595794 0.000000 0.000000 0.000000
1.507690 1.343085 0.807150 0.000000 0.000000 0.000000
1.508066 1.341935 0.799270 0.000000 0.000000 0.000000
1.479615 1.360365 0.746847 0.000000 0.000000 0.000000
1.488600 1.368792 0.763448 0.000000 0.000000 0.000000
1.509250 1.651496 0.566887 0.000000 0.000000 0.000000
1.329490 1.402035 0.470534 0.000000 0.000000 0.000000
1.330198 1.395312 0.477618 0.000000 0.000000 0.000000
1.335953 1.388845 0.488438 0.000000 0.000000 0.000000
1.518562 1.663944 0.592922 0.000000 0.000000 0.000000
1.431618 1.261209 0.664432 0.000000 0.000000 0.000000
1.506779 1.348240 0.812682 0.000000 0.000000 0.000000
1.449555 1.283833 0.681882 0.000000 0.000000 0.000000
1.503494 1.346177 0.800061 0.000000 0.000000 0.000000
1.485752 1.371916 0.741093 0.000000 0.000000 0.000000
1.496439 1.343576 0.780734 0.000000 0.000000 0.000000
1.503198 1.344092 0.804842 0.000000 0.000000 0.000000
1.505971 1.357870 0.827374 0.000000 0.000000 0.000000
1.510154 1.351459 0.808545 0.000000 0.000000 0.000000
1.500767 1.356775 0.800160 0.000000 0.000000 0.000000
1.350075 1.283131 0.488423 0.000000 0.000000 0.000000
1.508657 1.342796 0.804395 0.000000 0.000000 0.000000
1.509080 1.347376 0.811037 0.000000 0.000000 0.000000
1.494403 1.397421 0.763926 0.000000 0.000000 0.000000
1.482104 1.368141 0.750131 0.000000 0.000000 0.000000
1.342837 1.293774 0.482634 0.000000 0.000000 0.000000
1.422652 1.280759 0.655697 0.000000 0.000000 0.000000
1.468443 1.506573 0.951686 0.000000 0.000000 0.000000
1.331678 1.373096 0.364938 0.000000 0.000000 0.000000
1.348406 1.313814 0.467196 0.000000 0.000000 0.000000
1.579691 1.636736 0.701744 0.000000 0.000000 0.000000
1.342589 1.320236 0.485724 0.000000 0.000000 0.000000
1.530232 1.658080 0.634421 0.000000 0.000000 0.000000
1.419494 1.270995 0.667642 0.000000 0.000000 0.000000
1.425664 1.275053 0.664397 0.000000 0.000000 0.000000
1.392953 1.271506 0.653408 0.000000 0.000000 0.000000
1.500432 1.330629 0.786976 0.000000 0.000000 0.000000
1.513182 1.656560 0.610750 0.000000 0.000000 0.000000
1.463087 1.525833 0.967563 0.000000 0.000000 0.000000
1.505722 1.340120 0.797976 0.000000 0.000000 0.000000
1.463132 1.524675 0.967961 0.000000 0.000000 0.000000
1.478859 1.529556 0.948282 0.000000 0.000000 0.000000
1.493733 1.541546 0.932832 0.000000 0.000000 0.000000
1.501843 1.404777 0.870122 0.000000 0.000000 0.000000
1.511692 1.652491 0.606193 0.000000 0.000000 0.000000
1.458833 1.522527 0.965174 0.000000 0.000000 0.000000
1.278656 1.498331 0.308041 0.000000 0.000000 0.000000
1.430881 1.294779 0.664330 0.000000 0.000000 0.000000
1.407252 1.264372 0.662245 0.000000 0.000000 0.000000
1.507263 1.337525 0.789766 0.000000 0.000000 0.000000
1.521721 1.650171 0.622197 0.000000 0.000000 0.000000
1.450586 1.301852 0.688547 0.000000 0.000000 0.000000
1.508041 1.339836 0.792572 0.000000 0.000000 0.000000
1.485161 1.536133 0.937531 0.000000 0.000000 0.000000
1.503608 1.350097 0.801255 0.000000 0.000000 0.000000
1.507297 1.341356 0.788757 0.000000 0.000000 0.000000
1.340910 1.588657 0.343602 0.000000 0.000000 0.000000
1.518643 1.651399 0.620877 0.000000 0.000000 0.000000
1.519341 1.663297 0.578839 0.000000 0.000000 0.000000
1.494548 1.543231 0.939173 0.000000 0.000000 0.000000
1.557897 1.636596 0.654524 0.000000 0.000000 0.000000
1.419132 1.533142 0.382938 0.000000 0.000000 0.000000
1.500774 1.392238 0.824198 0.000000 0.000000 0.000000
1.496205 1.350618 0.784327 0.000000 0.000000 0.000000
1.484057 1.547951 0.942613 0.000000 0.000000 0.000000
1.441190 1.298534 0.672283 0.000000 0.000000 0.000000
1.494380 1.320321 0.775367 0.000000 0.000000 0.000000
1.447355 1.311103 0.679625 0.000000 0.000000 0.000000
1.491702 1.536749 0.940484 0.000000 0.000000 0.000000
1.504296 1.332054 0.787010 0.000000 0.000000 0.000000
1.289515 1.331445 0.510011 0.000000 0.000000 0.000000
1.528086 1.652972 0.563556 0.000000 0.000000 0.000000
1.496012 1.443885 0.896825 0.000000 0.000000 0.000000
1.525251 1.655851 0.565052 0.000000 0.000000 0.000000
1.359237 1.376643 0.362795 0.000000 0.000000 0.000000
1.316400 1.334627 0.542405 0.000000 0.000000 0.000000
1.496748 1.408570 0.792116 0.000000 0.000000 0.000000
1.500335 1.370329 0.798844 0.000000 0.000000 0.000000
1.519836 1.655049 0.567942 0.000000 0.000000 0.000000
1.338087 1.375326 0.497306 0.000000 0.000000 0.000000
1.455721 1.338454 0.677988 0.000000 0.000000 0.000000
1.277374 1.480838 0.314113 0.000000 0.000000 0.000000
1.446364 1.302299 0.682028 0.000000 0.000000 0.000000
1.436626 1.307846 0.668232 0.000000 0.000000 0.000000
1.485663 1.535766 0.938729 0.000000 0.000000 0.000000
1.522197 1.653285 0.500712 0.000000 0.000000 0.000000
1.447996 1.275994 0.678477 0.000000 0.000000 0.000000
1.508954 1.336838 0.801374 0.000000 0.000000 0.000000
1.503718 1.335304 0.791856 0.000000 0.000000 0.000000
1.466777 1.281107 0.695173 0.000000 0.000000 0.000000
1.499139 1.345678 0.785155 0.000000 0.000000 0.000000
1.508890 1.347591 0.806078 0.000000 0.000000 0.000000
1.517068 1.651837 0.613253 0.000000 0.000000 0.000000
1.452292 1.287935 0.688959 0.000000 0.000000 0.000000
1.502728 1.334884 0.782941 0.000000 0.000000 0.000000
1.481116 1.533318 0.944344 0.000000 0.000000 0.000000
1.501348 1.345166 0.793542 0.000000 0.000000 0.000000
1.507897 1.340514 0.792485 0.000000 0.000000 0.000000
1.527974 1.645605 0.624150 0.000000 0.000000 0.000000
1.528840 1.658681 0.563629 0.000000 0.000000 0.000000
1.517877 1.658497 0.615307 0.000000 0.000000 0.000000
1.534718 1.646714 0.629405 0.000000 0.000000 0.000000
1.420732 1.545426 0.381047 0.000000 0.000000 0.000000
1.498745 1.371867 0.815985 0.000000 0.000000 0.000000
1.503973 1.358124 0.807899 0.000000 0.000000 0.000000
1.474914 1.549858 0.946943 0.000000 0.000000 0.000000
1.452026 1.288666 0.688703 0.000000 0.000000 0.000000
1.502263 1.330070 0.785210 0.000000 0.000000 0.000000
1.451484 1.295089 0.688065 0.000000 0.000000 0.000000
1.493011 1.531398 0.939885 0.000000 0.000000 0.000000
1.502295 1.328040 0.783032 0.000000 0.000000 0.000000
1.286125 1.334058 0.502214 0.000000 0.000000 0.000000
1.527991 1.653588 0.557749 0.000000 0.000000 0.000000
1.495300 1.445646 0.907739 0.000000 0.000000 0.000000
1.521327 1.659774 0.573843 0.000000 0.000000 0.000000
1.354945 1.373722 0.356445 0.000000 0.000000 0.000000
1.316597 1.334677 0.548311 0.000000 0.000000 0.000000
1.494282 1.401013 0.785141 0.000000 0.000000 0.000000
1.504181 1.437695 0.798102 0.000000 0.000000 0.000000
1.337131 1.383308 0.493736 0.000000 0.000000 0.000000
1.463932 1.335113 0.703658 0.000000 0.000000 0.000000
1.271520 1.484142 0.301224 0.000000 0.000000 0.000000
1.437786 1.299963 0.672850 0.000000 0.000000 0.000000
1.439688 1.311077 0.664454 0.000000 0.000000 0.000000
1.479408 1.536724 0.937566 0.000000 0.000000 0.000000
1.493074 1.530002 0.947670 0.000000 0.000000 0.000000
1.521596 1.655369 0.510798 0.000000 0.000000 0.000000
1.439645 1.273227 0.671043 0.000000 0.000000 0.000000
1.504961 1.324668 0.787443 0.000000 0.000000 0.000000
1.504935 1.333469 0.792574 0.000000 0.000000 0.000000
1.455846 1.279478 0.688665 0.000000 0.000000 0.000000
1.505879 1.342233 0.803523 0.000000 0.000000 0.000000
1.504727 1.348707 0.813242 0.000000 0.000000 0.000000
1.346959 1.274923 0.480054 0.000000 0.000000 0.000000
1.485292 1.384145 0.846656 0.000000 0.000000 0.000000
1.498778 1.379236 0.840808 0.000000 0.000000 0.000000
1.459425 1.518965 0.968764 0.000000 0.000000 0.000000
1.467009 1.501482 0.946531 0.000000 0.000000 0.000000
1.467025 1.518517 0.960075 0.000000 0.000000 0.000000
1.308059 1.340550 0.548166 0.000000 0.000000 0.000000
1.523803 1.654391 0.512376 0.000000 0.000000 0.000000
1.475124 1.509772 0.949771 0.000000 0.000000 0.000000
1.474861 1.512350 0.955552 0.000000 0.000000 0.000000
1.467821 1.514817 0.959359 0.000000 0.000000 0.000000
1.355131 1.287209 0.486637 0.000000 0.000000 0.000000
1.338815 1.287541 0.462230 0.000000 0.000000 0.000000
1.347895 1.504617 0.318168 0.000000 0.000000 0.000000
1.504225 1.355561 0.823855 0.000000 0.000000 0.000000
1.326900 1.483712 0.308735 0.000000 0.000000 0.000000
1.334672 1.302005 0.447486 0.000000 0.000000 0.000000
1.474303 1.495346 0.945767 0.000000 0.000000 0.000000
1.374194 1.262367 0.606500 0.000000 0.000000 0.000000
1.495407 1.380821 0.845753 0.000000 0.000000 0.000000
1.346162 1.481004 0.300155 0.000000 0.000000 0.000000
1.473066 1.519962 0.959470 0.000000 0.000000 0.000000
1.381234 1.455267 0.408848 0.000000 0.000000 0.000000
1.475925 1.514350 0.956983 0.000000 0.000000 0.000000
1.471323 1.514408 0.961128 0.000000 0.000000 0.000000
1.467255 1.510483 0.955691 0.000000 0.000000 0.000000
1.345379 1.282344 0.480513 0.000000 0.000000 0.000000
1.343458 1.487819 0.318423 0.000000 0.000000 0.000000
1.503030 1.360886 0.828723 0.000000 0.000000 0.000000
1.326672 1.490540 0.299482 0.000000 0.000000 0.000000
1.339196 1.286891 0.467637 0.000000 0.000000 0.000000
1.472173 1.495641 0.946595 0.000000 0.000000 0.000000
1.366960 1.263296 0.598985 0.000000 0.000000 0.000000
1.499626 1.374101 0.839947 0.000000 0.000000 0.000000
1.522929 1.655332 0.515671 0.000000 0.000000 0.000000
1.467855 1.508415 0.955893 0.000000 0.000000 0.000000
1.500639 1.326505 0.783664 0.000000 0.000000 0.000000
1.501803 1.340710 0.793225 0.000000 0.000000 0.000000
1.504239 1.356590 0.823124 0.000000 0.000000 0.000000
1.459888 1.316946 0.705185 0.000000 0.000000 0.000000
1.464173 1.283763 0.702400 0.000000 0.000000 0.000000
1.503665 1.351400 0.812791 0.000000 0.000000 0.000000
1.503351 1.365044 0.820971 0.000000 0.000000 0.000000
1.465620 1.521775 0.965727 0.000000 0.000000 0.000000
1.572881 1.631993 0.707042 0.000000 0.000000 0.000000
1.334077 1.351910 0.382848 0.000000 0.000000 0.000000
1.342498 1.303580 0.435470 0.000000 0.000000 0.000000
1.498481 1.440639 0.901561 0.000000 0.000000 0.000000
1.326485 1.344457 0.391535 0.000000 0.000000 0.000000
1.515743 1.580989 0.856626 0.000000 0.000000 0.000000
1.339247 1.305565 0.447120 0.000000 0.000000 0.000000
1.519810 1.578419 0.844470 0.000000 0.000000 0.000000
1.502975 1.361801 0.828015 0.000000 0.000000 0.000000
1.328339 1.383821 0.334726 0.000000 0.000000 0.000000
1.326401 1.315644 0.427097 0.000000 0.000000 0.000000
1.334231 1.385801 0.350051 0.000000 0.000000 0.000000
1.311095 1.502681 0.328500 0.000000 0.000000 0.000000
1.341566 1.299085 0.454502 0.000000 0.000000 0.000000
1.335709 1.301412 0.447187 0.000000 0.000000 0.000000
1.515915 1.584365 0.850685 0.000000 0.000000 0.000000
1.293470 1.504822 0.316097 0.000000 0.000000 0.000000
1.517231 1.577325 0.853780 0.000000 0.000000 0.000000
1.283164 1.500229 0.301198 0.000000 0.000000 0.000000
1.497093 1.451018 0.919789 0.000000 0.000000 0.000000
1.331313 1.376967 0.348700 0.000000 0.000000 0.000000
1.283157 1.477084 0.304693 0.000000 0.000000 0.000000
1.565620 1.627745 0.715758 0.000000 0.000000 0.000000
1.330545 1.365935 0.365069 0.000000 0.000000 0.000000
1.491292 1.450817 0.913153 0.000000 0.000000 0.000000
1.329012 1.358422 0.376367 0.000000 0.000000 0.000000
1.520554 1.574808 0.850857 0.000000 0.000000 0.000000
1.342461 1.309278 0.442805 0.000000 0.000000 0.000000
1.519067 1.581817 0.847249 0.000000 0.000000 0.000000
1.505346 1.352232 0.817145 0.000000 0.000000 0.000000
1.336149 1.316377 0.448334 0.000000 0.000000 0.000000
1.321831 1.402918 0.328680 0.000000 0.000000 0.000000
1.291257 1.501990 0.310916 0.000000 0.000000 0.000000
1.347049 1.296975 0.458626 0.000000 0.000000 0.000000
1.335817 1.305083 0.444848 0.000000 0.000000 0.000000
1.522727 1.587137 0.845458 0.000000 0.000000 0.000000
1.285996 1.484111 0.312975 0.000000 0.000000 0.000000
1.521215 1.583449 0.849299 0.000000 0.000000 0.000000
1.496256 1.448000 0.912779 0.000000 0.000000 0.000000
1.273985 1.478272 0.313492 0.000000 0.000000 0.000000
1.518028 1.659847 0.581996 0.000000 0.000000 0.000000
1.511905 1.658599 0.593529 0.000000 0.000000 0.000000
1.508106 1.423998 0.890322 0.000000 0.000000 0.000000
1.509125 1.653546 0.594971 0.000000 0.000000 0.000000
1.505665 1.418654 0.885302 0.000000 0.000000 0.000000
1.511495 1.657263 0.580470 0.000000 0.000000 0.000000
1.471215 1.525235 0.966938 0.000000 0.000000 0.000000
1.491358 1.581020 0.540628 0.000000 0.000000 0.000000
1.485775 1.412564 0.850315 0.000000 0.000000 0.000000
1.527098 1.642482 0.559418 0.000000 0.000000 0.000000
1.489376 1.402828 0.847691 0.000000 0.000000 0.000000
1.509998 1.415631 0.886434 0.000000 0.000000 0.000000
1.503403 1.431993 0.890822 0.000000 0.000000 0.000000
1.503623 1.430528 0.881427 0.000000 0.000000 0.000000
1.527501 1.606392 0.802776 0.000000 0.000000 0.000000
1.507339 1.426492 0.901231 0.000000 0.000000 0.000000
1.286902 1.560039 0.327423 0.000000 0.000000 0.000000
1.488215 1.572390 0.536250 0.000000 0.000000 0.000000
1.277634 1.497535 0.297945 0.000000 0.000000 0.000000
1.490612 1.402448 0.846787 0.000000 0.000000 0.000000
1.529612 1.648848 0.566395 0.000000 0.000000 0.000000
1.315740 1.362649 0.382772 0.000000 0.000000 0.000000
1.357006 1.301041 0.521197 0.000000 0.000000 0.000000
1.284804 1.565248 0.334166 0.000000 0.000000 0.000000
1.480814 1.541651 0.540646 0.000000 0.000000 0.000000
1.504264 1.430801 0.894605 0.000000 0.000000 0.000000
1.508494 1.420127 0.882898 0.000000 0.000000 0.000000
1.498704 1.612273 0.521112 0.000000 0.000000 0.000000
1.276232 1.500043 0.302056 0.000000 0.000000 0.000000
1.291597 1.357164 0.515208 0.000000 0.000000 0.000000
1.525352 1.652589 0.532886 0.000000 0.000000 0.000000
1.507155 1.419835 0.868364 0.000000 0.000000 0.000000
1.526176 1.654606 0.526171 0.000000 0.000000 0.000000
1.285432 1.374239 0.509559 0.000000 0.000000 0.000000
1.274523 1.473461 0.304049 0.000000 0.000000 0.000000
1.520215 1.658531 0.573544 0.000000 0.000000 0.000000
1.402823 1.448589 0.447811 0.000000 0.000000 0.000000
1.278168 1.514694 0.307775 0.000000 0.000000 0.000000
1.509041 1.602832 0.582075 0.000000 0.000000 0.000000
1.488594 1.398074 0.850381 0.000000 0.000000 0.000000
1.526826 1.640859 0.575896 0.000000 0.000000 0.000000
1.492875 1.414067 0.864779 0.000000 0.000000 0.000000
1.313854 1.470089 0.302191 0.000000 0.000000 0.000000
1.509018 1.419479 0.891849 0.000000 0.000000 0.000000
1.501801 1.432280 0.883543 0.000000 0.000000 0.000000
1.528831 1.605952 0.799678 0.000000 0.000000 0.000000
1.290962 1.551661 0.320837 0.000000 0.000000 0.000000
1.500043 1.604492 0.550882 0.000000 0.000000 0.000000
1.491853 1.391608 0.840795 0.000000 0.000000 0.000000
1.529879 1.648979 0.556523 0.000000 0.000000 0.000000
1.320481 1.350738 0.383887 0.000000 0.000000 0.000000
1.283190 1.557750 0.333263 0.000000 0.000000 0.000000
1.497468 1.579527 0.560780 0.000000 0.000000 0.000000
1.502773 1.427260 0.888348 0.000000 0.000000 0.000000
1.501322 1.444033 0.901437 0.000000 0.000000 0.000000
1.504341 1.629250 0.520329 0.000000 0.000000 0.000000
1.270528 1.510190 0.305443 0.000000 0.000000 0.000000
1.292788 1.360357 0.518221 0.000000 0.000000 0.000000
1.525569 1.653429 0.522789 0.000000 0.000000 0.000000
1.527285 1.655490 0.542286 0.000000 0.000000 0.000000
1.287438 1.372333 0.502849 0.000000 0.000000 0.000000
1.274693 1.472790 0.295789 0.000000 0.000000 0.000000
1.527862 1.651723 0.553256 0.000000 0.000000 0.000000
1.429201 1.457959 0.484190 0.000000 0.000000 0.000000
1.289923 1.506002 0.302937 0.000000 0.000000 0.000000
1.503267 1.426505 0.869909 0.000000 0.000000 0.000000
1.502351 1.353558 0.805280 0.000000 0.000000 0.000000
1.500610 1.414739 0.858320 0.000000 0.000000 0.000000
1.336581 1.308891 0.426881 0.000000 0.000000 0.000000
1.501080 1.406857 0.864481 0.000000 0.000000 0.000000
1.500666 1.406726 0.871815 0.000000 0.000000 0.000000
1.506504 1.572720 0.864203 0.000000 0.000000 0.000000
1.500905 1.427983 0.859895 0.000000 0.000000 0.000000
1.499823 1.406247 0.860200 0.000000 0.000000 0.000000
1.503753 1.404242 0.867820 0.000000 0.000000 0.000000
1.444677 1.589775 0.387103 0.000000 0.000000 0.000000
1.449032 1.582846 0.386795 0.000000 0.000000 0.000000
1.333285 1.314989 0.420603 0.000000 0.000000 0.000000
1.306214 1.418286 0.297563 0.000000 0.000000 0.000000
1.439708 1.580963 0.380853 0.000000 0.000000 0.000000
1.384144 1.519176 0.326921 0.000000 0.000000 0.000000
1.401118 1.533857 0.338668 0.000000 0.000000 0.000000
1.507541 1.332844 0.793509 0.000000 0.000000 0.000000
1.330378 1.368453 0.352355 0.000000 0.000000 0.000000
1.506233 1.567684 0.869166 0.000000 0.000000 0.000000
1.500932 1.434607 0.881227 0.000000 0.000000 0.000000
1.439370 1.584453 0.379904 0.000000 0.000000 0.000000
1.452203 1.585568 0.387144 0.000000 0.000000 0.000000
1.336781 1.318184 0.425631 0.000000 0.000000 0.000000
1.318843 1.403479 0.315588 0.000000 0.000000 0.000000
1.443279 1.582265 0.378643 0.000000 0.000000 0.000000
1.507733 1.335711 0.794469 0.000000 0.000000 0.000000
1.331893 1.372638 0.342876 0.000000 0.000000 0.000000
1.504065 1.409010 0.883120 0.000000 0.000000 0.000000
1.508166 1.408824 0.881590 0.000000 0.000000 0.000000
