ply
format ascii 1.0
comment VCGLIB generated
obj_info Generated by SPFormer!
element vertex 881
property float x
property float y
property float z
property float nx
property float ny
property float nz
end_header
0.637256 1.269748 -0.026718 0.000000 0.000000 0.000000
0.364375 1.306666 0.516609 0.000000 0.000000 0.000000
0.405274 1.283922 0.463983 0.000000 0.000000 0.000000
0.400901 1.383461 0.479631 0.000000 0.000000 0.000000
0.382440 1.643150 0.080636 0.000000 0.000000 0.000000
0.689682 1.329679 -0.013743 0.000000 0.000000 0.000000
0.643262 1.274024 -0.019573 0.000000 0.000000 0.000000
0.403979 1.398334 0.419284 0.000000 0.000000 0.000000
0.460499 1.672348 0.040612 0.000000 0.000000 0.000000
0.443020 1.389525 0.454354 0.000000 0.000000 0.000000
0.438893 1.387107 0.458314 0.000000 0.000000 0.000000
0.666672 1.311551 -0.016835 0.000000 0.000000 0.000000
0.694068 1.334851 -0.009259 0.000000 0.000000 0.000000
0.441186 1.394122 0.461735 0.000000 0.000000 0.000000
0.457310 1.680874 0.048957 0.000000 0.000000 0.000000
0.428599 1.675993 0.082779 0.000000 0.000000 0.000000
0.395780 1.642863 0.143518 0.000000 0.000000 0.000000
0.665139 1.314451 -0.013222 0.000000 0.000000 0.000000
0.369605 1.260187 0.477344 0.000000 0.000000 0.000000
0.418048 1.677946 0.048554 0.000000 0.000000 0.000000
0.406968 1.393489 0.404948 0.000000 0.000000 0.000000
0.423969 1.675627 0.085733 0.000000 0.000000 0.000000
0.641810 1.277045 -0.017131 0.000000 0.000000 0.000000
0.398762 1.572752 0.415488 0.000000 0.000000 0.000000
0.436691 1.389815 0.463624 0.000000 0.000000 0.000000
0.436367 1.394908 0.449955 0.000000 0.000000 0.000000
0.423499 1.670926 0.079693 0.000000 0.000000 0.000000
0.425375 1.402839 0.465189 0.000000 0.000000 0.000000
0.465946 1.667140 0.054168 0.000000 0.000000 0.000000
0.437230 1.675758 0.016451 0.000000 0.000000 0.000000
0.420924 1.375066 0.475365 0.000000 0.000000 0.000000
0.452521 1.394215 0.456942 0.000000 0.000000 0.000000
0.434881 1.399459 0.466572 0.000000 0.000000 0.000000
0.437870 1.397458 0.460309 0.000000 0.000000 0.000000
0.391458 1.642432 0.116567 0.000000 0.000000 0.000000
0.651302 1.295318 -0.010433 0.000000 0.000000 0.000000
0.410866 1.662363 0.084443 0.000000 0.000000 0.000000
0.440568 1.398981 0.458760 0.000000 0.000000 0.000000
0.397330 1.640641 0.148885 0.000000 0.000000 0.000000
0.438999 1.677421 0.131395 0.000000 0.000000 0.000000
0.390007 1.563740 0.407052 0.000000 0.000000 0.000000
0.395619 1.655344 0.110099 0.000000 0.000000 0.000000
0.683630 1.331749 -0.012259 0.000000 0.000000 0.000000
0.407143 1.387662 0.457175 0.000000 0.000000 0.000000
0.400444 1.649366 0.086314 0.000000 0.000000 0.000000
0.439905 1.391578 0.448974 0.000000 0.000000 0.000000
0.433244 1.391213 0.455152 0.000000 0.000000 0.000000
0.432835 1.391184 0.465698 0.000000 0.000000 0.000000
0.423895 1.384557 0.471170 0.000000 0.000000 0.000000
0.441692 1.398842 0.459227 0.000000 0.000000 0.000000
0.430674 1.385954 0.461879 0.000000 0.000000 0.000000
0.406004 1.379909 0.452992 0.000000 0.000000 0.000000
0.389642 1.649119 0.083922 0.000000 0.000000 0.000000
0.413148 1.670446 0.133709 0.000000 0.000000 0.000000
0.407815 1.650769 0.098715 0.000000 0.000000 0.000000
0.408126 1.387707 0.472994 0.000000 0.000000 0.000000
0.391557 1.640561 0.124039 0.000000 0.000000 0.000000
0.420450 1.673006 0.099118 0.000000 0.000000 0.000000
0.400091 1.650589 0.085593 0.000000 0.000000 0.000000
0.425780 1.670701 0.093436 0.000000 0.000000 0.000000
0.382745 1.277446 0.478790 0.000000 0.000000 0.000000
0.401319 1.380378 0.436868 0.000000 0.000000 0.000000
0.415747 1.282747 0.452955 0.000000 0.000000 0.000000
0.407386 1.384558 0.414017 0.000000 0.000000 0.000000
0.401967 1.673691 0.100597 0.000000 0.000000 0.000000
0.433172 1.388272 0.455362 0.000000 0.000000 0.000000
0.419528 1.676481 0.066237 0.000000 0.000000 0.000000
0.426183 1.672228 0.096251 0.000000 0.000000 0.000000
0.405548 1.391089 0.475322 0.000000 0.000000 0.000000
0.400483 1.267807 0.448405 0.000000 0.000000 0.000000
0.427903 1.283358 0.445720 0.000000 0.000000 0.000000
0.397849 1.382067 0.439722 0.000000 0.000000 0.000000
0.406136 1.379243 0.406668 0.000000 0.000000 0.000000
0.382383 1.267375 0.465243 0.000000 0.000000 0.000000
0.658580 1.316547 -0.012169 0.000000 0.000000 0.000000
0.408105 1.666726 0.099054 0.000000 0.000000 0.000000
0.428093 1.386726 0.463993 0.000000 0.000000 0.000000
0.408073 1.285072 0.475595 0.000000 0.000000 0.000000
0.410687 1.386744 0.469054 0.000000 0.000000 0.000000
0.634943 1.263974 -0.024670 0.000000 0.000000 0.000000
0.450323 1.712626 0.067858 0.000000 0.000000 0.000000
0.457926 1.676939 0.049857 0.000000 0.000000 0.000000
0.385070 1.638360 0.100264 0.000000 0.000000 0.000000
0.440570 1.710739 0.050411 0.000000 0.000000 0.000000
0.388481 1.646995 0.104940 0.000000 0.000000 0.000000
0.391090 1.644018 0.108239 0.000000 0.000000 0.000000
0.392492 1.658821 0.099916 0.000000 0.000000 0.000000
0.395647 1.659206 0.086190 0.000000 0.000000 0.000000
0.477512 1.655588 0.047096 0.000000 0.000000 0.000000
0.465171 1.664445 0.044171 0.000000 0.000000 0.000000
0.477503 1.662173 0.048854 0.000000 0.000000 0.000000
0.479570 1.663120 0.049602 0.000000 0.000000 0.000000
0.393290 1.652418 0.139029 0.000000 0.000000 0.000000
0.391533 1.280581 0.480957 0.000000 0.000000 0.000000
0.411761 1.381786 0.410659 0.000000 0.000000 0.000000
0.466474 1.660746 0.043180 0.000000 0.000000 0.000000
0.412507 1.387250 0.412426 0.000000 0.000000 0.000000
0.467444 1.674489 0.050402 0.000000 0.000000 0.000000
0.384265 1.647654 0.114894 0.000000 0.000000 0.000000
0.407695 1.678406 0.057534 0.000000 0.000000 0.000000
0.667468 1.309476 -0.030868 0.000000 0.000000 0.000000
0.440238 1.396779 0.457132 0.000000 0.000000 0.000000
0.402312 1.657183 0.109968 0.000000 0.000000 0.000000
0.472874 1.665327 0.051484 0.000000 0.000000 0.000000
0.666471 1.313080 -0.017534 0.000000 0.000000 0.000000
0.394601 1.661041 0.119209 0.000000 0.000000 0.000000
0.439945 1.394271 0.458154 0.000000 0.000000 0.000000
0.414460 1.661218 0.130260 0.000000 0.000000 0.000000
0.378936 1.644292 0.080304 0.000000 0.000000 0.000000
0.434698 1.391458 0.456706 0.000000 0.000000 0.000000
0.654225 1.319677 -0.004242 0.000000 0.000000 0.000000
0.379067 1.644422 0.087158 0.000000 0.000000 0.000000
0.658863 1.299099 -0.028081 0.000000 0.000000 0.000000
0.393728 1.379331 0.424106 0.000000 0.000000 0.000000
0.394762 1.279902 0.470628 0.000000 0.000000 0.000000
0.444534 1.719557 0.071474 0.000000 0.000000 0.000000
0.384926 1.281202 0.484117 0.000000 0.000000 0.000000
0.390054 1.644525 0.101217 0.000000 0.000000 0.000000
0.400497 1.673691 0.104506 0.000000 0.000000 0.000000
0.440455 1.691215 0.064622 0.000000 0.000000 0.000000
0.411911 1.271814 0.448230 0.000000 0.000000 0.000000
0.389093 1.653615 0.083610 0.000000 0.000000 0.000000
0.386665 1.637688 0.108193 0.000000 0.000000 0.000000
0.443771 1.669662 0.123029 0.000000 0.000000 0.000000
0.411493 1.388998 0.414157 0.000000 0.000000 0.000000
0.410796 1.383597 0.415903 0.000000 0.000000 0.000000
0.389011 1.652969 0.090415 0.000000 0.000000 0.000000
0.475199 1.665022 0.046986 0.000000 0.000000 0.000000
0.386854 1.649194 0.084888 0.000000 0.000000 0.000000
0.417139 1.669554 0.067617 0.000000 0.000000 0.000000
0.463540 1.665462 0.049315 0.000000 0.000000 0.000000
0.415999 1.384608 0.463423 0.000000 0.000000 0.000000
0.406815 1.386428 0.407346 0.000000 0.000000 0.000000
0.392578 1.644136 0.111163 0.000000 0.000000 0.000000
0.647326 1.270756 -0.015621 0.000000 0.000000 0.000000
0.647656 1.274022 -0.012424 0.000000 0.000000 0.000000
0.686153 1.325065 -0.008429 0.000000 0.000000 0.000000
0.381845 1.643115 0.080621 0.000000 0.000000 0.000000
0.691230 1.329934 -0.012940 0.000000 0.000000 0.000000
0.470714 1.664373 0.040487 0.000000 0.000000 0.000000
0.415665 1.677700 0.052575 0.000000 0.000000 0.000000
0.457695 1.662971 0.048419 0.000000 0.000000 0.000000
0.440864 1.390285 0.449559 0.000000 0.000000 0.000000
0.641024 1.308097 -0.015809 0.000000 0.000000 0.000000
0.642228 1.288307 -0.010985 0.000000 0.000000 0.000000
0.419161 1.665863 0.091294 0.000000 0.000000 0.000000
0.379264 1.650874 0.104053 0.000000 0.000000 0.000000
0.442391 1.398362 0.452364 0.000000 0.000000 0.000000
0.686022 1.337185 -0.014947 0.000000 0.000000 0.000000
0.413893 1.670322 0.090418 0.000000 0.000000 0.000000
0.435706 1.397091 0.450698 0.000000 0.000000 0.000000
0.690217 1.338501 -0.015578 0.000000 0.000000 0.000000
0.437817 1.390345 0.454766 0.000000 0.000000 0.000000
0.392436 1.649086 0.092847 0.000000 0.000000 0.000000
0.423243 1.669532 0.086377 0.000000 0.000000 0.000000
0.389197 1.663262 0.112744 0.000000 0.000000 0.000000
0.483276 1.662633 0.042122 0.000000 0.000000 0.000000
0.386253 1.647582 0.090384 0.000000 0.000000 0.000000
0.391679 1.647072 0.098370 0.000000 0.000000 0.000000
0.469364 1.661804 0.041908 0.000000 0.000000 0.000000
0.643821 1.267452 -0.015075 0.000000 0.000000 0.000000
0.408741 1.280421 0.443156 0.000000 0.000000 0.000000
0.378969 1.265659 0.467418 0.000000 0.000000 0.000000
0.405746 1.661893 0.094355 0.000000 0.000000 0.000000
0.388537 1.641306 0.085479 0.000000 0.000000 0.000000
0.688921 1.328225 -0.006847 0.000000 0.000000 0.000000
0.407772 1.645390 0.076446 0.000000 0.000000 0.000000
0.389319 1.266258 0.472469 0.000000 0.000000 0.000000
0.647541 1.269962 -0.016735 0.000000 0.000000 0.000000
0.377248 1.664511 0.093450 0.000000 0.000000 0.000000
0.395401 1.264642 0.461990 0.000000 0.000000 0.000000
0.413198 1.669747 0.106380 0.000000 0.000000 0.000000
0.410367 1.387218 0.478033 0.000000 0.000000 0.000000
0.365022 1.309503 0.514283 0.000000 0.000000 0.000000
0.686394 1.328333 -0.008934 0.000000 0.000000 0.000000
0.404768 1.647279 0.080547 0.000000 0.000000 0.000000
0.405577 1.396175 0.436890 0.000000 0.000000 0.000000
0.403676 1.384583 0.475201 0.000000 0.000000 0.000000
0.468285 1.664144 0.056876 0.000000 0.000000 0.000000
0.408171 1.386289 0.415473 0.000000 0.000000 0.000000
0.396280 1.274095 0.440761 0.000000 0.000000 0.000000
0.456094 1.682429 0.056595 0.000000 0.000000 0.000000
0.407887 1.396515 0.434385 0.000000 0.000000 0.000000
0.398963 1.652517 0.115878 0.000000 0.000000 0.000000
0.468996 1.674771 0.043851 0.000000 0.000000 0.000000
0.391361 1.640232 0.156935 0.000000 0.000000 0.000000
0.428313 1.667455 0.126743 0.000000 0.000000 0.000000
0.644548 1.287484 -0.041072 0.000000 0.000000 0.000000
0.405086 1.382267 0.439000 0.000000 0.000000 0.000000
0.383637 1.562398 0.413099 0.000000 0.000000 0.000000
0.443816 1.397008 0.454117 0.000000 0.000000 0.000000
0.435222 1.385599 0.455482 0.000000 0.000000 0.000000
0.407512 1.278157 0.473025 0.000000 0.000000 0.000000
0.474419 1.666432 0.054340 0.000000 0.000000 0.000000
0.472145 1.657707 0.046032 0.000000 0.000000 0.000000
0.432043 1.673077 0.096901 0.000000 0.000000 0.000000
0.644482 1.313662 -0.008398 0.000000 0.000000 0.000000
0.411930 1.282429 0.441327 0.000000 0.000000 0.000000
0.412067 1.385342 0.431236 0.000000 0.000000 0.000000
0.394480 1.645622 0.128912 0.000000 0.000000 0.000000
0.406701 1.281945 0.472698 0.000000 0.000000 0.000000
0.411189 1.274475 0.440252 0.000000 0.000000 0.000000
0.406214 1.278375 0.450805 0.000000 0.000000 0.000000
0.403888 1.389010 0.438123 0.000000 0.000000 0.000000
0.401589 1.280891 0.469943 0.000000 0.000000 0.000000
0.388012 1.271494 0.469860 0.000000 0.000000 0.000000
0.381449 1.399562 0.438466 0.000000 0.000000 0.000000
0.393004 1.649074 0.117790 0.000000 0.000000 0.000000
0.377966 1.561173 0.412668 0.000000 0.000000 0.000000
0.387504 1.658723 0.086424 0.000000 0.000000 0.000000
0.413402 1.281770 0.440816 0.000000 0.000000 0.000000
0.417620 1.281892 0.453925 0.000000 0.000000 0.000000
0.422141 1.280468 0.447280 0.000000 0.000000 0.000000
0.394079 1.280231 0.471526 0.000000 0.000000 0.000000
0.407145 1.276284 0.449093 0.000000 0.000000 0.000000
0.383041 1.656154 0.109348 0.000000 0.000000 0.000000
0.453870 1.677519 0.044834 0.000000 0.000000 0.000000
0.389856 1.560009 0.403242 0.000000 0.000000 0.000000
0.458285 1.662993 0.043824 0.000000 0.000000 0.000000
0.447980 1.670714 0.040762 0.000000 0.000000 0.000000
0.374583 1.646298 0.091640 0.000000 0.000000 0.000000
0.648747 1.295766 -0.017286 0.000000 0.000000 0.000000
0.408180 1.384622 0.439691 0.000000 0.000000 0.000000
0.401425 1.415332 0.447829 0.000000 0.000000 0.000000
0.453692 1.679679 0.051969 0.000000 0.000000 0.000000
0.376595 1.659738 0.096895 0.000000 0.000000 0.000000
0.476867 1.666970 0.046115 0.000000 0.000000 0.000000
0.382048 1.644860 0.088364 0.000000 0.000000 0.000000
0.454215 1.677346 0.046367 0.000000 0.000000 0.000000
0.445598 1.676670 0.044463 0.000000 0.000000 0.000000
0.454162 1.683636 0.043944 0.000000 0.000000 0.000000
0.427767 1.391643 0.447124 0.000000 0.000000 0.000000
0.400692 1.653110 0.125566 0.000000 0.000000 0.000000
0.363381 1.313056 0.515308 0.000000 0.000000 0.000000
0.441561 1.708031 0.055681 0.000000 0.000000 0.000000
0.430884 1.395545 0.457189 0.000000 0.000000 0.000000
0.469480 1.651801 0.053476 0.000000 0.000000 0.000000
0.416120 1.679139 0.082170 0.000000 0.000000 0.000000
0.407870 1.283099 0.512354 0.000000 0.000000 0.000000
0.440581 1.706584 0.054639 0.000000 0.000000 0.000000
0.435950 1.401077 0.463736 0.000000 0.000000 0.000000
0.448116 1.701170 0.077847 0.000000 0.000000 0.000000
0.402713 1.265044 0.441021 0.000000 0.000000 0.000000
0.413696 1.390734 0.448356 0.000000 0.000000 0.000000
0.665215 1.314609 -0.000028 0.000000 0.000000 0.000000
0.435806 1.677606 0.053347 0.000000 0.000000 0.000000
0.381309 1.640302 0.088363 0.000000 0.000000 0.000000
0.410820 1.406278 0.472696 0.000000 0.000000 0.000000
0.397814 1.679163 0.102613 0.000000 0.000000 0.000000
0.380952 1.641848 0.085108 0.000000 0.000000 0.000000
0.405867 1.380479 0.443376 0.000000 0.000000 0.000000
0.474281 1.660757 0.049350 0.000000 0.000000 0.000000
0.693536 1.332725 -0.012425 0.000000 0.000000 0.000000
0.710608 1.337669 -0.010741 0.000000 0.000000 0.000000
0.699922 1.335668 -0.012261 0.000000 0.000000 0.000000
0.702558 1.340081 -0.016521 0.000000 0.000000 0.000000
0.696783 1.342694 -0.017654 0.000000 0.000000 0.000000
0.418612 1.672632 0.114380 0.000000 0.000000 0.000000
0.410656 1.384111 0.412839 0.000000 0.000000 0.000000
0.408674 1.379415 0.413613 0.000000 0.000000 0.000000
0.415184 1.388351 0.466290 0.000000 0.000000 0.000000
0.440435 1.399638 0.460582 0.000000 0.000000 0.000000
0.423807 1.678937 0.093862 0.000000 0.000000 0.000000
0.421451 1.675759 0.063654 0.000000 0.000000 0.000000
0.457667 1.660795 0.047963 0.000000 0.000000 0.000000
0.385694 1.639434 0.086178 0.000000 0.000000 0.000000
0.408975 1.386004 0.437868 0.000000 0.000000 0.000000
0.404348 1.390655 0.438530 0.000000 0.000000 0.000000
0.404951 1.394810 0.417954 0.000000 0.000000 0.000000
0.405888 1.392133 0.437907 0.000000 0.000000 0.000000
0.674105 1.319130 -0.010953 0.000000 0.000000 0.000000
0.383785 1.398576 0.433221 0.000000 0.000000 0.000000
0.458887 1.661501 0.046136 0.000000 0.000000 0.000000
0.408614 1.391637 0.428691 0.000000 0.000000 0.000000
0.396152 1.673522 0.107011 0.000000 0.000000 0.000000
0.412325 1.406443 0.443961 0.000000 0.000000 0.000000
0.392260 1.679602 0.106079 0.000000 0.000000 0.000000
0.404952 1.382960 0.450589 0.000000 0.000000 0.000000
0.383065 1.392729 0.435514 0.000000 0.000000 0.000000
0.429890 1.281640 0.441145 0.000000 0.000000 0.000000
0.382348 1.397865 0.430667 0.000000 0.000000 0.000000
0.379549 1.395070 0.436308 0.000000 0.000000 0.000000
0.420791 1.377401 0.469909 0.000000 0.000000 0.000000
0.474778 1.662045 0.049141 0.000000 0.000000 0.000000
0.479631 1.662762 0.042351 0.000000 0.000000 0.000000
0.414081 1.387542 0.445409 0.000000 0.000000 0.000000
0.383196 1.679342 0.096833 0.000000 0.000000 0.000000
0.388405 1.386110 0.422010 0.000000 0.000000 0.000000
0.643877 1.288075 -0.007562 0.000000 0.000000 0.000000
0.405851 1.400619 0.447839 0.000000 0.000000 0.000000
0.463484 1.658309 0.047135 0.000000 0.000000 0.000000
0.471138 1.666037 0.050862 0.000000 0.000000 0.000000
0.648001 1.308221 -0.023329 0.000000 0.000000 0.000000
0.393816 1.642156 0.121257 0.000000 0.000000 0.000000
0.655253 1.267851 -0.018292 0.000000 0.000000 0.000000
0.682550 1.322077 -0.007427 0.000000 0.000000 0.000000
0.647767 1.307999 -0.017202 0.000000 0.000000 0.000000
0.404654 1.400750 0.452898 0.000000 0.000000 0.000000
0.465313 1.661057 0.054858 0.000000 0.000000 0.000000
0.397462 1.380780 0.420425 0.000000 0.000000 0.000000
0.680656 1.339737 -0.013052 0.000000 0.000000 0.000000
0.375160 1.263860 0.475922 0.000000 0.000000 0.000000
0.701760 1.337488 -0.015864 0.000000 0.000000 0.000000
0.699460 1.334538 -0.013730 0.000000 0.000000 0.000000
0.397768 1.381448 0.426042 0.000000 0.000000 0.000000
0.365835 1.561705 0.407201 0.000000 0.000000 0.000000
0.644383 1.296652 -0.012023 0.000000 0.000000 0.000000
0.681405 1.332351 -0.014075 0.000000 0.000000 0.000000
0.390790 1.274011 0.468311 0.000000 0.000000 0.000000
0.424454 1.665749 0.121831 0.000000 0.000000 0.000000
0.659166 1.306822 -0.006050 0.000000 0.000000 0.000000
0.406047 1.661959 0.090946 0.000000 0.000000 0.000000
0.682030 1.329835 -0.006373 0.000000 0.000000 0.000000
0.387417 1.270522 0.468321 0.000000 0.000000 0.000000
0.378657 1.267899 0.468281 0.000000 0.000000 0.000000
0.401977 1.379167 0.441734 0.000000 0.000000 0.000000
0.431922 1.676333 0.101345 0.000000 0.000000 0.000000
0.435437 1.673573 0.123368 0.000000 0.000000 0.000000
0.434768 1.672813 0.132033 0.000000 0.000000 0.000000
0.404311 1.396461 0.424260 0.000000 0.000000 0.000000
0.406789 1.393191 0.426331 0.000000 0.000000 0.000000
0.408937 1.389368 0.418189 0.000000 0.000000 0.000000
0.409453 1.388290 0.415115 0.000000 0.000000 0.000000
0.409195 1.390280 0.432396 0.000000 0.000000 0.000000
0.408090 1.386826 0.466778 0.000000 0.000000 0.000000
0.409806 1.390786 0.426005 0.000000 0.000000 0.000000
0.408778 1.394076 0.423751 0.000000 0.000000 0.000000
0.380354 1.641691 0.157365 0.000000 0.000000 0.000000
0.412450 1.656503 0.078781 0.000000 0.000000 0.000000
0.407929 1.409042 0.479525 0.000000 0.000000 0.000000
0.653973 1.307526 -0.013951 0.000000 0.000000 0.000000
0.646629 1.315480 -0.012622 0.000000 0.000000 0.000000
0.404656 1.398660 0.426058 0.000000 0.000000 0.000000
0.644270 1.307216 -0.015871 0.000000 0.000000 0.000000
0.402322 1.415186 0.448484 0.000000 0.000000 0.000000
0.699457 1.340541 -0.020621 0.000000 0.000000 0.000000
0.416471 1.670519 0.071508 0.000000 0.000000 0.000000
0.395315 1.642870 0.112964 0.000000 0.000000 0.000000
0.657346 1.270872 -0.019008 0.000000 0.000000 0.000000
0.395534 1.641510 0.158481 0.000000 0.000000 0.000000
0.389274 1.561740 0.406119 0.000000 0.000000 0.000000
0.382843 1.398593 0.422233 0.000000 0.000000 0.000000
0.439330 1.388449 0.448953 0.000000 0.000000 0.000000
0.412256 1.380628 0.413057 0.000000 0.000000 0.000000
0.444758 1.710712 0.069559 0.000000 0.000000 0.000000
0.401690 1.678677 0.096814 0.000000 0.000000 0.000000
0.423862 1.671079 0.090181 0.000000 0.000000 0.000000
0.640947 1.305710 -0.024124 0.000000 0.000000 0.000000
0.411461 1.664506 0.079219 0.000000 0.000000 0.000000
0.405879 1.273439 0.461890 0.000000 0.000000 0.000000
0.412085 1.669002 0.075074 0.000000 0.000000 0.000000
0.404887 1.383745 0.439430 0.000000 0.000000 0.000000
0.378727 1.267853 0.477912 0.000000 0.000000 0.000000
0.404930 1.436977 0.445758 0.000000 0.000000 0.000000
0.438514 1.401693 0.465363 0.000000 0.000000 0.000000
0.436516 1.675637 0.114578 0.000000 0.000000 0.000000
0.646243 1.285827 -0.010063 0.000000 0.000000 0.000000
0.651535 1.265890 -0.013728 0.000000 0.000000 0.000000
0.651923 1.288820 -0.012890 0.000000 0.000000 0.000000
0.656743 1.287797 -0.013358 0.000000 0.000000 0.000000
0.655131 1.268878 -0.015966 0.000000 0.000000 0.000000
0.664595 1.273451 -0.015793 0.000000 0.000000 0.000000
0.657966 1.281472 -0.006865 0.000000 0.000000 0.000000
0.442611 1.391739 0.447866 0.000000 0.000000 0.000000
0.665172 1.315722 -0.029573 0.000000 0.000000 0.000000
0.666737 1.307055 -0.013325 0.000000 0.000000 0.000000
0.650153 1.279878 -0.033447 0.000000 0.000000 0.000000
0.396178 1.657002 0.135720 0.000000 0.000000 0.000000
0.394644 1.653691 0.134070 0.000000 0.000000 0.000000
0.681566 1.336202 -0.005241 0.000000 0.000000 0.000000
0.644479 1.263054 -0.011306 0.000000 0.000000 0.000000
0.442923 1.386958 0.452750 0.000000 0.000000 0.000000
0.398580 1.652006 0.131050 0.000000 0.000000 0.000000
0.406357 1.648917 0.080617 0.000000 0.000000 0.000000
0.654417 1.285362 -0.034181 0.000000 0.000000 0.000000
0.396015 1.648833 0.122424 0.000000 0.000000 0.000000
0.428912 1.672337 0.114476 0.000000 0.000000 0.000000
0.412984 1.381473 0.409523 0.000000 0.000000 0.000000
0.401553 1.383788 0.421809 0.000000 0.000000 0.000000
0.461295 1.659846 0.055565 0.000000 0.000000 0.000000
0.650548 1.285696 -0.018547 0.000000 0.000000 0.000000
0.399116 1.656017 0.131848 0.000000 0.000000 0.000000
0.397341 1.679181 0.106070 0.000000 0.000000 0.000000
0.401407 1.383652 0.425279 0.000000 0.000000 0.000000
0.368500 1.319232 0.509511 0.000000 0.000000 0.000000
0.661984 1.279052 -0.019148 0.000000 0.000000 0.000000
0.387459 1.637745 0.116347 0.000000 0.000000 0.000000
0.466108 1.651931 0.042450 0.000000 0.000000 0.000000
0.670328 1.293655 -0.019783 0.000000 0.000000 0.000000
0.364256 1.303809 0.517427 0.000000 0.000000 0.000000
0.381894 1.561978 0.412711 0.000000 0.000000 0.000000
0.464398 1.651610 0.054575 0.000000 0.000000 0.000000
0.396230 1.646195 0.115180 0.000000 0.000000 0.000000
0.393698 1.647316 0.113314 0.000000 0.000000 0.000000
0.404176 1.387978 0.479425 0.000000 0.000000 0.000000
0.436573 1.394172 0.459373 0.000000 0.000000 0.000000
0.394570 1.264528 0.471108 0.000000 0.000000 0.000000
0.397291 1.267916 0.446184 0.000000 0.000000 0.000000
0.400778 1.393958 0.474270 0.000000 0.000000 0.000000
0.396879 1.644691 0.114983 0.000000 0.000000 0.000000
0.397761 1.654529 0.087441 0.000000 0.000000 0.000000
0.383899 1.642995 0.087680 0.000000 0.000000 0.000000
0.420006 1.678364 0.050472 0.000000 0.000000 0.000000
0.645170 1.281816 -0.012336 0.000000 0.000000 0.000000
0.390781 1.649490 0.086788 0.000000 0.000000 0.000000
0.652240 1.285339 -0.014243 0.000000 0.000000 0.000000
0.653913 1.285483 -0.006057 0.000000 0.000000 0.000000
0.401129 1.282866 0.461398 0.000000 0.000000 0.000000
0.653334 1.283228 -0.004608 0.000000 0.000000 0.000000
0.364502 1.654990 0.099236 0.000000 0.000000 0.000000
0.383219 1.645349 0.084171 0.000000 0.000000 0.000000
0.642149 1.277538 -0.042963 0.000000 0.000000 0.000000
0.392636 1.282483 0.473653 0.000000 0.000000 0.000000
0.653161 1.285758 -0.013405 0.000000 0.000000 0.000000
0.649197 1.282966 -0.011612 0.000000 0.000000 0.000000
0.411244 1.384540 0.417130 0.000000 0.000000 0.000000
0.409068 1.381926 0.417186 0.000000 0.000000 0.000000
0.386597 1.641577 0.093752 0.000000 0.000000 0.000000
0.383971 1.650090 0.082099 0.000000 0.000000 0.000000
0.411955 1.381059 0.404999 0.000000 0.000000 0.000000
0.654746 1.290355 -0.007459 0.000000 0.000000 0.000000
0.648855 1.279493 -0.035010 0.000000 0.000000 0.000000
0.394368 1.270257 0.453158 0.000000 0.000000 0.000000
0.389789 1.643094 0.106675 0.000000 0.000000 0.000000
0.387743 1.649312 0.111283 0.000000 0.000000 0.000000
0.387800 1.266820 0.458058 0.000000 0.000000 0.000000
0.394095 1.649631 0.099105 0.000000 0.000000 0.000000
0.396300 1.650498 0.098450 0.000000 0.000000 0.000000
0.417803 1.672369 0.062190 0.000000 0.000000 0.000000
0.392810 1.640772 0.137686 0.000000 0.000000 0.000000
0.402756 1.286986 0.477150 0.000000 0.000000 0.000000
0.414938 1.678536 0.050751 0.000000 0.000000 0.000000
0.399803 1.287731 0.491182 0.000000 0.000000 0.000000
0.405635 1.287859 0.485378 0.000000 0.000000 0.000000
0.400737 1.282674 0.483856 0.000000 0.000000 0.000000
0.406511 1.285745 0.478585 0.000000 0.000000 0.000000
0.420112 1.674539 0.058687 0.000000 0.000000 0.000000
0.411846 1.660919 0.087658 0.000000 0.000000 0.000000
0.403873 1.673540 0.095271 0.000000 0.000000 0.000000
0.377230 1.560455 0.402047 0.000000 0.000000 0.000000
0.438337 1.676378 0.120815 0.000000 0.000000 0.000000
0.395015 1.264996 0.441984 0.000000 0.000000 0.000000
0.393210 1.273288 0.451461 0.000000 0.000000 0.000000
0.402729 1.285811 0.484625 0.000000 0.000000 0.000000
0.394370 1.643266 0.123651 0.000000 0.000000 0.000000
0.417173 1.675537 0.074209 0.000000 0.000000 0.000000
0.425021 1.679159 0.083019 0.000000 0.000000 0.000000
0.403569 1.281116 0.479280 0.000000 0.000000 0.000000
0.397900 1.283875 0.472044 0.000000 0.000000 0.000000
0.414166 1.674104 0.088745 0.000000 0.000000 0.000000
0.399485 1.652353 0.109132 0.000000 0.000000 0.000000
0.399614 1.388399 0.416145 0.000000 0.000000 0.000000
0.644629 1.285463 -0.034171 0.000000 0.000000 0.000000
0.425686 1.677406 0.049701 0.000000 0.000000 0.000000
0.661923 1.302406 -0.017817 0.000000 0.000000 0.000000
0.404173 1.654582 0.086264 0.000000 0.000000 0.000000
0.647766 1.279192 -0.034641 0.000000 0.000000 0.000000
0.694572 1.346749 -0.012086 0.000000 0.000000 0.000000
0.405954 1.398333 0.422024 0.000000 0.000000 0.000000
0.655020 1.283722 -0.014499 0.000000 0.000000 0.000000
0.442132 1.712318 0.062665 0.000000 0.000000 0.000000
0.653371 1.285061 -0.006775 0.000000 0.000000 0.000000
0.646103 1.284854 -0.038716 0.000000 0.000000 0.000000
0.649532 1.273749 -0.029798 0.000000 0.000000 0.000000
0.665755 1.316519 -0.018421 0.000000 0.000000 0.000000
0.652073 1.277798 -0.037335 0.000000 0.000000 0.000000
0.397325 1.285586 0.493230 0.000000 0.000000 0.000000
0.659197 1.285223 -0.009128 0.000000 0.000000 0.000000
0.426196 1.397500 0.470834 0.000000 0.000000 0.000000
0.382069 1.278446 0.465839 0.000000 0.000000 0.000000
0.375495 1.266773 0.474884 0.000000 0.000000 0.000000
0.700539 1.336370 -0.022684 0.000000 0.000000 0.000000
0.652135 1.282200 -0.037826 0.000000 0.000000 0.000000
0.647550 1.286793 -0.032916 0.000000 0.000000 0.000000
0.419769 1.676106 0.050976 0.000000 0.000000 0.000000
0.655994 1.285987 -0.015960 0.000000 0.000000 0.000000
0.654634 1.285775 -0.008624 0.000000 0.000000 0.000000
0.404518 1.658411 0.082127 0.000000 0.000000 0.000000
0.685015 1.333129 -0.016946 0.000000 0.000000 0.000000
0.404091 1.673324 0.083331 0.000000 0.000000 0.000000
0.385934 1.650398 0.132498 0.000000 0.000000 0.000000
0.393930 1.649920 0.123405 0.000000 0.000000 0.000000
0.450217 1.680295 0.031258 0.000000 0.000000 0.000000
0.638792 1.279180 -0.036202 0.000000 0.000000 0.000000
0.648806 1.280887 -0.039809 0.000000 0.000000 0.000000
0.480572 1.657048 0.045364 0.000000 0.000000 0.000000
0.474251 1.672395 0.042451 0.000000 0.000000 0.000000
0.417664 1.679398 0.120510 0.000000 0.000000 0.000000
0.699115 1.337271 -0.017258 0.000000 0.000000 0.000000
0.648522 1.277094 -0.039106 0.000000 0.000000 0.000000
0.640200 1.281971 -0.034660 0.000000 0.000000 0.000000
0.381483 1.649977 0.139291 0.000000 0.000000 0.000000
0.395259 1.646491 0.142688 0.000000 0.000000 0.000000
0.438467 1.390905 0.450668 0.000000 0.000000 0.000000
0.446746 1.702255 0.056535 0.000000 0.000000 0.000000
0.431121 1.677294 0.102393 0.000000 0.000000 0.000000
0.398773 1.653340 0.138266 0.000000 0.000000 0.000000
0.653131 1.288117 -0.008173 0.000000 0.000000 0.000000
0.642341 1.282763 -0.031741 0.000000 0.000000 0.000000
0.411854 1.288064 0.484919 0.000000 0.000000 0.000000
0.402662 1.264265 0.446415 0.000000 0.000000 0.000000
0.407027 1.273055 0.446196 0.000000 0.000000 0.000000
0.404316 1.268100 0.442468 0.000000 0.000000 0.000000
0.402443 1.263880 0.458626 0.000000 0.000000 0.000000
0.404009 1.264599 0.442268 0.000000 0.000000 0.000000
0.420297 1.268384 0.445429 0.000000 0.000000 0.000000
0.440143 1.718122 0.072161 0.000000 0.000000 0.000000
0.457016 1.665117 0.046222 0.000000 0.000000 0.000000
0.449715 1.673873 0.036965 0.000000 0.000000 0.000000
0.451576 1.669306 0.040763 0.000000 0.000000 0.000000
0.669630 1.312193 -0.016826 0.000000 0.000000 0.000000
0.438854 1.385256 0.457992 0.000000 0.000000 0.000000
0.459759 1.656284 0.049581 0.000000 0.000000 0.000000
0.469025 1.661996 0.046474 0.000000 0.000000 0.000000
0.430965 1.674404 0.118117 0.000000 0.000000 0.000000
0.463133 1.654610 0.048468 0.000000 0.000000 0.000000
0.403164 1.284700 0.462245 0.000000 0.000000 0.000000
0.646805 1.278168 -0.042891 0.000000 0.000000 0.000000
0.662473 1.285076 -0.012998 0.000000 0.000000 0.000000
0.658579 1.283868 -0.011044 0.000000 0.000000 0.000000
0.430746 1.390969 0.457035 0.000000 0.000000 0.000000
0.361797 1.667141 0.080630 0.000000 0.000000 0.000000
0.412626 1.289167 0.479739 0.000000 0.000000 0.000000
0.680408 1.327141 -0.011234 0.000000 0.000000 0.000000
0.653362 1.287829 -0.016427 0.000000 0.000000 0.000000
0.408862 1.267255 0.460954 0.000000 0.000000 0.000000
0.439957 1.674906 0.117516 0.000000 0.000000 0.000000
0.436709 1.674582 0.105043 0.000000 0.000000 0.000000
0.402380 1.282948 0.475140 0.000000 0.000000 0.000000
0.683068 1.328009 -0.003988 0.000000 0.000000 0.000000
0.403238 1.396968 0.415277 0.000000 0.000000 0.000000
0.407815 1.389353 0.414535 0.000000 0.000000 0.000000
0.410948 1.663355 0.092646 0.000000 0.000000 0.000000
0.398830 1.386354 0.412455 0.000000 0.000000 0.000000
0.404318 1.658666 0.088215 0.000000 0.000000 0.000000
0.402355 1.382338 0.422178 0.000000 0.000000 0.000000
0.391644 1.382670 0.425726 0.000000 0.000000 0.000000
0.411863 1.679049 0.061831 0.000000 0.000000 0.000000
0.407989 1.386680 0.425508 0.000000 0.000000 0.000000
0.468220 1.662125 0.044795 0.000000 0.000000 0.000000
0.684862 1.337273 -0.020602 0.000000 0.000000 0.000000
0.401231 1.384610 0.423053 0.000000 0.000000 0.000000
0.641600 1.270964 -0.020770 0.000000 0.000000 0.000000
0.380268 1.560343 0.418186 0.000000 0.000000 0.000000
0.398717 1.645249 0.107286 0.000000 0.000000 0.000000
0.709977 1.343587 -0.015100 0.000000 0.000000 0.000000
0.698670 1.333034 -0.006555 0.000000 0.000000 0.000000
0.380242 1.564217 0.415339 0.000000 0.000000 0.000000
0.399674 1.380419 0.429414 0.000000 0.000000 0.000000
0.408284 1.654736 0.132533 0.000000 0.000000 0.000000
0.386139 1.398516 0.415427 0.000000 0.000000 0.000000
0.684790 1.326001 -0.011609 0.000000 0.000000 0.000000
0.436915 1.384227 0.465726 0.000000 0.000000 0.000000
0.410590 1.388912 0.406466 0.000000 0.000000 0.000000
0.442276 1.710811 0.072814 0.000000 0.000000 0.000000
0.383024 1.564005 0.411326 0.000000 0.000000 0.000000
0.381428 1.560884 0.411810 0.000000 0.000000 0.000000
0.394880 1.641400 0.159000 0.000000 0.000000 0.000000
0.403488 1.390118 0.414235 0.000000 0.000000 0.000000
0.440508 1.717511 0.079089 0.000000 0.000000 0.000000
0.379743 1.562381 0.408002 0.000000 0.000000 0.000000
0.391906 1.645269 0.103254 0.000000 0.000000 0.000000
0.395241 1.642774 0.135315 0.000000 0.000000 0.000000
0.640159 1.275419 -0.013232 0.000000 0.000000 0.000000
0.402119 1.673494 0.100699 0.000000 0.000000 0.000000
0.687866 1.329065 -0.010257 0.000000 0.000000 0.000000
0.402989 1.383252 0.433471 0.000000 0.000000 0.000000
0.383834 1.562315 0.407327 0.000000 0.000000 0.000000
0.391716 1.639423 0.113655 0.000000 0.000000 0.000000
0.447466 1.710280 0.075370 0.000000 0.000000 0.000000
0.443407 1.707409 0.075745 0.000000 0.000000 0.000000
0.395682 1.642866 0.125052 0.000000 0.000000 0.000000
0.406809 1.673205 0.088272 0.000000 0.000000 0.000000
0.690894 1.329095 -0.005675 0.000000 0.000000 0.000000
0.642715 1.274617 -0.014572 0.000000 0.000000 0.000000
0.652366 1.265720 -0.017501 0.000000 0.000000 0.000000
0.646044 1.273183 -0.016256 0.000000 0.000000 0.000000
0.434992 1.390983 0.446703 0.000000 0.000000 0.000000
0.652310 1.287550 -0.009973 0.000000 0.000000 0.000000
0.462757 1.665982 0.045931 0.000000 0.000000 0.000000
0.643790 1.268175 -0.016171 0.000000 0.000000 0.000000
0.479574 1.662877 0.043153 0.000000 0.000000 0.000000
0.443220 1.387818 0.449715 0.000000 0.000000 0.000000
0.476303 1.663642 0.050303 0.000000 0.000000 0.000000
0.391830 1.641121 0.119845 0.000000 0.000000 0.000000
0.638145 1.276534 -0.022631 0.000000 0.000000 0.000000
0.397557 1.654332 0.140068 0.000000 0.000000 0.000000
0.443855 1.389423 0.451089 0.000000 0.000000 0.000000
0.393523 1.655284 0.137739 0.000000 0.000000 0.000000
0.420768 1.279406 0.453477 0.000000 0.000000 0.000000
0.398479 1.645405 0.141849 0.000000 0.000000 0.000000
0.657778 1.269360 -0.016062 0.000000 0.000000 0.000000
0.636317 1.277328 -0.024380 0.000000 0.000000 0.000000
0.475617 1.659055 0.042252 0.000000 0.000000 0.000000
0.649917 1.267360 -0.016496 0.000000 0.000000 0.000000
0.442809 1.680106 0.043427 0.000000 0.000000 0.000000
0.479268 1.668438 0.041128 0.000000 0.000000 0.000000
0.432723 1.673376 0.111006 0.000000 0.000000 0.000000
0.647364 1.273207 -0.015457 0.000000 0.000000 0.000000
0.448337 1.388365 0.453867 0.000000 0.000000 0.000000
0.647979 1.281870 -0.022425 0.000000 0.000000 0.000000
0.461473 1.655951 0.045396 0.000000 0.000000 0.000000
0.383684 1.267085 0.475791 0.000000 0.000000 0.000000
0.641364 1.284117 -0.011812 0.000000 0.000000 0.000000
0.443312 1.680726 0.048787 0.000000 0.000000 0.000000
0.436047 1.387482 0.453951 0.000000 0.000000 0.000000
0.472097 1.662166 0.047752 0.000000 0.000000 0.000000
0.392060 1.641236 0.116940 0.000000 0.000000 0.000000
0.392853 1.641474 0.121200 0.000000 0.000000 0.000000
0.437825 1.670918 0.118278 0.000000 0.000000 0.000000
0.438460 1.398869 0.463585 0.000000 0.000000 0.000000
0.435085 1.678778 0.108879 0.000000 0.000000 0.000000
0.444776 1.687230 0.052391 0.000000 0.000000 0.000000
0.444815 1.391147 0.449537 0.000000 0.000000 0.000000
0.472675 1.664723 0.046027 0.000000 0.000000 0.000000
0.386972 1.636699 0.115074 0.000000 0.000000 0.000000
0.436838 1.666763 0.117324 0.000000 0.000000 0.000000
0.406077 1.397650 0.413254 0.000000 0.000000 0.000000
0.405764 1.392556 0.434711 0.000000 0.000000 0.000000
0.416073 1.396230 0.463995 0.000000 0.000000 0.000000
0.415512 1.678487 0.046049 0.000000 0.000000 0.000000
0.700611 1.345165 -0.015753 0.000000 0.000000 0.000000
0.404116 1.652576 0.135966 0.000000 0.000000 0.000000
0.397899 1.653822 0.134456 0.000000 0.000000 0.000000
0.401127 1.652179 0.101818 0.000000 0.000000 0.000000
0.394022 1.288831 0.501444 0.000000 0.000000 0.000000
0.404090 1.650319 0.133011 0.000000 0.000000 0.000000
0.445865 1.707644 0.065267 0.000000 0.000000 0.000000
0.402574 1.643597 0.081912 0.000000 0.000000 0.000000
0.408793 1.284858 0.514042 0.000000 0.000000 0.000000
0.652506 1.283689 -0.011823 0.000000 0.000000 0.000000
0.402331 1.656165 0.129709 0.000000 0.000000 0.000000
0.411873 1.393404 0.417027 0.000000 0.000000 0.000000
0.402210 1.650711 0.140567 0.000000 0.000000 0.000000
0.409961 1.284823 0.451460 0.000000 0.000000 0.000000
0.398404 1.648739 0.132817 0.000000 0.000000 0.000000
0.406202 1.391120 0.410060 0.000000 0.000000 0.000000
0.403538 1.651610 0.095435 0.000000 0.000000 0.000000
0.398456 1.649092 0.114211 0.000000 0.000000 0.000000
0.443255 1.715497 0.045033 0.000000 0.000000 0.000000
0.396711 1.652698 0.131988 0.000000 0.000000 0.000000
0.400962 1.654485 0.120649 0.000000 0.000000 0.000000
0.398633 1.648841 0.092560 0.000000 0.000000 0.000000
0.399716 1.644313 0.117801 0.000000 0.000000 0.000000
0.456391 1.679455 0.040478 0.000000 0.000000 0.000000
0.703608 1.339588 -0.014876 0.000000 0.000000 0.000000
0.398396 1.656878 0.130994 0.000000 0.000000 0.000000
0.425577 1.679804 0.123111 0.000000 0.000000 0.000000
0.393858 1.649050 0.145414 0.000000 0.000000 0.000000
0.412231 1.279520 0.459851 0.000000 0.000000 0.000000
0.689350 1.335689 -0.013076 0.000000 0.000000 0.000000
0.408842 1.389845 0.423061 0.000000 0.000000 0.000000
0.394305 1.266328 0.475577 0.000000 0.000000 0.000000
0.699236 1.340272 -0.014472 0.000000 0.000000 0.000000
0.691577 1.337039 -0.009551 0.000000 0.000000 0.000000
0.416402 1.268834 0.459329 0.000000 0.000000 0.000000
0.689248 1.341176 -0.013368 0.000000 0.000000 0.000000
0.404059 1.279216 0.461225 0.000000 0.000000 0.000000
0.692698 1.336084 -0.015006 0.000000 0.000000 0.000000
0.406143 1.393306 0.422916 0.000000 0.000000 0.000000
0.388061 1.264843 0.476135 0.000000 0.000000 0.000000
0.697658 1.338932 -0.020919 0.000000 0.000000 0.000000
0.414905 1.676269 0.069423 0.000000 0.000000 0.000000
0.651108 1.265675 -0.015880 0.000000 0.000000 0.000000
0.650660 1.269985 -0.017215 0.000000 0.000000 0.000000
0.453217 1.399108 0.452701 0.000000 0.000000 0.000000
0.639807 1.266416 -0.020511 0.000000 0.000000 0.000000
0.405747 1.647803 0.100577 0.000000 0.000000 0.000000
0.420368 1.674290 0.070177 0.000000 0.000000 0.000000
0.463385 1.653323 0.053653 0.000000 0.000000 0.000000
0.414497 1.671975 0.068074 0.000000 0.000000 0.000000
0.650741 1.285441 -0.031050 0.000000 0.000000 0.000000
0.395342 1.286584 0.499814 0.000000 0.000000 0.000000
0.462345 1.661923 0.046802 0.000000 0.000000 0.000000
0.651234 1.264898 -0.015575 0.000000 0.000000 0.000000
0.482705 1.665010 0.041924 0.000000 0.000000 0.000000
0.400249 1.275754 0.457474 0.000000 0.000000 0.000000
0.412311 1.671989 0.069829 0.000000 0.000000 0.000000
0.421128 1.267609 0.450496 0.000000 0.000000 0.000000
0.680405 1.328514 -0.016903 0.000000 0.000000 0.000000
0.409316 1.282320 0.473155 0.000000 0.000000 0.000000
0.418759 1.271785 0.448536 0.000000 0.000000 0.000000
0.481580 1.663359 0.044681 0.000000 0.000000 0.000000
0.393914 1.287211 0.497996 0.000000 0.000000 0.000000
0.416288 1.265377 0.448216 0.000000 0.000000 0.000000
0.407394 1.266760 0.443698 0.000000 0.000000 0.000000
0.395164 1.274667 0.470006 0.000000 0.000000 0.000000
0.406946 1.274339 0.468032 0.000000 0.000000 0.000000
0.414166 1.677789 0.069753 0.000000 0.000000 0.000000
0.400548 1.276456 0.462393 0.000000 0.000000 0.000000
0.413460 1.272673 0.449541 0.000000 0.000000 0.000000
0.408946 1.424165 0.449163 0.000000 0.000000 0.000000
0.411478 1.275815 0.466837 0.000000 0.000000 0.000000
0.406974 1.275472 0.469414 0.000000 0.000000 0.000000
0.475251 1.670437 0.047330 0.000000 0.000000 0.000000
0.402860 1.285827 0.487469 0.000000 0.000000 0.000000
0.399940 1.265251 0.451930 0.000000 0.000000 0.000000
0.416272 1.266304 0.443396 0.000000 0.000000 0.000000
0.401234 1.266552 0.454758 0.000000 0.000000 0.000000
0.631730 1.279453 -0.033146 0.000000 0.000000 0.000000
0.399899 1.279649 0.464018 0.000000 0.000000 0.000000
0.682277 1.355819 -0.021719 0.000000 0.000000 0.000000
0.399944 1.277631 0.469206 0.000000 0.000000 0.000000
0.703464 1.341563 -0.022495 0.000000 0.000000 0.000000
0.697078 1.337000 -0.018648 0.000000 0.000000 0.000000
0.654831 1.304837 -0.020064 0.000000 0.000000 0.000000
0.400221 1.281785 0.465313 0.000000 0.000000 0.000000
0.427976 1.283241 0.441859 0.000000 0.000000 0.000000
0.429184 1.672199 0.115251 0.000000 0.000000 0.000000
0.397519 1.649605 0.143136 0.000000 0.000000 0.000000
0.403681 1.286953 0.476296 0.000000 0.000000 0.000000
0.696732 1.338064 -0.017634 0.000000 0.000000 0.000000
0.419543 1.274921 0.442820 0.000000 0.000000 0.000000
0.403207 1.423413 0.444741 0.000000 0.000000 0.000000
0.394644 1.278464 0.468009 0.000000 0.000000 0.000000
0.402575 1.428763 0.446541 0.000000 0.000000 0.000000
0.662185 1.313608 -0.027284 0.000000 0.000000 0.000000
0.387788 1.279859 0.478665 0.000000 0.000000 0.000000
0.392706 1.278517 0.473181 0.000000 0.000000 0.000000
0.407008 1.285847 0.470952 0.000000 0.000000 0.000000
0.423000 1.280393 0.478791 0.000000 0.000000 0.000000
0.405598 1.648768 0.108314 0.000000 0.000000 0.000000
0.415833 1.405472 0.458058 0.000000 0.000000 0.000000
0.417213 1.277303 0.456050 0.000000 0.000000 0.000000
0.405329 1.662727 0.106291 0.000000 0.000000 0.000000
0.402083 1.423104 0.451132 0.000000 0.000000 0.000000
0.658712 1.314969 -0.030683 0.000000 0.000000 0.000000
0.388650 1.279398 0.479740 0.000000 0.000000 0.000000
0.391717 1.279562 0.471269 0.000000 0.000000 0.000000
0.404102 1.284966 0.470373 0.000000 0.000000 0.000000
0.417021 1.281606 0.494258 0.000000 0.000000 0.000000
0.420808 1.279906 0.443397 0.000000 0.000000 0.000000
0.407858 1.650303 0.103051 0.000000 0.000000 0.000000
0.411744 1.401552 0.459919 0.000000 0.000000 0.000000
0.402492 1.656429 0.117186 0.000000 0.000000 0.000000
0.408707 1.656125 0.104509 0.000000 0.000000 0.000000
0.404534 1.380265 0.412526 0.000000 0.000000 0.000000
0.470147 1.669429 0.054093 0.000000 0.000000 0.000000
0.693895 1.331154 -0.010574 0.000000 0.000000 0.000000
0.414307 1.652271 0.135504 0.000000 0.000000 0.000000
0.420606 1.401347 0.462994 0.000000 0.000000 0.000000
0.472991 1.671631 0.048616 0.000000 0.000000 0.000000
0.400367 1.417833 0.449551 0.000000 0.000000 0.000000
0.470097 1.670679 0.052983 0.000000 0.000000 0.000000
0.401689 1.407480 0.452329 0.000000 0.000000 0.000000
0.459135 1.675966 0.046568 0.000000 0.000000 0.000000
0.447279 1.394714 0.460937 0.000000 0.000000 0.000000
0.686580 1.325104 -0.004516 0.000000 0.000000 0.000000
0.692805 1.336482 -0.016380 0.000000 0.000000 0.000000
0.476050 1.667768 0.045202 0.000000 0.000000 0.000000
0.471556 1.664337 0.039218 0.000000 0.000000 0.000000
0.687420 1.333424 -0.013921 0.000000 0.000000 0.000000
0.692125 1.336934 -0.012872 0.000000 0.000000 0.000000
0.463121 1.666924 0.042729 0.000000 0.000000 0.000000
0.478174 1.655285 0.045735 0.000000 0.000000 0.000000
0.441771 1.674778 0.037770 0.000000 0.000000 0.000000
0.419988 1.280399 0.481553 0.000000 0.000000 0.000000
0.470351 1.665473 0.055504 0.000000 0.000000 0.000000
0.400231 1.286467 0.502473 0.000000 0.000000 0.000000
0.421603 1.397384 0.465547 0.000000 0.000000 0.000000
0.689870 1.333847 -0.011431 0.000000 0.000000 0.000000
0.439432 1.396170 0.457879 0.000000 0.000000 0.000000
0.384870 1.638824 0.102431 0.000000 0.000000 0.000000
0.473222 1.672610 0.054248 0.000000 0.000000 0.000000
0.410160 1.381482 0.409240 0.000000 0.000000 0.000000
0.473233 1.661036 0.052263 0.000000 0.000000 0.000000
0.469103 1.668551 0.051814 0.000000 0.000000 0.000000
0.698787 1.327787 -0.008871 0.000000 0.000000 0.000000
0.481983 1.663014 0.041062 0.000000 0.000000 0.000000
0.693745 1.332718 -0.008571 0.000000 0.000000 0.000000
0.473315 1.666523 0.052242 0.000000 0.000000 0.000000
0.478685 1.664501 0.048093 0.000000 0.000000 0.000000
0.408042 1.411841 0.474002 0.000000 0.000000 0.000000
0.472978 1.657843 0.050546 0.000000 0.000000 0.000000
0.469996 1.657092 0.040876 0.000000 0.000000 0.000000
0.471721 1.665695 0.044834 0.000000 0.000000 0.000000
0.470495 1.673843 0.052536 0.000000 0.000000 0.000000
0.687462 1.341405 -0.016505 0.000000 0.000000 0.000000
0.413407 1.382813 0.409247 0.000000 0.000000 0.000000
0.410388 1.382499 0.408099 0.000000 0.000000 0.000000
0.691872 1.337772 -0.014944 0.000000 0.000000 0.000000
0.407119 1.659064 0.083446 0.000000 0.000000 0.000000
0.692920 1.329863 -0.006786 0.000000 0.000000 0.000000
0.480166 1.661699 0.044945 0.000000 0.000000 0.000000
0.474184 1.668959 0.052138 0.000000 0.000000 0.000000
0.479816 1.668751 0.050856 0.000000 0.000000 0.000000
0.465472 1.663200 0.043022 0.000000 0.000000 0.000000
0.441715 1.717462 0.041703 0.000000 0.000000 0.000000
0.688031 1.337046 -0.015664 0.000000 0.000000 0.000000
0.483898 1.662586 0.039594 0.000000 0.000000 0.000000
0.397824 1.262794 0.442991 0.000000 0.000000 0.000000
0.402861 1.422640 0.455051 0.000000 0.000000 0.000000
0.400809 1.261141 0.463212 0.000000 0.000000 0.000000
0.394211 1.640793 0.155318 0.000000 0.000000 0.000000
0.407986 1.664499 0.081765 0.000000 0.000000 0.000000
0.455883 1.678211 0.046876 0.000000 0.000000 0.000000
0.472385 1.662676 0.045217 0.000000 0.000000 0.000000
0.402690 1.646274 0.096338 0.000000 0.000000 0.000000
0.464456 1.659218 0.048164 0.000000 0.000000 0.000000
0.431567 1.401874 0.472466 0.000000 0.000000 0.000000
0.470263 1.662168 0.043586 0.000000 0.000000 0.000000
0.401017 1.654495 0.083256 0.000000 0.000000 0.000000
0.686612 1.333692 -0.007557 0.000000 0.000000 0.000000
0.395366 1.641639 0.143496 0.000000 0.000000 0.000000
0.404221 1.419218 0.446158 0.000000 0.000000 0.000000
0.393421 1.267101 0.464799 0.000000 0.000000 0.000000
0.388681 1.649542 0.154374 0.000000 0.000000 0.000000
0.407049 1.667089 0.079040 0.000000 0.000000 0.000000
0.463551 1.669440 0.046008 0.000000 0.000000 0.000000
0.467563 1.664234 0.045615 0.000000 0.000000 0.000000
0.399604 1.649826 0.109315 0.000000 0.000000 0.000000
0.473331 1.660040 0.043657 0.000000 0.000000 0.000000
0.703009 1.335983 -0.006302 0.000000 0.000000 0.000000
0.436723 1.399420 0.468463 0.000000 0.000000 0.000000
0.466986 1.661132 0.042068 0.000000 0.000000 0.000000
0.402582 1.651335 0.082504 0.000000 0.000000 0.000000
0.682833 1.342921 -0.011280 0.000000 0.000000 0.000000
0.688068 1.335312 -0.008133 0.000000 0.000000 0.000000
0.397003 1.640793 0.145900 0.000000 0.000000 0.000000
0.684200 1.335498 -0.018097 0.000000 0.000000 0.000000
0.410184 1.426496 0.441720 0.000000 0.000000 0.000000
0.648389 1.283127 -0.026123 0.000000 0.000000 0.000000
0.449530 1.394789 0.456804 0.000000 0.000000 0.000000
0.476847 1.656100 0.044649 0.000000 0.000000 0.000000
0.449717 1.390926 0.455902 0.000000 0.000000 0.000000
0.637379 1.274623 -0.023631 0.000000 0.000000 0.000000
0.638811 1.275563 -0.016251 0.000000 0.000000 0.000000
0.379656 1.562867 0.414065 0.000000 0.000000 0.000000
0.459522 1.679443 0.050963 0.000000 0.000000 0.000000
0.420067 1.402813 0.459802 0.000000 0.000000 0.000000
0.656522 1.287621 -0.007386 0.000000 0.000000 0.000000
0.689190 1.333684 -0.020118 0.000000 0.000000 0.000000
0.639744 1.276746 -0.019992 0.000000 0.000000 0.000000
0.397429 1.288331 0.504984 0.000000 0.000000 0.000000
0.383487 1.562461 0.414463 0.000000 0.000000 0.000000
0.456899 1.679996 0.052279 0.000000 0.000000 0.000000
0.640257 1.271634 -0.020810 0.000000 0.000000 0.000000
0.453477 1.681075 0.047990 0.000000 0.000000 0.000000
0.396044 1.650415 0.104881 0.000000 0.000000 0.000000
0.370813 1.647953 0.087772 0.000000 0.000000 0.000000
0.431201 1.672081 0.113469 0.000000 0.000000 0.000000
0.432098 1.392928 0.462760 0.000000 0.000000 0.000000
0.650400 1.277286 -0.036230 0.000000 0.000000 0.000000
0.693767 1.336264 -0.015035 0.000000 0.000000 0.000000
0.443420 1.399516 0.459594 0.000000 0.000000 0.000000
0.478568 1.664661 0.043290 0.000000 0.000000 0.000000
0.451152 1.677971 0.043598 0.000000 0.000000 0.000000
0.466827 1.660676 0.042598 0.000000 0.000000 0.000000
0.461947 1.667834 0.049666 0.000000 0.000000 0.000000
0.455035 1.679532 0.050585 0.000000 0.000000 0.000000
0.396232 1.267651 0.451850 0.000000 0.000000 0.000000
0.452487 1.681983 0.050053 0.000000 0.000000 0.000000
0.370717 1.315398 0.517229 0.000000 0.000000 0.000000
0.435191 1.393381 0.473336 0.000000 0.000000 0.000000
0.386623 1.653247 0.084952 0.000000 0.000000 0.000000
0.462099 1.667521 0.050038 0.000000 0.000000 0.000000
0.458780 1.673155 0.050026 0.000000 0.000000 0.000000
0.449860 1.683648 0.050726 0.000000 0.000000 0.000000
0.438703 1.390176 0.469052 0.000000 0.000000 0.000000
0.460614 1.665988 0.043396 0.000000 0.000000 0.000000
0.363294 1.318635 0.513519 0.000000 0.000000 0.000000
0.653074 1.265475 -0.020861 0.000000 0.000000 0.000000
0.379510 1.654983 0.084850 0.000000 0.000000 0.000000
0.635359 1.268491 -0.020069 0.000000 0.000000 0.000000
0.456141 1.678593 0.055961 0.000000 0.000000 0.000000
0.380967 1.562752 0.401982 0.000000 0.000000 0.000000
0.646505 1.286933 -0.039171 0.000000 0.000000 0.000000
0.645569 1.270618 -0.019288 0.000000 0.000000 0.000000
0.646397 1.268615 -0.017048 0.000000 0.000000 0.000000
0.648285 1.265667 -0.017554 0.000000 0.000000 0.000000
0.693766 1.340160 -0.020085 0.000000 0.000000 0.000000
0.687540 1.340163 -0.017824 0.000000 0.000000 0.000000
0.691328 1.328856 -0.011267 0.000000 0.000000 0.000000
0.640651 1.317267 -0.007889 0.000000 0.000000 0.000000
0.419076 1.675570 0.100497 0.000000 0.000000 0.000000
0.400433 1.669224 0.060648 0.000000 0.000000 0.000000
0.392031 1.265054 0.453145 0.000000 0.000000 0.000000
0.389212 1.267925 0.466666 0.000000 0.000000 0.000000
0.442108 1.686574 0.059838 0.000000 0.000000 0.000000
0.442425 1.685326 0.055510 0.000000 0.000000 0.000000
0.660726 1.314437 -0.015672 0.000000 0.000000 0.000000
