ply
format ascii 1.0
comment VCGLIB generated
obj_info Generated by SPFormer!
element vertex 884
property float x
property float y
property float z
property float nx
property float ny
property float nz
end_header
0.601619 0.797928 1.452633 0.000000 0.000000 0.000000
0.701429 0.681697 1.544252 0.000000 0.000000 0.000000
0.539230 1.049133 1.486837 0.000000 0.000000 0.000000
0.786541 0.646170 1.754624 0.000000 0.000000 0.000000
0.532246 1.087715 1.507992 0.000000 0.000000 0.000000
0.777099 0.834914 1.768711 0.000000 0.000000 0.000000
0.725024 0.987801 1.736958 0.000000 0.000000 0.000000
0.727336 0.975152 1.741449 0.000000 0.000000 0.000000
0.612850 0.798222 1.452952 0.000000 0.000000 0.000000
0.548786 1.097392 1.539868 0.000000 0.000000 0.000000
0.717540 0.980393 1.723067 0.000000 0.000000 0.000000
0.553870 1.100127 1.536706 0.000000 0.000000 0.000000
0.539867 1.108940 1.531666 0.000000 0.000000 0.000000
0.703211 0.923977 1.671528 0.000000 0.000000 0.000000
0.813536 0.659367 1.688629 0.000000 0.000000 0.000000
0.714072 0.692661 1.579187 0.000000 0.000000 0.000000
0.597988 0.801117 1.451027 0.000000 0.000000 0.000000
0.534652 1.108683 1.533936 0.000000 0.000000 0.000000
0.595643 0.804703 1.444608 0.000000 0.000000 0.000000
0.816253 0.654575 1.676492 0.000000 0.000000 0.000000
0.652069 0.768916 1.472190 0.000000 0.000000 0.000000
0.793345 0.656664 1.653258 0.000000 0.000000 0.000000
0.707550 0.670754 1.560750 0.000000 0.000000 0.000000
0.795431 0.657671 1.657723 0.000000 0.000000 0.000000
0.803437 0.659394 1.666441 0.000000 0.000000 0.000000
0.772657 0.836790 1.763901 0.000000 0.000000 0.000000
0.768046 0.854500 1.763622 0.000000 0.000000 0.000000
0.534645 1.085826 1.512148 0.000000 0.000000 0.000000
0.804993 0.655364 1.664633 0.000000 0.000000 0.000000
0.804027 0.664907 1.693623 0.000000 0.000000 0.000000
0.820041 0.648915 1.708679 0.000000 0.000000 0.000000
0.716575 0.658867 1.580860 0.000000 0.000000 0.000000
0.589142 0.921331 1.465714 0.000000 0.000000 0.000000
0.728241 0.755223 1.625202 0.000000 0.000000 0.000000
0.725652 0.764594 1.622781 0.000000 0.000000 0.000000
0.719141 0.781692 1.614217 0.000000 0.000000 0.000000
0.741206 0.818626 1.690835 0.000000 0.000000 0.000000
0.541791 1.114342 1.533790 0.000000 0.000000 0.000000
0.796980 0.663879 1.666333 0.000000 0.000000 0.000000
0.720668 0.797769 1.627480 0.000000 0.000000 0.000000
0.734192 0.803282 1.669646 0.000000 0.000000 0.000000
0.718306 0.774864 1.606596 0.000000 0.000000 0.000000
0.702771 0.845710 1.614288 0.000000 0.000000 0.000000
0.679774 0.715002 1.521766 0.000000 0.000000 0.000000
0.732416 0.822306 1.675783 0.000000 0.000000 0.000000
0.716907 0.778202 1.605697 0.000000 0.000000 0.000000
0.727256 0.763372 1.624166 0.000000 0.000000 0.000000
0.702702 0.805596 1.591670 0.000000 0.000000 0.000000
0.743324 0.796878 1.688893 0.000000 0.000000 0.000000
0.704968 0.676852 1.553633 0.000000 0.000000 0.000000
0.770306 0.842182 1.768089 0.000000 0.000000 0.000000
0.803587 0.660994 1.674199 0.000000 0.000000 0.000000
0.733908 0.795071 1.668514 0.000000 0.000000 0.000000
0.741436 0.777810 1.672664 0.000000 0.000000 0.000000
0.616025 1.102542 1.603929 0.000000 0.000000 0.000000
0.720678 0.772654 1.611227 0.000000 0.000000 0.000000
0.710201 0.664533 1.569421 0.000000 0.000000 0.000000
0.703730 0.840823 1.609919 0.000000 0.000000 0.000000
0.793991 0.660086 1.659676 0.000000 0.000000 0.000000
0.597113 1.105200 1.580673 0.000000 0.000000 0.000000
0.574646 0.954112 1.413177 0.000000 0.000000 0.000000
0.531679 1.053844 1.483271 0.000000 0.000000 0.000000
0.708677 0.666605 1.568541 0.000000 0.000000 0.000000
0.803613 0.631789 1.752265 0.000000 0.000000 0.000000
0.542759 1.036266 1.469605 0.000000 0.000000 0.000000
0.560134 1.127030 1.543845 0.000000 0.000000 0.000000
0.777051 0.834258 1.764034 0.000000 0.000000 0.000000
0.568930 0.981804 1.450156 0.000000 0.000000 0.000000
0.602949 0.810532 1.440355 0.000000 0.000000 0.000000
0.603195 0.813240 1.451136 0.000000 0.000000 0.000000
0.633602 0.788794 1.455537 0.000000 0.000000 0.000000
0.583970 0.916734 1.402366 0.000000 0.000000 0.000000
0.566145 0.996307 1.443018 0.000000 0.000000 0.000000
0.780375 0.821314 1.765190 0.000000 0.000000 0.000000
0.774592 0.838831 1.768558 0.000000 0.000000 0.000000
0.603357 0.818269 1.429434 0.000000 0.000000 0.000000
0.605884 0.828409 1.456361 0.000000 0.000000 0.000000
0.777631 0.830689 1.766983 0.000000 0.000000 0.000000
0.765387 0.850885 1.760226 0.000000 0.000000 0.000000
0.813178 0.659393 1.677398 0.000000 0.000000 0.000000
0.644734 0.781546 1.452493 0.000000 0.000000 0.000000
0.545264 1.039453 1.485914 0.000000 0.000000 0.000000
0.579954 0.919237 1.404216 0.000000 0.000000 0.000000
0.537898 1.045922 1.478245 0.000000 0.000000 0.000000
0.781762 0.650625 1.646130 0.000000 0.000000 0.000000
0.534917 1.045763 1.478275 0.000000 0.000000 0.000000
0.756003 0.651208 1.630013 0.000000 0.000000 0.000000
0.542820 1.043335 1.467526 0.000000 0.000000 0.000000
0.580246 0.925139 1.403924 0.000000 0.000000 0.000000
0.647843 0.779474 1.452697 0.000000 0.000000 0.000000
0.577438 0.923630 1.406636 0.000000 0.000000 0.000000
0.784214 0.658635 1.758252 0.000000 0.000000 0.000000
0.561344 0.999700 1.448233 0.000000 0.000000 0.000000
0.758834 0.678604 1.638711 0.000000 0.000000 0.000000
0.677894 0.718789 1.513569 0.000000 0.000000 0.000000
0.539307 1.044387 1.480723 0.000000 0.000000 0.000000
0.546488 1.036288 1.478936 0.000000 0.000000 0.000000
0.535306 1.045135 1.473852 0.000000 0.000000 0.000000
0.767619 0.650735 1.639075 0.000000 0.000000 0.000000
0.802053 0.656424 1.667424 0.000000 0.000000 0.000000
0.532805 1.050396 1.476867 0.000000 0.000000 0.000000
0.768100 0.652330 1.635329 0.000000 0.000000 0.000000
0.553144 1.030198 1.484666 0.000000 0.000000 0.000000
0.796942 0.643967 1.748749 0.000000 0.000000 0.000000
0.649342 0.774212 1.460458 0.000000 0.000000 0.000000
0.814135 0.658168 1.679592 0.000000 0.000000 0.000000
0.579907 0.915342 1.405885 0.000000 0.000000 0.000000
0.784571 0.650767 1.758424 0.000000 0.000000 0.000000
0.566181 0.988874 1.443335 0.000000 0.000000 0.000000
0.563683 1.010882 1.479486 0.000000 0.000000 0.000000
0.768546 0.663069 1.640444 0.000000 0.000000 0.000000
0.678839 0.714153 1.513152 0.000000 0.000000 0.000000
0.548156 1.033599 1.478966 0.000000 0.000000 0.000000
0.804075 0.660872 1.680802 0.000000 0.000000 0.000000
0.761660 0.656412 1.634077 0.000000 0.000000 0.000000
0.799143 0.639806 1.745021 0.000000 0.000000 0.000000
0.644004 0.779282 1.452937 0.000000 0.000000 0.000000
0.818710 0.652742 1.692652 0.000000 0.000000 0.000000
0.665017 0.725850 1.497611 0.000000 0.000000 0.000000
0.541789 1.099873 1.529325 0.000000 0.000000 0.000000
0.782363 0.650793 1.646892 0.000000 0.000000 0.000000
0.740514 0.648506 1.608976 0.000000 0.000000 0.000000
0.793864 0.744488 1.764524 0.000000 0.000000 0.000000
0.798227 0.638493 1.747430 0.000000 0.000000 0.000000
0.779653 0.644300 1.763635 0.000000 0.000000 0.000000
0.787715 0.806640 1.768317 0.000000 0.000000 0.000000
0.532042 1.093697 1.514570 0.000000 0.000000 0.000000
0.601712 0.813816 1.431337 0.000000 0.000000 0.000000
0.582656 1.091460 1.560643 0.000000 0.000000 0.000000
0.591012 1.082301 1.566762 0.000000 0.000000 0.000000
0.694754 0.799913 1.575245 0.000000 0.000000 0.000000
0.778154 0.650919 1.758693 0.000000 0.000000 0.000000
0.530169 1.103308 1.525004 0.000000 0.000000 0.000000
0.590166 1.096438 1.566916 0.000000 0.000000 0.000000
0.580053 1.092707 1.561204 0.000000 0.000000 0.000000
0.697679 1.073007 1.654279 0.000000 0.000000 0.000000
0.557960 1.086314 1.537391 0.000000 0.000000 0.000000
0.558768 1.105684 1.542650 0.000000 0.000000 0.000000
0.794714 0.749007 1.763779 0.000000 0.000000 0.000000
0.542158 1.102631 1.530885 0.000000 0.000000 0.000000
0.575121 1.087552 1.553255 0.000000 0.000000 0.000000
0.664321 0.747759 1.494442 0.000000 0.000000 0.000000
0.778536 0.648305 1.758515 0.000000 0.000000 0.000000
0.529325 1.100026 1.528372 0.000000 0.000000 0.000000
0.574033 1.092792 1.550535 0.000000 0.000000 0.000000
0.570244 1.105701 1.551225 0.000000 0.000000 0.000000
0.566388 1.095503 1.542694 0.000000 0.000000 0.000000
0.538522 1.108799 1.532001 0.000000 0.000000 0.000000
0.793407 0.737172 1.763443 0.000000 0.000000 0.000000
0.736815 0.952820 1.746580 0.000000 0.000000 0.000000
0.791205 0.755937 1.764707 0.000000 0.000000 0.000000
0.558190 1.103621 1.540288 0.000000 0.000000 0.000000
0.643637 0.785441 1.468998 0.000000 0.000000 0.000000
0.643970 0.778989 1.458723 0.000000 0.000000 0.000000
0.600390 0.812208 1.443161 0.000000 0.000000 0.000000
0.537681 1.072693 1.510640 0.000000 0.000000 0.000000
0.787758 0.663559 1.655329 0.000000 0.000000 0.000000
0.799013 0.659354 1.662296 0.000000 0.000000 0.000000
0.799550 0.653063 1.656279 0.000000 0.000000 0.000000
0.557844 1.027307 1.456222 0.000000 0.000000 0.000000
0.789768 0.644675 1.752312 0.000000 0.000000 0.000000
0.791675 0.765948 1.763909 0.000000 0.000000 0.000000
0.790052 0.767744 1.761575 0.000000 0.000000 0.000000
0.601532 0.811488 1.437479 0.000000 0.000000 0.000000
0.781420 0.672004 1.654888 0.000000 0.000000 0.000000
0.632923 0.787897 1.453893 0.000000 0.000000 0.000000
0.661611 0.750649 1.481575 0.000000 0.000000 0.000000
0.786133 0.676256 1.673779 0.000000 0.000000 0.000000
0.659025 0.757632 1.481919 0.000000 0.000000 0.000000
0.628525 0.791702 1.456987 0.000000 0.000000 0.000000
0.782720 0.648805 1.647631 0.000000 0.000000 0.000000
0.791076 0.658500 1.654674 0.000000 0.000000 0.000000
0.771566 0.873603 1.765486 0.000000 0.000000 0.000000
0.568498 0.980549 1.429537 0.000000 0.000000 0.000000
0.638675 0.796320 1.477879 0.000000 0.000000 0.000000
0.790868 0.662296 1.657420 0.000000 0.000000 0.000000
0.639938 0.782937 1.456420 0.000000 0.000000 0.000000
0.718615 0.665548 1.584701 0.000000 0.000000 0.000000
0.786691 0.668226 1.663181 0.000000 0.000000 0.000000
0.656180 0.765802 1.481235 0.000000 0.000000 0.000000
0.820422 0.649931 1.678009 0.000000 0.000000 0.000000
0.789309 0.648240 1.650591 0.000000 0.000000 0.000000
0.790479 0.659945 1.656843 0.000000 0.000000 0.000000
0.770732 0.869067 1.766659 0.000000 0.000000 0.000000
0.568172 0.973105 1.422758 0.000000 0.000000 0.000000
0.762752 0.707890 1.694445 0.000000 0.000000 0.000000
0.796949 0.646519 1.651027 0.000000 0.000000 0.000000
0.570844 0.942188 1.407307 0.000000 0.000000 0.000000
0.532283 1.075891 1.499823 0.000000 0.000000 0.000000
0.544273 1.036640 1.469305 0.000000 0.000000 0.000000
0.812775 0.653282 1.663340 0.000000 0.000000 0.000000
0.570804 0.956244 1.412475 0.000000 0.000000 0.000000
0.573386 0.940779 1.409595 0.000000 0.000000 0.000000
0.582524 0.950255 1.468811 0.000000 0.000000 0.000000
0.575993 0.933888 1.406013 0.000000 0.000000 0.000000
0.610478 1.115840 1.603325 0.000000 0.000000 0.000000
0.572751 0.945826 1.413230 0.000000 0.000000 0.000000
0.791317 0.773925 1.764977 0.000000 0.000000 0.000000
0.611592 1.132019 1.597152 0.000000 0.000000 0.000000
0.572988 0.935430 1.406549 0.000000 0.000000 0.000000
0.579394 0.951679 1.452174 0.000000 0.000000 0.000000
0.578171 0.940845 1.421658 0.000000 0.000000 0.000000
0.766515 0.862773 1.759517 0.000000 0.000000 0.000000
0.578435 0.942426 1.429262 0.000000 0.000000 0.000000
0.603284 1.102369 1.589739 0.000000 0.000000 0.000000
0.796736 0.759524 1.768779 0.000000 0.000000 0.000000
0.601756 1.104086 1.589433 0.000000 0.000000 0.000000
0.705031 0.680907 1.554715 0.000000 0.000000 0.000000
0.532600 1.066045 1.493266 0.000000 0.000000 0.000000
0.544194 1.037221 1.469551 0.000000 0.000000 0.000000
0.541959 1.063364 1.499823 0.000000 0.000000 0.000000
0.543050 1.037312 1.468121 0.000000 0.000000 0.000000
0.793109 0.663858 1.661895 0.000000 0.000000 0.000000
0.702383 0.680827 1.548299 0.000000 0.000000 0.000000
0.551602 1.031193 1.483158 0.000000 0.000000 0.000000
0.531691 1.091781 1.509207 0.000000 0.000000 0.000000
0.708020 0.674217 1.551824 0.000000 0.000000 0.000000
0.541664 1.037965 1.467299 0.000000 0.000000 0.000000
0.530650 1.075523 1.496577 0.000000 0.000000 0.000000
0.561554 1.121078 1.547105 0.000000 0.000000 0.000000
0.542070 1.036817 1.471889 0.000000 0.000000 0.000000
0.542340 1.037484 1.465590 0.000000 0.000000 0.000000
0.552917 1.030081 1.468899 0.000000 0.000000 0.000000
0.795170 0.656222 1.655378 0.000000 0.000000 0.000000
0.708317 0.671702 1.562472 0.000000 0.000000 0.000000
0.706116 0.679044 1.558985 0.000000 0.000000 0.000000
0.768361 0.882275 1.758473 0.000000 0.000000 0.000000
0.556728 1.024707 1.468794 0.000000 0.000000 0.000000
0.545813 1.032070 1.466397 0.000000 0.000000 0.000000
0.786318 0.663294 1.649814 0.000000 0.000000 0.000000
0.707626 0.675654 1.560360 0.000000 0.000000 0.000000
0.812166 0.637583 1.730959 0.000000 0.000000 0.000000
0.811394 0.639490 1.726033 0.000000 0.000000 0.000000
0.810530 0.645139 1.712848 0.000000 0.000000 0.000000
0.812348 0.641291 1.720363 0.000000 0.000000 0.000000
0.775939 0.686550 1.756362 0.000000 0.000000 0.000000
0.684385 0.709471 1.522397 0.000000 0.000000 0.000000
0.682133 0.722585 1.528850 0.000000 0.000000 0.000000
0.807954 0.633654 1.737882 0.000000 0.000000 0.000000
0.682544 0.708725 1.520765 0.000000 0.000000 0.000000
0.535167 1.051037 1.479526 0.000000 0.000000 0.000000
0.813812 0.651813 1.707035 0.000000 0.000000 0.000000
0.597239 0.920116 1.486942 0.000000 0.000000 0.000000
0.715486 0.784891 1.604186 0.000000 0.000000 0.000000
0.629369 1.107122 1.622393 0.000000 0.000000 0.000000
0.750201 0.657796 1.625255 0.000000 0.000000 0.000000
0.625693 1.097455 1.608890 0.000000 0.000000 0.000000
0.745761 0.664223 1.619816 0.000000 0.000000 0.000000
0.561070 1.027042 1.455380 0.000000 0.000000 0.000000
0.817616 0.649927 1.706424 0.000000 0.000000 0.000000
0.810600 0.640467 1.723342 0.000000 0.000000 0.000000
0.565019 1.006438 1.449416 0.000000 0.000000 0.000000
0.714098 0.743468 1.593727 0.000000 0.000000 0.000000
0.651961 1.097054 1.634081 0.000000 0.000000 0.000000
0.589848 0.868795 1.405554 0.000000 0.000000 0.000000
0.756509 0.719654 1.692899 0.000000 0.000000 0.000000
0.754427 0.660707 1.628072 0.000000 0.000000 0.000000
0.678735 0.713594 1.516905 0.000000 0.000000 0.000000
0.683302 0.706599 1.520319 0.000000 0.000000 0.000000
0.625625 1.118233 1.618980 0.000000 0.000000 0.000000
0.809731 0.653893 1.712862 0.000000 0.000000 0.000000
0.619061 1.114457 1.613671 0.000000 0.000000 0.000000
0.801060 0.657796 1.707912 0.000000 0.000000 0.000000
0.585314 0.955059 1.489874 0.000000 0.000000 0.000000
0.740510 0.653080 1.614027 0.000000 0.000000 0.000000
0.719169 0.778277 1.606390 0.000000 0.000000 0.000000
0.640772 1.103529 1.626943 0.000000 0.000000 0.000000
0.719052 0.761299 1.605144 0.000000 0.000000 0.000000
0.736676 0.677218 1.611106 0.000000 0.000000 0.000000
0.809242 0.642753 1.723536 0.000000 0.000000 0.000000
0.762439 0.656772 1.635398 0.000000 0.000000 0.000000
0.746802 0.649465 1.620840 0.000000 0.000000 0.000000
0.813193 0.648803 1.707224 0.000000 0.000000 0.000000
0.594697 0.938612 1.488703 0.000000 0.000000 0.000000
0.563008 1.010035 1.447881 0.000000 0.000000 0.000000
0.632991 1.090981 1.618418 0.000000 0.000000 0.000000
0.791532 0.722951 1.765540 0.000000 0.000000 0.000000
0.746872 0.758369 1.688994 0.000000 0.000000 0.000000
0.757404 0.659155 1.630204 0.000000 0.000000 0.000000
0.684761 0.709140 1.524975 0.000000 0.000000 0.000000
0.673707 0.718360 1.508807 0.000000 0.000000 0.000000
0.604295 0.818277 1.432151 0.000000 0.000000 0.000000
0.563238 1.010959 1.451548 0.000000 0.000000 0.000000
0.617431 1.085764 1.605268 0.000000 0.000000 0.000000
0.605018 1.124147 1.593916 0.000000 0.000000 0.000000
0.566900 0.997157 1.440728 0.000000 0.000000 0.000000
0.702010 0.686240 1.553098 0.000000 0.000000 0.000000
0.668902 0.737069 1.495010 0.000000 0.000000 0.000000
0.572605 0.953242 1.412556 0.000000 0.000000 0.000000
0.793401 0.754904 1.761384 0.000000 0.000000 0.000000
0.535187 1.073821 1.501489 0.000000 0.000000 0.000000
0.700296 0.684556 1.543709 0.000000 0.000000 0.000000
0.790446 0.751379 1.764638 0.000000 0.000000 0.000000
0.686287 0.705126 1.523735 0.000000 0.000000 0.000000
0.703798 0.681938 1.550088 0.000000 0.000000 0.000000
0.769995 0.866368 1.762515 0.000000 0.000000 0.000000
0.770758 0.869722 1.763976 0.000000 0.000000 0.000000
0.532567 1.079530 1.504703 0.000000 0.000000 0.000000
0.583096 0.903041 1.404085 0.000000 0.000000 0.000000
0.769564 0.867042 1.762211 0.000000 0.000000 0.000000
0.666680 0.847932 1.545878 0.000000 0.000000 0.000000
0.601760 0.820691 1.439871 0.000000 0.000000 0.000000
0.659415 0.819642 1.528856 0.000000 0.000000 0.000000
0.573017 0.964902 1.433973 0.000000 0.000000 0.000000
0.665097 0.747712 1.491920 0.000000 0.000000 0.000000
0.668257 0.731028 1.495269 0.000000 0.000000 0.000000
0.674422 0.723975 1.508341 0.000000 0.000000 0.000000
0.762464 0.872566 1.758426 0.000000 0.000000 0.000000
0.718052 0.994177 1.719594 0.000000 0.000000 0.000000
0.675467 0.797807 1.546306 0.000000 0.000000 0.000000
0.597604 0.843166 1.416018 0.000000 0.000000 0.000000
0.674297 0.729943 1.517955 0.000000 0.000000 0.000000
0.669848 0.729630 1.499593 0.000000 0.000000 0.000000
0.666998 0.724679 1.499769 0.000000 0.000000 0.000000
0.609317 1.114849 1.600480 0.000000 0.000000 0.000000
0.626926 1.119396 1.621029 0.000000 0.000000 0.000000
0.785457 0.648777 1.750571 0.000000 0.000000 0.000000
0.541141 1.036522 1.469291 0.000000 0.000000 0.000000
0.794614 0.763170 1.764049 0.000000 0.000000 0.000000
0.605473 0.819140 1.428254 0.000000 0.000000 0.000000
0.696807 0.928884 1.655597 0.000000 0.000000 0.000000
0.780633 0.789735 1.757025 0.000000 0.000000 0.000000
0.784338 0.786539 1.759457 0.000000 0.000000 0.000000
0.698733 0.924551 1.658737 0.000000 0.000000 0.000000
0.804071 0.656690 1.722056 0.000000 0.000000 0.000000
0.570990 0.993072 1.493418 0.000000 0.000000 0.000000
0.808724 0.636422 1.731060 0.000000 0.000000 0.000000
0.651509 0.773930 1.454506 0.000000 0.000000 0.000000
0.534339 1.110625 1.531270 0.000000 0.000000 0.000000
0.532623 1.085303 1.509426 0.000000 0.000000 0.000000
0.808610 0.654576 1.721710 0.000000 0.000000 0.000000
0.529775 1.101637 1.517552 0.000000 0.000000 0.000000
0.625431 0.790585 1.452332 0.000000 0.000000 0.000000
0.803499 0.637434 1.737667 0.000000 0.000000 0.000000
0.743691 0.933408 1.746524 0.000000 0.000000 0.000000
0.530705 1.059359 1.498349 0.000000 0.000000 0.000000
0.530092 1.095220 1.512263 0.000000 0.000000 0.000000
0.526804 1.070004 1.484928 0.000000 0.000000 0.000000
0.579373 0.959142 1.474629 0.000000 0.000000 0.000000
0.577983 0.944625 1.444080 0.000000 0.000000 0.000000
0.564478 1.010146 1.485411 0.000000 0.000000 0.000000
0.568367 0.991382 1.464241 0.000000 0.000000 0.000000
0.602337 1.052114 1.572485 0.000000 0.000000 0.000000
0.726633 0.957096 1.731347 0.000000 0.000000 0.000000
0.582958 0.934514 1.450355 0.000000 0.000000 0.000000
0.805048 0.645075 1.724915 0.000000 0.000000 0.000000
0.571583 0.987841 1.474035 0.000000 0.000000 0.000000
0.718310 0.739177 1.599513 0.000000 0.000000 0.000000
0.600964 0.831333 1.443822 0.000000 0.000000 0.000000
0.605547 0.876010 1.474262 0.000000 0.000000 0.000000
0.804433 0.639545 1.736921 0.000000 0.000000 0.000000
0.717609 0.948852 1.710842 0.000000 0.000000 0.000000
0.580236 0.938194 1.441025 0.000000 0.000000 0.000000
0.568926 0.991908 1.477018 0.000000 0.000000 0.000000
0.725990 0.917242 1.710306 0.000000 0.000000 0.000000
0.566344 1.000728 1.488765 0.000000 0.000000 0.000000
0.697703 0.897809 1.633944 0.000000 0.000000 0.000000
0.547189 1.070339 1.521449 0.000000 0.000000 0.000000
0.684089 0.877549 1.584504 0.000000 0.000000 0.000000
0.612644 1.026432 1.566787 0.000000 0.000000 0.000000
0.667532 0.938664 1.605646 0.000000 0.000000 0.000000
0.689926 0.964390 1.657863 0.000000 0.000000 0.000000
0.676669 0.899241 1.586714 0.000000 0.000000 0.000000
0.682071 0.762287 1.544176 0.000000 0.000000 0.000000
0.616572 0.822238 1.468445 0.000000 0.000000 0.000000
0.588605 0.945619 1.488555 0.000000 0.000000 0.000000
0.589207 0.913264 1.448529 0.000000 0.000000 0.000000
0.705071 0.882383 1.636724 0.000000 0.000000 0.000000
0.541547 1.078313 1.521348 0.000000 0.000000 0.000000
0.637610 0.871246 1.508715 0.000000 0.000000 0.000000
0.663064 0.994048 1.632000 0.000000 0.000000 0.000000
0.682444 0.977098 1.652502 0.000000 0.000000 0.000000
0.579341 0.958266 1.470331 0.000000 0.000000 0.000000
0.730432 0.775945 1.647403 0.000000 0.000000 0.000000
0.620012 1.076714 1.600985 0.000000 0.000000 0.000000
0.707535 0.938018 1.684321 0.000000 0.000000 0.000000
0.617187 0.927247 1.517417 0.000000 0.000000 0.000000
0.561930 1.012508 1.459783 0.000000 0.000000 0.000000
0.593277 0.959659 1.504049 0.000000 0.000000 0.000000
0.696060 0.837330 1.593000 0.000000 0.000000 0.000000
0.646291 1.067400 1.625266 0.000000 0.000000 0.000000
0.618103 0.922263 1.515513 0.000000 0.000000 0.000000
0.668287 0.903568 1.576739 0.000000 0.000000 0.000000
0.704200 0.953497 1.687380 0.000000 0.000000 0.000000
0.671690 0.925991 1.599605 0.000000 0.000000 0.000000
0.608696 1.087430 1.589613 0.000000 0.000000 0.000000
0.690403 0.996132 1.675434 0.000000 0.000000 0.000000
0.681350 0.928943 1.624057 0.000000 0.000000 0.000000
0.571976 0.983429 1.475592 0.000000 0.000000 0.000000
0.554110 1.034503 1.497462 0.000000 0.000000 0.000000
0.732302 0.957836 1.739263 0.000000 0.000000 0.000000
0.735691 0.954310 1.747157 0.000000 0.000000 0.000000
0.793142 0.661393 1.728090 0.000000 0.000000 0.000000
0.674655 0.903315 1.593497 0.000000 0.000000 0.000000
0.609582 0.867878 1.473824 0.000000 0.000000 0.000000
0.581032 0.928613 1.439898 0.000000 0.000000 0.000000
0.812656 0.649552 1.718545 0.000000 0.000000 0.000000
0.799899 0.661890 1.717964 0.000000 0.000000 0.000000
0.611106 0.865851 1.479548 0.000000 0.000000 0.000000
0.649143 1.019319 1.616353 0.000000 0.000000 0.000000
0.605339 0.879170 1.483932 0.000000 0.000000 0.000000
0.580765 0.932332 1.433937 0.000000 0.000000 0.000000
0.597490 0.865102 1.444877 0.000000 0.000000 0.000000
0.596820 0.843317 1.425572 0.000000 0.000000 0.000000
0.625855 0.864424 1.494219 0.000000 0.000000 0.000000
0.563900 1.075488 1.542553 0.000000 0.000000 0.000000
0.711278 0.938511 1.694551 0.000000 0.000000 0.000000
0.614898 1.000793 1.558942 0.000000 0.000000 0.000000
0.703741 0.773751 1.585750 0.000000 0.000000 0.000000
0.590383 0.968749 1.502625 0.000000 0.000000 0.000000
0.605777 0.866049 1.466912 0.000000 0.000000 0.000000
0.633042 0.927598 1.538815 0.000000 0.000000 0.000000
0.676937 1.018575 1.649858 0.000000 0.000000 0.000000
0.731476 0.936632 1.729143 0.000000 0.000000 0.000000
0.602199 1.103313 1.589450 0.000000 0.000000 0.000000
0.637991 0.950223 1.565414 0.000000 0.000000 0.000000
0.640348 1.100134 1.625714 0.000000 0.000000 0.000000
0.584108 0.921234 1.439890 0.000000 0.000000 0.000000
0.665029 0.844267 1.546585 0.000000 0.000000 0.000000
0.598275 1.059588 1.567859 0.000000 0.000000 0.000000
0.701872 0.810486 1.591577 0.000000 0.000000 0.000000
0.671431 1.089869 1.641361 0.000000 0.000000 0.000000
0.588913 0.903771 1.442058 0.000000 0.000000 0.000000
0.578431 0.959378 1.452591 0.000000 0.000000 0.000000
0.714883 0.937173 1.696651 0.000000 0.000000 0.000000
0.593093 0.890372 1.446601 0.000000 0.000000 0.000000
0.637566 0.919288 1.543653 0.000000 0.000000 0.000000
0.580586 0.933421 1.428498 0.000000 0.000000 0.000000
0.593019 1.050645 1.561306 0.000000 0.000000 0.000000
0.630568 0.987022 1.578436 0.000000 0.000000 0.000000
0.617173 1.069401 1.597370 0.000000 0.000000 0.000000
0.633937 0.977933 1.576990 0.000000 0.000000 0.000000
0.661205 0.952772 1.608209 0.000000 0.000000 0.000000
0.666556 0.865285 1.551832 0.000000 0.000000 0.000000
0.728993 0.921989 1.717732 0.000000 0.000000 0.000000
0.683048 0.794267 1.556275 0.000000 0.000000 0.000000
0.711392 0.872680 1.652149 0.000000 0.000000 0.000000
0.556541 1.032160 1.503673 0.000000 0.000000 0.000000
0.747425 0.863869 1.723963 0.000000 0.000000 0.000000
0.627868 0.938487 1.540853 0.000000 0.000000 0.000000
0.687692 0.889184 1.606184 0.000000 0.000000 0.000000
0.700098 0.872286 1.630753 0.000000 0.000000 0.000000
0.634495 0.825080 1.491116 0.000000 0.000000 0.000000
0.614529 1.008775 1.565737 0.000000 0.000000 0.000000
0.636079 1.014374 1.601299 0.000000 0.000000 0.000000
0.569667 0.993140 1.490985 0.000000 0.000000 0.000000
0.663541 0.929168 1.593893 0.000000 0.000000 0.000000
0.597499 0.982323 1.541294 0.000000 0.000000 0.000000
0.690247 0.902828 1.625438 0.000000 0.000000 0.000000
0.557278 1.027896 1.498689 0.000000 0.000000 0.000000
0.605716 0.890735 1.485343 0.000000 0.000000 0.000000
0.635842 0.980997 1.579719 0.000000 0.000000 0.000000
0.642050 1.010686 1.608366 0.000000 0.000000 0.000000
0.606490 1.062851 1.578603 0.000000 0.000000 0.000000
0.539558 1.095253 1.532147 0.000000 0.000000 0.000000
0.582536 1.058582 1.553563 0.000000 0.000000 0.000000
0.600694 1.032572 1.559874 0.000000 0.000000 0.000000
0.565924 1.060960 1.539766 0.000000 0.000000 0.000000
0.544136 1.067728 1.515437 0.000000 0.000000 0.000000
0.796225 0.645191 1.738994 0.000000 0.000000 0.000000
0.790069 0.673419 1.698764 0.000000 0.000000 0.000000
0.551539 1.081915 1.533715 0.000000 0.000000 0.000000
0.617521 0.999921 1.565386 0.000000 0.000000 0.000000
0.612283 1.070953 1.589425 0.000000 0.000000 0.000000
0.734199 0.962011 1.746385 0.000000 0.000000 0.000000
0.802099 0.653195 1.726504 0.000000 0.000000 0.000000
0.804710 0.648832 1.729564 0.000000 0.000000 0.000000
0.803496 0.662839 1.712604 0.000000 0.000000 0.000000
0.782609 0.668873 1.729778 0.000000 0.000000 0.000000
0.598554 1.026968 1.556977 0.000000 0.000000 0.000000
0.686525 0.960012 1.654239 0.000000 0.000000 0.000000
0.678197 1.006394 1.659054 0.000000 0.000000 0.000000
0.751830 0.925544 1.751847 0.000000 0.000000 0.000000
0.529423 1.097044 1.525129 0.000000 0.000000 0.000000
0.579994 0.957730 1.477897 0.000000 0.000000 0.000000
0.559555 1.024203 1.474429 0.000000 0.000000 0.000000
0.657628 1.074307 1.632668 0.000000 0.000000 0.000000
0.550533 1.101638 1.536276 0.000000 0.000000 0.000000
0.590817 1.095850 1.572073 0.000000 0.000000 0.000000
0.561465 1.088251 1.540910 0.000000 0.000000 0.000000
0.585028 0.935306 1.457993 0.000000 0.000000 0.000000
0.566642 0.999596 1.455522 0.000000 0.000000 0.000000
0.531974 1.074465 1.504358 0.000000 0.000000 0.000000
0.573779 0.974195 1.466536 0.000000 0.000000 0.000000
0.699254 1.017812 1.661931 0.000000 0.000000 0.000000
0.581585 0.940617 1.447851 0.000000 0.000000 0.000000
0.572479 0.985059 1.482136 0.000000 0.000000 0.000000
0.565006 1.003242 1.481426 0.000000 0.000000 0.000000
0.591024 1.051223 1.556558 0.000000 0.000000 0.000000
0.726289 0.960562 1.731376 0.000000 0.000000 0.000000
0.579400 0.946826 1.436991 0.000000 0.000000 0.000000
0.795001 0.661554 1.722115 0.000000 0.000000 0.000000
0.809220 0.644998 1.726280 0.000000 0.000000 0.000000
0.574629 0.986552 1.489565 0.000000 0.000000 0.000000
0.704149 0.768815 1.583116 0.000000 0.000000 0.000000
0.599728 0.831846 1.433910 0.000000 0.000000 0.000000
0.610647 0.872757 1.480606 0.000000 0.000000 0.000000
0.804289 0.644622 1.731742 0.000000 0.000000 0.000000
0.730340 0.950219 1.734413 0.000000 0.000000 0.000000
0.585698 0.907256 1.430730 0.000000 0.000000 0.000000
0.610358 0.841506 1.465951 0.000000 0.000000 0.000000
0.567961 0.994101 1.468350 0.000000 0.000000 0.000000
0.703334 0.948234 1.684789 0.000000 0.000000 0.000000
0.558909 1.024519 1.496500 0.000000 0.000000 0.000000
0.571867 0.975252 1.445392 0.000000 0.000000 0.000000
0.719227 0.860258 1.659259 0.000000 0.000000 0.000000
0.556290 1.057257 1.523478 0.000000 0.000000 0.000000
0.675606 0.874384 1.565449 0.000000 0.000000 0.000000
0.610346 1.033269 1.572925 0.000000 0.000000 0.000000
0.659113 0.942717 1.592375 0.000000 0.000000 0.000000
0.681291 0.955195 1.638404 0.000000 0.000000 0.000000
0.662408 0.890131 1.552331 0.000000 0.000000 0.000000
0.588413 0.889683 1.424666 0.000000 0.000000 0.000000
0.672198 0.752445 1.519023 0.000000 0.000000 0.000000
0.607096 0.839001 1.459652 0.000000 0.000000 0.000000
0.576162 0.973994 1.476800 0.000000 0.000000 0.000000
0.591246 0.912872 1.462163 0.000000 0.000000 0.000000
0.710587 0.879270 1.647929 0.000000 0.000000 0.000000
0.537795 1.080444 1.517168 0.000000 0.000000 0.000000
0.641582 0.843725 1.501732 0.000000 0.000000 0.000000
0.696147 0.978263 1.680563 0.000000 0.000000 0.000000
0.677400 0.966726 1.641559 0.000000 0.000000 0.000000
0.647311 1.034952 1.623934 0.000000 0.000000 0.000000
0.694374 0.842329 1.590863 0.000000 0.000000 0.000000
0.728181 0.718452 1.609270 0.000000 0.000000 0.000000
0.710434 0.948628 1.699055 0.000000 0.000000 0.000000
0.617883 0.954185 1.534735 0.000000 0.000000 0.000000
0.605212 0.940154 1.505150 0.000000 0.000000 0.000000
0.709992 0.922144 1.686626 0.000000 0.000000 0.000000
0.653842 0.925134 1.569084 0.000000 0.000000 0.000000
0.694190 1.038615 1.663059 0.000000 0.000000 0.000000
0.690827 0.772940 1.564031 0.000000 0.000000 0.000000
0.811762 0.647934 1.728416 0.000000 0.000000 0.000000
0.606656 0.928256 1.500823 0.000000 0.000000 0.000000
0.682425 0.839583 1.565299 0.000000 0.000000 0.000000
0.583787 1.070184 1.559349 0.000000 0.000000 0.000000
0.684548 1.084212 1.634638 0.000000 0.000000 0.000000
0.721967 0.905009 1.699859 0.000000 0.000000 0.000000
0.688059 0.914659 1.624217 0.000000 0.000000 0.000000
0.586199 1.099513 1.570293 0.000000 0.000000 0.000000
0.683492 1.013620 1.660045 0.000000 0.000000 0.000000
0.711656 0.906608 1.675718 0.000000 0.000000 0.000000
0.707366 1.029043 1.689835 0.000000 0.000000 0.000000
0.568713 0.997435 1.449169 0.000000 0.000000 0.000000
0.548882 1.043962 1.498601 0.000000 0.000000 0.000000
0.728348 0.960605 1.735411 0.000000 0.000000 0.000000
0.731423 0.951003 1.739383 0.000000 0.000000 0.000000
0.808433 0.637510 1.728983 0.000000 0.000000 0.000000
0.711266 0.824674 1.623146 0.000000 0.000000 0.000000
0.603478 0.861280 1.458056 0.000000 0.000000 0.000000
0.571646 0.972484 1.445028 0.000000 0.000000 0.000000
0.808011 0.662172 1.711541 0.000000 0.000000 0.000000
0.806962 0.635835 1.737571 0.000000 0.000000 0.000000
0.599471 0.883280 1.460727 0.000000 0.000000 0.000000
0.658197 0.983556 1.616426 0.000000 0.000000 0.000000
0.596889 0.906603 1.477345 0.000000 0.000000 0.000000
0.550849 1.087059 1.533862 0.000000 0.000000 0.000000
0.597603 0.850161 1.439387 0.000000 0.000000 0.000000
0.607669 0.916602 1.495645 0.000000 0.000000 0.000000
0.553935 1.067080 1.529969 0.000000 0.000000 0.000000
0.599757 0.887419 1.464822 0.000000 0.000000 0.000000
0.729970 0.907383 1.714819 0.000000 0.000000 0.000000
0.625219 1.080459 1.606153 0.000000 0.000000 0.000000
0.735461 0.757512 1.645496 0.000000 0.000000 0.000000
0.578475 0.958857 1.470255 0.000000 0.000000 0.000000
0.595940 0.894289 1.460256 0.000000 0.000000 0.000000
0.641984 0.912390 1.541898 0.000000 0.000000 0.000000
0.665970 1.045159 1.637013 0.000000 0.000000 0.000000
0.734440 0.917308 1.723995 0.000000 0.000000 0.000000
0.575960 1.095412 1.557263 0.000000 0.000000 0.000000
0.655703 0.928134 1.575554 0.000000 0.000000 0.000000
0.673574 0.939959 1.618736 0.000000 0.000000 0.000000
0.627316 1.088063 1.612643 0.000000 0.000000 0.000000
0.596186 1.054587 1.566999 0.000000 0.000000 0.000000
0.579456 0.935472 1.428293 0.000000 0.000000 0.000000
0.626290 1.042064 1.597562 0.000000 0.000000 0.000000
0.696085 0.803007 1.578183 0.000000 0.000000 0.000000
0.711763 0.828462 1.626784 0.000000 0.000000 0.000000
0.668987 1.075477 1.640119 0.000000 0.000000 0.000000
0.579362 0.952188 1.459212 0.000000 0.000000 0.000000
0.575515 0.967437 1.466823 0.000000 0.000000 0.000000
0.717661 0.925254 1.697976 0.000000 0.000000 0.000000
0.592005 0.899941 1.451757 0.000000 0.000000 0.000000
0.667308 0.794591 1.533268 0.000000 0.000000 0.000000
0.578669 0.965184 1.472926 0.000000 0.000000 0.000000
0.586021 1.055851 1.553407 0.000000 0.000000 0.000000
0.595441 1.098514 1.580282 0.000000 0.000000 0.000000
0.666953 0.944024 1.607902 0.000000 0.000000 0.000000
0.644580 0.962225 1.582619 0.000000 0.000000 0.000000
0.658785 0.947738 1.594332 0.000000 0.000000 0.000000
0.732591 0.943962 1.735139 0.000000 0.000000 0.000000
0.698724 0.763566 1.577183 0.000000 0.000000 0.000000
0.736633 0.845312 1.690204 0.000000 0.000000 0.000000
0.598065 0.994784 1.533838 0.000000 0.000000 0.000000
0.698650 0.909828 1.648958 0.000000 0.000000 0.000000
0.670617 0.966530 1.631192 0.000000 0.000000 0.000000
0.658457 0.866640 1.544231 0.000000 0.000000 0.000000
0.698275 0.891178 1.629388 0.000000 0.000000 0.000000
0.739725 0.776144 1.680707 0.000000 0.000000 0.000000
0.618340 0.846358 1.480620 0.000000 0.000000 0.000000
0.630714 1.014283 1.592275 0.000000 0.000000 0.000000
0.560503 1.022768 1.498816 0.000000 0.000000 0.000000
0.601784 0.985611 1.531029 0.000000 0.000000 0.000000
0.649574 0.853032 1.519840 0.000000 0.000000 0.000000
0.621521 0.845096 1.483884 0.000000 0.000000 0.000000
0.644607 1.030450 1.619669 0.000000 0.000000 0.000000
0.599423 1.039671 1.555306 0.000000 0.000000 0.000000
0.565396 1.051786 1.533849 0.000000 0.000000 0.000000
0.586147 1.045182 1.546694 0.000000 0.000000 0.000000
0.590261 1.031349 1.550797 0.000000 0.000000 0.000000
0.549455 1.057059 1.513007 0.000000 0.000000 0.000000
0.801051 0.661294 1.721063 0.000000 0.000000 0.000000
0.788173 0.676350 1.688529 0.000000 0.000000 0.000000
0.576582 1.060876 1.547682 0.000000 0.000000 0.000000
0.595253 1.092555 1.577839 0.000000 0.000000 0.000000
0.800277 0.656741 1.727602 0.000000 0.000000 0.000000
0.801737 0.669093 1.710214 0.000000 0.000000 0.000000
0.792681 0.668982 1.718753 0.000000 0.000000 0.000000
0.657435 1.034423 1.631161 0.000000 0.000000 0.000000
0.570793 0.957463 1.419443 0.000000 0.000000 0.000000
0.744784 0.935225 1.751070 0.000000 0.000000 0.000000
0.568698 0.980638 1.438566 0.000000 0.000000 0.000000
0.699327 0.807357 1.582008 0.000000 0.000000 0.000000
0.725138 0.987444 1.734622 0.000000 0.000000 0.000000
0.569961 0.989075 1.468585 0.000000 0.000000 0.000000
0.675925 1.067486 1.644871 0.000000 0.000000 0.000000
0.574952 1.076843 1.545698 0.000000 0.000000 0.000000
0.693767 1.057081 1.659007 0.000000 0.000000 0.000000
0.548332 1.097723 1.534246 0.000000 0.000000 0.000000
0.604747 1.111892 1.595023 0.000000 0.000000 0.000000
0.584331 0.945757 1.479866 0.000000 0.000000 0.000000
0.815872 0.643153 1.717969 0.000000 0.000000 0.000000
0.647170 1.096583 1.630000 0.000000 0.000000 0.000000
0.594293 0.877582 1.443048 0.000000 0.000000 0.000000
0.572380 0.975619 1.456275 0.000000 0.000000 0.000000
0.562840 1.019330 1.451939 0.000000 0.000000 0.000000
0.642853 0.792427 1.478054 0.000000 0.000000 0.000000
0.622650 0.801326 1.459890 0.000000 0.000000 0.000000
0.566573 1.018189 1.455054 0.000000 0.000000 0.000000
0.566080 1.006498 1.455498 0.000000 0.000000 0.000000
0.703053 0.688591 1.554871 0.000000 0.000000 0.000000
0.531413 1.082302 1.499714 0.000000 0.000000 0.000000
0.810754 0.635997 1.728335 0.000000 0.000000 0.000000
0.818653 0.651373 1.694124 0.000000 0.000000 0.000000
0.818525 0.651342 1.693354 0.000000 0.000000 0.000000
0.707211 0.686569 1.566223 0.000000 0.000000 0.000000
0.570610 0.952472 1.409895 0.000000 0.000000 0.000000
0.529354 1.090504 1.500486 0.000000 0.000000 0.000000
0.564773 1.012372 1.453916 0.000000 0.000000 0.000000
0.655494 0.766015 1.479213 0.000000 0.000000 0.000000
0.567535 0.994412 1.455776 0.000000 0.000000 0.000000
0.626056 0.806506 1.467240 0.000000 0.000000 0.000000
0.727901 0.950408 1.728191 0.000000 0.000000 0.000000
0.630876 0.806109 1.473121 0.000000 0.000000 0.000000
0.703832 0.782479 1.585994 0.000000 0.000000 0.000000
0.778591 0.716275 1.756272 0.000000 0.000000 0.000000
0.571609 0.971724 1.436192 0.000000 0.000000 0.000000
0.610482 0.910131 1.494440 0.000000 0.000000 0.000000
0.569345 1.024784 1.513384 0.000000 0.000000 0.000000
0.564407 1.003140 1.462707 0.000000 0.000000 0.000000
0.674189 0.734287 1.515828 0.000000 0.000000 0.000000
0.635226 0.800756 1.475020 0.000000 0.000000 0.000000
0.650612 0.789096 1.490727 0.000000 0.000000 0.000000
0.644768 0.789329 1.467486 0.000000 0.000000 0.000000
0.564129 1.005417 1.475951 0.000000 0.000000 0.000000
0.711660 0.990015 1.712471 0.000000 0.000000 0.000000
0.580957 0.971524 1.492534 0.000000 0.000000 0.000000
0.568586 0.988650 1.451845 0.000000 0.000000 0.000000
0.566860 0.991002 1.445980 0.000000 0.000000 0.000000
0.626294 0.799645 1.463825 0.000000 0.000000 0.000000
0.633464 0.949016 1.554252 0.000000 0.000000 0.000000
0.618809 0.814523 1.467069 0.000000 0.000000 0.000000
0.618284 0.872403 1.489949 0.000000 0.000000 0.000000
0.568439 1.006400 1.443682 0.000000 0.000000 0.000000
0.627063 0.794512 1.459069 0.000000 0.000000 0.000000
0.633477 0.792515 1.458954 0.000000 0.000000 0.000000
0.645625 0.780374 1.464482 0.000000 0.000000 0.000000
0.646335 0.782000 1.476125 0.000000 0.000000 0.000000
0.706864 1.029118 1.688568 0.000000 0.000000 0.000000
0.601208 0.864110 1.453997 0.000000 0.000000 0.000000
0.773105 0.710300 1.749791 0.000000 0.000000 0.000000
0.588031 0.964515 1.497875 0.000000 0.000000 0.000000
0.769332 0.724081 1.745595 0.000000 0.000000 0.000000
0.650705 0.777236 1.486071 0.000000 0.000000 0.000000
0.746620 0.744388 1.682465 0.000000 0.000000 0.000000
0.562373 1.022083 1.501374 0.000000 0.000000 0.000000
0.661237 1.095715 1.640357 0.000000 0.000000 0.000000
0.572274 0.969818 1.427131 0.000000 0.000000 0.000000
0.560072 1.017969 1.477268 0.000000 0.000000 0.000000
0.773998 0.715418 1.746341 0.000000 0.000000 0.000000
0.574777 0.972126 1.418138 0.000000 0.000000 0.000000
0.658207 0.876512 1.541907 0.000000 0.000000 0.000000
0.673736 0.716500 1.515962 0.000000 0.000000 0.000000
0.658302 0.957858 1.602687 0.000000 0.000000 0.000000
0.614557 0.851121 1.476168 0.000000 0.000000 0.000000
0.730762 0.788923 1.656652 0.000000 0.000000 0.000000
0.569306 0.976346 1.427235 0.000000 0.000000 0.000000
0.570825 0.984588 1.462015 0.000000 0.000000 0.000000
0.572872 0.957192 1.427011 0.000000 0.000000 0.000000
0.571286 0.963266 1.427111 0.000000 0.000000 0.000000
0.696894 0.689600 1.539633 0.000000 0.000000 0.000000
0.692968 0.878346 1.615957 0.000000 0.000000 0.000000
0.765982 0.723779 1.734554 0.000000 0.000000 0.000000
0.784341 0.720517 1.760540 0.000000 0.000000 0.000000
0.714802 0.664330 1.576921 0.000000 0.000000 0.000000
0.656907 0.768793 1.462148 0.000000 0.000000 0.000000
0.569092 0.996308 1.437975 0.000000 0.000000 0.000000
0.639545 0.790438 1.466840 0.000000 0.000000 0.000000
0.724339 1.022669 1.707610 0.000000 0.000000 0.000000
0.662324 0.853572 1.543294 0.000000 0.000000 0.000000
0.707642 0.962873 1.701138 0.000000 0.000000 0.000000
0.725417 0.927055 1.714974 0.000000 0.000000 0.000000
0.653646 0.960221 1.599252 0.000000 0.000000 0.000000
0.686269 0.963472 1.659081 0.000000 0.000000 0.000000
0.724888 1.024423 1.703103 0.000000 0.000000 0.000000
0.575117 0.965005 1.447542 0.000000 0.000000 0.000000
0.568670 0.995406 1.470394 0.000000 0.000000 0.000000
0.583592 0.944732 1.458959 0.000000 0.000000 0.000000
0.629134 1.034717 1.596367 0.000000 0.000000 0.000000
0.669011 0.779023 1.527029 0.000000 0.000000 0.000000
0.572442 0.977608 1.457438 0.000000 0.000000 0.000000
0.677867 0.987663 1.653169 0.000000 0.000000 0.000000
0.624268 1.080994 1.606310 0.000000 0.000000 0.000000
0.597389 0.972610 1.514973 0.000000 0.000000 0.000000
0.575928 0.973152 1.484752 0.000000 0.000000 0.000000
0.573173 0.956922 1.432655 0.000000 0.000000 0.000000
0.647057 0.779740 1.470632 0.000000 0.000000 0.000000
0.623839 0.933798 1.531396 0.000000 0.000000 0.000000
0.567862 0.991783 1.446492 0.000000 0.000000 0.000000
0.634544 0.794297 1.465899 0.000000 0.000000 0.000000
0.724207 0.945131 1.721931 0.000000 0.000000 0.000000
0.630083 0.797401 1.464139 0.000000 0.000000 0.000000
0.706571 0.776635 1.588441 0.000000 0.000000 0.000000
0.774424 0.731572 1.746040 0.000000 0.000000 0.000000
0.570996 0.980040 1.464692 0.000000 0.000000 0.000000
0.612536 0.854994 1.474457 0.000000 0.000000 0.000000
0.563081 0.998785 1.456060 0.000000 0.000000 0.000000
0.640946 0.791471 1.471259 0.000000 0.000000 0.000000
0.626447 0.814237 1.475463 0.000000 0.000000 0.000000
0.561809 1.013516 1.476135 0.000000 0.000000 0.000000
0.732683 1.010929 1.711973 0.000000 0.000000 0.000000
0.568717 0.993276 1.453629 0.000000 0.000000 0.000000
0.565705 1.009912 1.449222 0.000000 0.000000 0.000000
0.622612 0.797368 1.457464 0.000000 0.000000 0.000000
0.635271 0.918015 1.546518 0.000000 0.000000 0.000000
0.635967 0.790073 1.461504 0.000000 0.000000 0.000000
0.605040 0.889854 1.481844 0.000000 0.000000 0.000000
0.568718 0.985289 1.437293 0.000000 0.000000 0.000000
0.647406 0.779746 1.460613 0.000000 0.000000 0.000000
0.641995 0.784493 1.461335 0.000000 0.000000 0.000000
0.652366 0.788505 1.499396 0.000000 0.000000 0.000000
0.638532 0.803176 1.484231 0.000000 0.000000 0.000000
0.704932 1.026077 1.686476 0.000000 0.000000 0.000000
0.598367 0.876367 1.457141 0.000000 0.000000 0.000000
0.775604 0.699508 1.763333 0.000000 0.000000 0.000000
0.578051 1.007725 1.513020 0.000000 0.000000 0.000000
0.772031 0.736524 1.740327 0.000000 0.000000 0.000000
0.645261 0.786747 1.477727 0.000000 0.000000 0.000000
0.745789 0.748524 1.679535 0.000000 0.000000 0.000000
0.618646 1.002751 1.571510 0.000000 0.000000 0.000000
0.783560 0.723737 1.759039 0.000000 0.000000 0.000000
0.568033 1.007718 1.500023 0.000000 0.000000 0.000000
0.577975 0.948289 1.432819 0.000000 0.000000 0.000000
0.578423 1.049012 1.549435 0.000000 0.000000 0.000000
0.725350 0.797218 1.650863 0.000000 0.000000 0.000000
0.563299 1.009155 1.464871 0.000000 0.000000 0.000000
0.778077 0.705912 1.758456 0.000000 0.000000 0.000000
0.649254 0.910964 1.551381 0.000000 0.000000 0.000000
0.681790 0.713179 1.518138 0.000000 0.000000 0.000000
0.606980 0.834675 1.466448 0.000000 0.000000 0.000000
0.735200 0.769486 1.669789 0.000000 0.000000 0.000000
0.570058 0.981235 1.443302 0.000000 0.000000 0.000000
0.575017 0.962087 1.444271 0.000000 0.000000 0.000000
0.569438 0.970163 1.428897 0.000000 0.000000 0.000000
0.697882 0.689751 1.538105 0.000000 0.000000 0.000000
0.686983 0.702046 1.527285 0.000000 0.000000 0.000000
0.712689 0.830629 1.637314 0.000000 0.000000 0.000000
0.563431 1.004531 1.448577 0.000000 0.000000 0.000000
0.778695 0.706805 1.760203 0.000000 0.000000 0.000000
0.778933 0.714654 1.757363 0.000000 0.000000 0.000000
0.705863 0.674703 1.555667 0.000000 0.000000 0.000000
0.626091 0.792935 1.456434 0.000000 0.000000 0.000000
0.639492 0.792671 1.473366 0.000000 0.000000 0.000000
0.726901 1.019460 1.709790 0.000000 0.000000 0.000000
0.727537 1.014951 1.713256 0.000000 0.000000 0.000000
0.532689 1.063925 1.484613 0.000000 0.000000 0.000000
0.662955 0.856978 1.539491 0.000000 0.000000 0.000000
0.719515 0.964106 1.722094 0.000000 0.000000 0.000000
0.695553 1.000079 1.686424 0.000000 0.000000 0.000000
0.728604 0.944465 1.728916 0.000000 0.000000 0.000000
0.627622 0.996432 1.576522 0.000000 0.000000 0.000000
0.615656 1.098136 1.602736 0.000000 0.000000 0.000000
0.699509 0.971687 1.686664 0.000000 0.000000 0.000000
0.724467 1.029873 1.701287 0.000000 0.000000 0.000000
0.562788 1.007343 1.453733 0.000000 0.000000 0.000000
0.571008 0.978781 1.453236 0.000000 0.000000 0.000000
0.566257 1.000681 1.484546 0.000000 0.000000 0.000000
0.589706 0.892689 1.434900 0.000000 0.000000 0.000000
0.718515 0.958899 1.717779 0.000000 0.000000 0.000000
0.616743 1.003149 1.563486 0.000000 0.000000 0.000000
0.643804 0.821726 1.504134 0.000000 0.000000 0.000000
0.566471 0.996537 1.462639 0.000000 0.000000 0.000000
0.697566 1.012210 1.676368 0.000000 0.000000 0.000000
0.620225 0.991088 1.565640 0.000000 0.000000 0.000000
0.649215 0.963429 1.591278 0.000000 0.000000 0.000000
0.662045 0.930791 1.594734 0.000000 0.000000 0.000000
0.637489 0.992378 1.590871 0.000000 0.000000 0.000000
0.575473 0.966895 1.462646 0.000000 0.000000 0.000000
0.592340 0.862115 1.416148 0.000000 0.000000 0.000000
0.697464 0.689553 1.539818 0.000000 0.000000 0.000000
0.531599 1.088337 1.510919 0.000000 0.000000 0.000000
0.530071 1.088849 1.507389 0.000000 0.000000 0.000000
0.534091 1.095359 1.510219 0.000000 0.000000 0.000000
0.532636 1.051119 1.479015 0.000000 0.000000 0.000000
0.571916 0.953673 1.409583 0.000000 0.000000 0.000000
0.532179 1.091161 1.511909 0.000000 0.000000 0.000000
0.530309 1.100286 1.517018 0.000000 0.000000 0.000000
0.816671 0.643601 1.714952 0.000000 0.000000 0.000000
0.529843 1.096980 1.508959 0.000000 0.000000 0.000000
0.709689 0.671180 1.566029 0.000000 0.000000 0.000000
0.715490 0.665297 1.574844 0.000000 0.000000 0.000000
0.661057 0.978963 1.622963 0.000000 0.000000 0.000000
0.596142 0.842741 1.414206 0.000000 0.000000 0.000000
0.615818 1.069255 1.590955 0.000000 0.000000 0.000000
0.653165 0.899661 1.548989 0.000000 0.000000 0.000000
0.593860 0.852605 1.412744 0.000000 0.000000 0.000000
0.690890 0.933294 1.650444 0.000000 0.000000 0.000000
0.532157 1.086633 1.516621 0.000000 0.000000 0.000000
0.530773 1.094107 1.510925 0.000000 0.000000 0.000000
0.596286 0.843792 1.413521 0.000000 0.000000 0.000000
0.598121 0.842086 1.416506 0.000000 0.000000 0.000000
0.727445 0.792100 1.655378 0.000000 0.000000 0.000000
0.672890 0.719199 1.505664 0.000000 0.000000 0.000000
0.568544 0.947540 1.408294 0.000000 0.000000 0.000000
0.560265 1.071127 1.536829 0.000000 0.000000 0.000000
0.654388 1.007041 1.625924 0.000000 0.000000 0.000000
0.593411 0.924467 1.483375 0.000000 0.000000 0.000000
0.712982 0.682377 1.577078 0.000000 0.000000 0.000000
0.709775 0.678139 1.569034 0.000000 0.000000 0.000000
0.640551 0.990182 1.597004 0.000000 0.000000 0.000000
0.530712 1.098938 1.521146 0.000000 0.000000 0.000000
0.590949 1.084981 1.571578 0.000000 0.000000 0.000000
0.642977 0.937064 1.558542 0.000000 0.000000 0.000000
0.594709 0.844348 1.413926 0.000000 0.000000 0.000000
0.679297 0.941813 1.634743 0.000000 0.000000 0.000000
0.537574 1.092319 1.525601 0.000000 0.000000 0.000000
0.530628 1.087779 1.505541 0.000000 0.000000 0.000000
0.593295 0.858292 1.408321 0.000000 0.000000 0.000000
0.605113 0.851127 1.413831 0.000000 0.000000 0.000000
0.680524 0.721839 1.522637 0.000000 0.000000 0.000000
0.719027 0.663450 1.581517 0.000000 0.000000 0.000000
0.530475 1.087304 1.503832 0.000000 0.000000 0.000000
0.674576 0.715703 1.507136 0.000000 0.000000 0.000000
0.573417 0.954843 1.426088 0.000000 0.000000 0.000000
0.661803 0.865833 1.543714 0.000000 0.000000 0.000000
0.719991 0.969176 1.721946 0.000000 0.000000 0.000000
0.705257 0.988960 1.700129 0.000000 0.000000 0.000000
0.704151 0.854435 1.624608 0.000000 0.000000 0.000000
0.577744 0.982722 1.497481 0.000000 0.000000 0.000000
0.773314 0.675602 1.761891 0.000000 0.000000 0.000000
0.758913 0.645208 1.634253 0.000000 0.000000 0.000000
0.534009 1.055459 1.483702 0.000000 0.000000 0.000000
0.534841 1.058847 1.504443 0.000000 0.000000 0.000000
0.530228 1.062545 1.485592 0.000000 0.000000 0.000000
0.768303 0.653033 1.639131 0.000000 0.000000 0.000000
0.531591 1.068921 1.490128 0.000000 0.000000 0.000000
0.590210 0.913397 1.455713 0.000000 0.000000 0.000000
0.600733 0.938527 1.499151 0.000000 0.000000 0.000000
0.778436 0.683758 1.763940 0.000000 0.000000 0.000000
0.608086 0.867365 1.468219 0.000000 0.000000 0.000000
0.596031 0.846993 1.428456 0.000000 0.000000 0.000000
0.663085 0.851929 1.541153 0.000000 0.000000 0.000000
0.591918 0.867065 1.407604 0.000000 0.000000 0.000000
0.582943 0.918136 1.430657 0.000000 0.000000 0.000000
0.590801 0.871123 1.407601 0.000000 0.000000 0.000000
0.586672 0.884264 1.413846 0.000000 0.000000 0.000000
0.620529 0.860052 1.489641 0.000000 0.000000 0.000000
0.614266 0.873901 1.488236 0.000000 0.000000 0.000000
0.579918 0.930050 1.425606 0.000000 0.000000 0.000000
0.668022 0.914484 1.596380 0.000000 0.000000 0.000000
0.587659 0.879279 1.409708 0.000000 0.000000 0.000000
0.683380 0.942928 1.644975 0.000000 0.000000 0.000000
0.773784 0.674715 1.765749 0.000000 0.000000 0.000000
0.679931 0.764985 1.540924 0.000000 0.000000 0.000000
