ply
format ascii 1.0
comment VCGLIB generated
obj_info Generated by SPFormer!
element vertex 884
property float x
property float y
property float z
property float nx
property float ny
property float nz
end_header
0.814531 0.443488 0.844638 0.000000 0.000000 0.000000
0.968803 0.494408 0.853085 0.000000 0.000000 0.000000
0.958319 0.411290 0.904804 0.000000 0.000000 0.000000
0.967870 0.329539 0.954730 0.000000 0.000000 0.000000
0.960463 0.591100 0.788877 0.000000 0.000000 0.000000
0.922206 0.476608 0.855728 0.000000 0.000000 0.000000
1.037831 0.457860 0.870924 0.000000 0.000000 0.000000
0.976082 0.385256 0.918480 0.000000 0.000000 0.000000
0.888149 0.478386 0.850342 0.000000 0.000000 0.000000
0.941300 0.450645 0.877112 0.000000 0.000000 0.000000
0.843542 0.483860 0.837062 0.000000 0.000000 0.000000
0.881876 0.495284 0.841669 0.000000 0.000000 0.000000
0.934165 0.616616 0.775347 0.000000 0.000000 0.000000
0.914200 0.465039 0.858539 0.000000 0.000000 0.000000
1.023821 0.449596 0.871702 0.000000 0.000000 0.000000
0.911271 0.432818 0.868261 0.000000 0.000000 0.000000
0.926985 0.404946 0.902657 0.000000 0.000000 0.000000
0.912589 0.460917 0.861035 0.000000 0.000000 0.000000
0.962939 0.390047 0.917905 0.000000 0.000000 0.000000
0.945725 0.613481 0.778703 0.000000 0.000000 0.000000
0.889869 0.540062 0.815366 0.000000 0.000000 0.000000
0.925138 0.608577 0.778202 0.000000 0.000000 0.000000
0.906313 0.449530 0.857184 0.000000 0.000000 0.000000
1.029894 0.438820 0.881061 0.000000 0.000000 0.000000
0.921654 0.410578 0.890789 0.000000 0.000000 0.000000
1.011309 0.587316 0.766482 0.000000 0.000000 0.000000
1.077003 0.408190 0.886065 0.000000 0.000000 0.000000
0.937198 0.630516 0.765117 0.000000 0.000000 0.000000
0.919748 0.495302 0.850652 0.000000 0.000000 0.000000
1.015998 0.442507 0.881125 0.000000 0.000000 0.000000
1.074446 0.472723 0.836421 0.000000 0.000000 0.000000
1.052583 0.441294 0.869213 0.000000 0.000000 0.000000
0.980019 0.571612 0.795639 0.000000 0.000000 0.000000
0.912585 0.398428 0.890842 0.000000 0.000000 0.000000
1.002954 0.418074 0.909899 0.000000 0.000000 0.000000
1.051526 0.466941 0.857068 0.000000 0.000000 0.000000
0.991690 0.396038 0.917235 0.000000 0.000000 0.000000
1.064558 0.415749 0.884131 0.000000 0.000000 0.000000
0.896446 0.461268 0.861270 0.000000 0.000000 0.000000
0.898287 0.386792 0.873722 0.000000 0.000000 0.000000
0.919693 0.377251 0.911252 0.000000 0.000000 0.000000
0.919332 0.380934 0.907307 0.000000 0.000000 0.000000
0.897922 0.449396 0.860846 0.000000 0.000000 0.000000
1.076282 0.376993 0.903175 0.000000 0.000000 0.000000
1.059825 0.448326 0.864526 0.000000 0.000000 0.000000
0.927330 0.467697 0.862892 0.000000 0.000000 0.000000
0.954239 0.611023 0.772583 0.000000 0.000000 0.000000
0.890030 0.491475 0.848792 0.000000 0.000000 0.000000
0.947688 0.622780 0.771255 0.000000 0.000000 0.000000
0.869258 0.551489 0.798273 0.000000 0.000000 0.000000
0.944913 0.609807 0.782364 0.000000 0.000000 0.000000
1.055233 0.438144 0.868749 0.000000 0.000000 0.000000
1.028102 0.593856 0.763066 0.000000 0.000000 0.000000
0.993724 0.473893 0.865206 0.000000 0.000000 0.000000
1.079890 0.436598 0.863059 0.000000 0.000000 0.000000
0.990968 0.589318 0.771997 0.000000 0.000000 0.000000
0.999695 0.620892 0.751659 0.000000 0.000000 0.000000
0.924715 0.535955 0.822232 0.000000 0.000000 0.000000
1.014136 0.523684 0.821047 0.000000 0.000000 0.000000
1.034672 0.506611 0.828835 0.000000 0.000000 0.000000
0.929315 0.526291 0.833773 0.000000 0.000000 0.000000
1.016712 0.491836 0.839933 0.000000 0.000000 0.000000
0.982402 0.484214 0.856149 0.000000 0.000000 0.000000
1.075860 0.455534 0.852987 0.000000 0.000000 0.000000
0.892189 0.388668 0.867433 0.000000 0.000000 0.000000
0.918002 0.658673 0.745711 0.000000 0.000000 0.000000
0.903228 0.392330 0.880877 0.000000 0.000000 0.000000
0.903072 0.544421 0.820302 0.000000 0.000000 0.000000
0.845671 0.582830 0.773336 0.000000 0.000000 0.000000
0.961702 0.446926 0.884755 0.000000 0.000000 0.000000
1.012362 0.488071 0.858526 0.000000 0.000000 0.000000
0.912558 0.469778 0.864200 0.000000 0.000000 0.000000
0.976045 0.630657 0.749302 0.000000 0.000000 0.000000
1.087248 0.472003 0.830971 0.000000 0.000000 0.000000
1.075677 0.428871 0.866948 0.000000 0.000000 0.000000
0.975377 0.584426 0.783509 0.000000 0.000000 0.000000
0.898716 0.500856 0.839582 0.000000 0.000000 0.000000
0.910253 0.633189 0.760154 0.000000 0.000000 0.000000
0.942687 0.489580 0.854040 0.000000 0.000000 0.000000
0.976212 0.449038 0.880912 0.000000 0.000000 0.000000
0.918639 0.500695 0.838534 0.000000 0.000000 0.000000
0.925570 0.540581 0.818556 0.000000 0.000000 0.000000
0.905001 0.536151 0.806659 0.000000 0.000000 0.000000
0.935109 0.633739 0.762717 0.000000 0.000000 0.000000
0.923304 0.553992 0.814373 0.000000 0.000000 0.000000
0.839942 0.597431 0.755489 0.000000 0.000000 0.000000
0.918290 0.559428 0.809502 0.000000 0.000000 0.000000
0.919502 0.528742 0.823254 0.000000 0.000000 0.000000
0.987926 0.549694 0.809201 0.000000 0.000000 0.000000
0.915275 0.501238 0.843571 0.000000 0.000000 0.000000
0.959662 0.574751 0.795175 0.000000 0.000000 0.000000
0.907817 0.651336 0.753026 0.000000 0.000000 0.000000
0.859024 0.609950 0.764923 0.000000 0.000000 0.000000
0.941510 0.565519 0.810041 0.000000 0.000000 0.000000
0.974846 0.461696 0.873222 0.000000 0.000000 0.000000
1.014281 0.538991 0.807581 0.000000 0.000000 0.000000
1.018177 0.552711 0.803528 0.000000 0.000000 0.000000
0.944591 0.483503 0.860007 0.000000 0.000000 0.000000
1.016789 0.590621 0.762183 0.000000 0.000000 0.000000
0.931648 0.490446 0.856364 0.000000 0.000000 0.000000
0.952485 0.505843 0.846331 0.000000 0.000000 0.000000
0.964132 0.361419 0.930997 0.000000 0.000000 0.000000
0.900944 0.508252 0.836808 0.000000 0.000000 0.000000
0.942761 0.495862 0.842970 0.000000 0.000000 0.000000
1.000211 0.460304 0.873233 0.000000 0.000000 0.000000
0.965985 0.422353 0.898442 0.000000 0.000000 0.000000
0.882482 0.475791 0.844153 0.000000 0.000000 0.000000
0.960666 0.354856 0.936146 0.000000 0.000000 0.000000
1.083692 0.501714 0.808822 0.000000 0.000000 0.000000
1.029597 0.438832 0.881272 0.000000 0.000000 0.000000
0.979805 0.355664 0.937543 0.000000 0.000000 0.000000
0.956906 0.482981 0.858549 0.000000 0.000000 0.000000
0.834429 0.486940 0.827925 0.000000 0.000000 0.000000
0.933318 0.609121 0.784123 0.000000 0.000000 0.000000
1.002743 0.509222 0.842407 0.000000 0.000000 0.000000
1.028216 0.463858 0.862586 0.000000 0.000000 0.000000
0.924753 0.401039 0.903077 0.000000 0.000000 0.000000
0.913006 0.405509 0.885394 0.000000 0.000000 0.000000
1.047553 0.481481 0.845768 0.000000 0.000000 0.000000
0.949126 0.380366 0.917592 0.000000 0.000000 0.000000
0.865874 0.502694 0.831108 0.000000 0.000000 0.000000
0.885838 0.420415 0.851940 0.000000 0.000000 0.000000
0.996170 0.436857 0.889214 0.000000 0.000000 0.000000
1.062152 0.518394 0.812704 0.000000 0.000000 0.000000
0.942720 0.412651 0.903376 0.000000 0.000000 0.000000
1.067005 0.410191 0.892480 0.000000 0.000000 0.000000
0.915022 0.641600 0.753465 0.000000 0.000000 0.000000
0.922990 0.480969 0.854317 0.000000 0.000000 0.000000
0.892441 0.572178 0.786400 0.000000 0.000000 0.000000
1.032684 0.427314 0.885929 0.000000 0.000000 0.000000
1.019686 0.461758 0.861033 0.000000 0.000000 0.000000
1.069832 0.412240 0.883610 0.000000 0.000000 0.000000
1.009188 0.560676 0.792937 0.000000 0.000000 0.000000
0.926792 0.440551 0.878461 0.000000 0.000000 0.000000
0.995825 0.398512 0.913885 0.000000 0.000000 0.000000
1.067222 0.450509 0.860674 0.000000 0.000000 0.000000
0.976641 0.419667 0.901534 0.000000 0.000000 0.000000
1.073957 0.405914 0.883694 0.000000 0.000000 0.000000
0.904983 0.366921 0.901496 0.000000 0.000000 0.000000
0.811367 0.481263 0.829635 0.000000 0.000000 0.000000
0.959327 0.448203 0.881258 0.000000 0.000000 0.000000
0.954073 0.630320 0.758708 0.000000 0.000000 0.000000
0.983708 0.583384 0.779249 0.000000 0.000000 0.000000
0.921774 0.428381 0.880844 0.000000 0.000000 0.000000
0.920802 0.360762 0.922859 0.000000 0.000000 0.000000
0.903353 0.483651 0.852276 0.000000 0.000000 0.000000
0.953562 0.382983 0.919673 0.000000 0.000000 0.000000
0.897541 0.461166 0.852711 0.000000 0.000000 0.000000
1.055686 0.370384 0.910639 0.000000 0.000000 0.000000
0.896741 0.551323 0.813972 0.000000 0.000000 0.000000
0.983806 0.397126 0.918035 0.000000 0.000000 0.000000
0.910217 0.445954 0.868032 0.000000 0.000000 0.000000
0.964045 0.595272 0.782475 0.000000 0.000000 0.000000
0.909296 0.485999 0.849795 0.000000 0.000000 0.000000
0.952401 0.615737 0.773934 0.000000 0.000000 0.000000
0.865270 0.603071 0.770267 0.000000 0.000000 0.000000
1.043832 0.433110 0.880188 0.000000 0.000000 0.000000
0.980515 0.604434 0.765554 0.000000 0.000000 0.000000
1.054374 0.424686 0.879337 0.000000 0.000000 0.000000
0.955797 0.589411 0.788041 0.000000 0.000000 0.000000
0.949917 0.504399 0.844511 0.000000 0.000000 0.000000
0.917454 0.548233 0.812581 0.000000 0.000000 0.000000
0.971738 0.645568 0.735705 0.000000 0.000000 0.000000
0.902358 0.377054 0.887434 0.000000 0.000000 0.000000
1.007551 0.532545 0.818632 0.000000 0.000000 0.000000
1.005567 0.524786 0.818986 0.000000 0.000000 0.000000
0.932234 0.508116 0.837504 0.000000 0.000000 0.000000
1.010455 0.448549 0.871986 0.000000 0.000000 0.000000
1.059215 0.422058 0.880788 0.000000 0.000000 0.000000
0.897351 0.397259 0.867373 0.000000 0.000000 0.000000
1.002099 0.623695 0.744487 0.000000 0.000000 0.000000
0.845276 0.539144 0.800598 0.000000 0.000000 0.000000
0.947457 0.412701 0.902814 0.000000 0.000000 0.000000
1.000514 0.445971 0.886863 0.000000 0.000000 0.000000
1.002288 0.620504 0.747851 0.000000 0.000000 0.000000
0.992652 0.488077 0.854532 0.000000 0.000000 0.000000
0.922307 0.440223 0.876112 0.000000 0.000000 0.000000
1.083072 0.463321 0.839216 0.000000 0.000000 0.000000
1.045115 0.443182 0.864981 0.000000 0.000000 0.000000
0.961218 0.615166 0.763959 0.000000 0.000000 0.000000
0.923018 0.516804 0.829519 0.000000 0.000000 0.000000
0.901125 0.638610 0.756511 0.000000 0.000000 0.000000
0.943555 0.636745 0.760447 0.000000 0.000000 0.000000
0.938758 0.473067 0.859726 0.000000 0.000000 0.000000
1.067083 0.457391 0.846336 0.000000 0.000000 0.000000
0.960436 0.434694 0.889717 0.000000 0.000000 0.000000
0.947103 0.406957 0.908132 0.000000 0.000000 0.000000
1.007042 0.617493 0.744385 0.000000 0.000000 0.000000
0.914838 0.555064 0.815782 0.000000 0.000000 0.000000
0.922605 0.531676 0.823283 0.000000 0.000000 0.000000
0.939871 0.353449 0.934066 0.000000 0.000000 0.000000
0.913106 0.541026 0.819855 0.000000 0.000000 0.000000
0.847861 0.575777 0.779113 0.000000 0.000000 0.000000
0.921228 0.571882 0.805415 0.000000 0.000000 0.000000
0.834454 0.588902 0.765488 0.000000 0.000000 0.000000
0.902928 0.604346 0.771860 0.000000 0.000000 0.000000
0.887594 0.531381 0.819392 0.000000 0.000000 0.000000
1.005727 0.540556 0.811209 0.000000 0.000000 0.000000
0.978521 0.548001 0.817616 0.000000 0.000000 0.000000
0.928002 0.577067 0.802817 0.000000 0.000000 0.000000
0.944864 0.646076 0.750300 0.000000 0.000000 0.000000
1.044572 0.522739 0.811481 0.000000 0.000000 0.000000
0.911898 0.498741 0.838826 0.000000 0.000000 0.000000
0.997784 0.557067 0.808651 0.000000 0.000000 0.000000
0.939133 0.477268 0.858588 0.000000 0.000000 0.000000
1.015873 0.611578 0.749474 0.000000 0.000000 0.000000
1.056687 0.562229 0.775138 0.000000 0.000000 0.000000
0.973372 0.420400 0.900333 0.000000 0.000000 0.000000
0.936147 0.487234 0.855433 0.000000 0.000000 0.000000
0.950958 0.495485 0.850184 0.000000 0.000000 0.000000
0.901596 0.384960 0.881165 0.000000 0.000000 0.000000
1.066504 0.365485 0.923792 0.000000 0.000000 0.000000
0.945125 0.361075 0.930434 0.000000 0.000000 0.000000
0.815772 0.450345 0.843372 0.000000 0.000000 0.000000
1.051998 0.550650 0.788688 0.000000 0.000000 0.000000
0.907907 0.450882 0.856529 0.000000 0.000000 0.000000
0.926724 0.549173 0.818495 0.000000 0.000000 0.000000
0.971191 0.593637 0.783369 0.000000 0.000000 0.000000
1.038643 0.547369 0.795365 0.000000 0.000000 0.000000
0.873905 0.442643 0.857329 0.000000 0.000000 0.000000
0.921114 0.356550 0.930160 0.000000 0.000000 0.000000
1.020243 0.553294 0.794153 0.000000 0.000000 0.000000
0.877011 0.629683 0.752695 0.000000 0.000000 0.000000
0.915551 0.657907 0.745539 0.000000 0.000000 0.000000
1.043676 0.509376 0.816367 0.000000 0.000000 0.000000
1.081338 0.469682 0.833535 0.000000 0.000000 0.000000
0.825614 0.566871 0.772057 0.000000 0.000000 0.000000
1.001001 0.511627 0.834903 0.000000 0.000000 0.000000
1.033169 0.573493 0.764958 0.000000 0.000000 0.000000
1.009403 0.478235 0.854793 0.000000 0.000000 0.000000
0.914123 0.580897 0.795494 0.000000 0.000000 0.000000
0.952201 0.439772 0.883890 0.000000 0.000000 0.000000
0.969718 0.525864 0.835589 0.000000 0.000000 0.000000
0.974546 0.620115 0.764062 0.000000 0.000000 0.000000
1.070877 0.506725 0.805941 0.000000 0.000000 0.000000
1.080183 0.506131 0.813320 0.000000 0.000000 0.000000
1.032368 0.511468 0.826009 0.000000 0.000000 0.000000
0.911221 0.454118 0.859037 0.000000 0.000000 0.000000
1.012755 0.353550 0.942066 0.000000 0.000000 0.000000
0.970363 0.365695 0.932423 0.000000 0.000000 0.000000
1.032272 0.584542 0.773240 0.000000 0.000000 0.000000
0.926601 0.538174 0.820826 0.000000 0.000000 0.000000
1.065298 0.364100 0.924010 0.000000 0.000000 0.000000
1.036905 0.590702 0.752002 0.000000 0.000000 0.000000
1.025921 0.605223 0.746990 0.000000 0.000000 0.000000
0.885672 0.503039 0.841531 0.000000 0.000000 0.000000
0.901272 0.360601 0.913729 0.000000 0.000000 0.000000
1.069710 0.525420 0.796586 0.000000 0.000000 0.000000
0.880222 0.640236 0.743596 0.000000 0.000000 0.000000
1.045961 0.527387 0.805239 0.000000 0.000000 0.000000
0.918603 0.655741 0.751645 0.000000 0.000000 0.000000
0.825358 0.555679 0.781287 0.000000 0.000000 0.000000
1.044823 0.355221 0.926584 0.000000 0.000000 0.000000
0.891256 0.365583 0.877825 0.000000 0.000000 0.000000
1.042262 0.346860 0.939328 0.000000 0.000000 0.000000
0.936501 0.444545 0.878190 0.000000 0.000000 0.000000
1.045690 0.518599 0.819025 0.000000 0.000000 0.000000
0.949326 0.430261 0.891214 0.000000 0.000000 0.000000
1.028151 0.587156 0.762167 0.000000 0.000000 0.000000
1.019167 0.459737 0.865561 0.000000 0.000000 0.000000
0.898929 0.555347 0.806295 0.000000 0.000000 0.000000
0.987916 0.457416 0.875949 0.000000 0.000000 0.000000
0.933372 0.456189 0.874601 0.000000 0.000000 0.000000
1.059544 0.353717 0.925683 0.000000 0.000000 0.000000
0.853382 0.405875 0.850070 0.000000 0.000000 0.000000
0.852317 0.416654 0.849845 0.000000 0.000000 0.000000
1.014802 0.321007 0.964575 0.000000 0.000000 0.000000
0.929599 0.659328 0.753243 0.000000 0.000000 0.000000
0.821411 0.461192 0.835914 0.000000 0.000000 0.000000
0.837773 0.445636 0.851141 0.000000 0.000000 0.000000
0.924768 0.661215 0.751273 0.000000 0.000000 0.000000
0.911419 0.649950 0.752867 0.000000 0.000000 0.000000
0.934489 0.653617 0.752822 0.000000 0.000000 0.000000
0.914744 0.632977 0.760296 0.000000 0.000000 0.000000
0.929429 0.621793 0.771432 0.000000 0.000000 0.000000
0.809783 0.469748 0.834927 0.000000 0.000000 0.000000
0.992486 0.620475 0.755361 0.000000 0.000000 0.000000
0.876218 0.398465 0.852028 0.000000 0.000000 0.000000
0.813165 0.548228 0.783700 0.000000 0.000000 0.000000
0.919022 0.640300 0.755720 0.000000 0.000000 0.000000
1.082460 0.478213 0.826971 0.000000 0.000000 0.000000
1.061466 0.538354 0.793994 0.000000 0.000000 0.000000
0.922257 0.653145 0.750016 0.000000 0.000000 0.000000
0.909340 0.435905 0.862466 0.000000 0.000000 0.000000
0.967614 0.631120 0.752409 0.000000 0.000000 0.000000
1.053469 0.502446 0.825590 0.000000 0.000000 0.000000
0.899110 0.638049 0.750062 0.000000 0.000000 0.000000
0.903938 0.632637 0.761382 0.000000 0.000000 0.000000
0.945888 0.655003 0.737126 0.000000 0.000000 0.000000
0.925261 0.648503 0.754391 0.000000 0.000000 0.000000
0.808800 0.478949 0.827464 0.000000 0.000000 0.000000
0.933052 0.647801 0.752852 0.000000 0.000000 0.000000
1.027416 0.332380 0.953293 0.000000 0.000000 0.000000
0.984557 0.625630 0.746374 0.000000 0.000000 0.000000
0.919850 0.651130 0.754037 0.000000 0.000000 0.000000
0.893689 0.643671 0.750388 0.000000 0.000000 0.000000
0.977044 0.639499 0.731128 0.000000 0.000000 0.000000
0.807635 0.503632 0.809683 0.000000 0.000000 0.000000
1.064192 0.531464 0.791664 0.000000 0.000000 0.000000
0.957222 0.626058 0.764714 0.000000 0.000000 0.000000
0.936712 0.622546 0.778944 0.000000 0.000000 0.000000
0.962520 0.642472 0.743431 0.000000 0.000000 0.000000
0.923575 0.544890 0.820719 0.000000 0.000000 0.000000
1.032577 0.511957 0.827645 0.000000 0.000000 0.000000
0.904868 0.639428 0.756140 0.000000 0.000000 0.000000
0.970900 0.342451 0.947391 0.000000 0.000000 0.000000
1.052919 0.572350 0.761990 0.000000 0.000000 0.000000
0.957620 0.647573 0.741080 0.000000 0.000000 0.000000
0.860533 0.420524 0.850766 0.000000 0.000000 0.000000
0.857464 0.397065 0.850780 0.000000 0.000000 0.000000
0.811720 0.459627 0.840981 0.000000 0.000000 0.000000
0.823386 0.448466 0.836409 0.000000 0.000000 0.000000
0.945370 0.343191 0.944027 0.000000 0.000000 0.000000
0.868768 0.405905 0.849230 0.000000 0.000000 0.000000
1.004848 0.330322 0.952274 0.000000 0.000000 0.000000
0.916120 0.414950 0.879066 0.000000 0.000000 0.000000
0.967846 0.340034 0.948661 0.000000 0.000000 0.000000
1.041536 0.589970 0.761926 0.000000 0.000000 0.000000
1.045895 0.337410 0.944395 0.000000 0.000000 0.000000
1.024482 0.603967 0.757479 0.000000 0.000000 0.000000
1.059245 0.504553 0.815238 0.000000 0.000000 0.000000
1.066781 0.451552 0.865439 0.000000 0.000000 0.000000
1.054165 0.539639 0.788711 0.000000 0.000000 0.000000
0.972042 0.341067 0.949172 0.000000 0.000000 0.000000
0.870894 0.395456 0.851436 0.000000 0.000000 0.000000
0.975713 0.335453 0.949988 0.000000 0.000000 0.000000
0.894417 0.450330 0.850009 0.000000 0.000000 0.000000
0.963786 0.340880 0.944623 0.000000 0.000000 0.000000
0.848791 0.414867 0.852291 0.000000 0.000000 0.000000
0.875829 0.406308 0.851976 0.000000 0.000000 0.000000
1.078027 0.504489 0.811979 0.000000 0.000000 0.000000
1.046907 0.492135 0.830029 0.000000 0.000000 0.000000
0.840235 0.432919 0.841387 0.000000 0.000000 0.000000
0.948196 0.358792 0.933410 0.000000 0.000000 0.000000
0.826035 0.458929 0.836164 0.000000 0.000000 0.000000
0.843075 0.420683 0.848253 0.000000 0.000000 0.000000
1.029034 0.600765 0.754055 0.000000 0.000000 0.000000
1.069287 0.459089 0.852283 0.000000 0.000000 0.000000
1.024744 0.333304 0.951037 0.000000 0.000000 0.000000
0.972408 0.336215 0.948943 0.000000 0.000000 0.000000
0.988837 0.327363 0.956583 0.000000 0.000000 0.000000
0.802930 0.471157 0.832258 0.000000 0.000000 0.000000
1.025626 0.321579 0.960478 0.000000 0.000000 0.000000
0.888617 0.391374 0.870750 0.000000 0.000000 0.000000
0.937949 0.532436 0.826306 0.000000 0.000000 0.000000
0.810375 0.454364 0.839287 0.000000 0.000000 0.000000
0.880146 0.399161 0.853044 0.000000 0.000000 0.000000
0.960955 0.333450 0.951549 0.000000 0.000000 0.000000
0.832564 0.421662 0.849883 0.000000 0.000000 0.000000
0.801488 0.516998 0.800697 0.000000 0.000000 0.000000
0.797067 0.507124 0.807086 0.000000 0.000000 0.000000
1.003882 0.333946 0.952373 0.000000 0.000000 0.000000
0.805967 0.522716 0.798094 0.000000 0.000000 0.000000
0.807754 0.510891 0.805560 0.000000 0.000000 0.000000
0.814040 0.506189 0.812356 0.000000 0.000000 0.000000
0.829063 0.549621 0.786212 0.000000 0.000000 0.000000
0.833426 0.562174 0.780862 0.000000 0.000000 0.000000
1.042696 0.339660 0.942060 0.000000 0.000000 0.000000
0.963778 0.335595 0.950687 0.000000 0.000000 0.000000
0.817425 0.563629 0.774242 0.000000 0.000000 0.000000
1.071352 0.362049 0.918022 0.000000 0.000000 0.000000
0.982165 0.327055 0.954766 0.000000 0.000000 0.000000
0.838350 0.417949 0.847981 0.000000 0.000000 0.000000
0.824809 0.449496 0.841171 0.000000 0.000000 0.000000
0.807635 0.461064 0.839712 0.000000 0.000000 0.000000
0.919852 0.662735 0.743885 0.000000 0.000000 0.000000
0.943718 0.653790 0.741286 0.000000 0.000000 0.000000
0.929434 0.358999 0.925178 0.000000 0.000000 0.000000
0.872099 0.427502 0.849185 0.000000 0.000000 0.000000
0.860235 0.608220 0.766134 0.000000 0.000000 0.000000
0.848751 0.611478 0.758720 0.000000 0.000000 0.000000
1.071735 0.395644 0.897829 0.000000 0.000000 0.000000
0.889813 0.371183 0.881299 0.000000 0.000000 0.000000
0.987014 0.631349 0.747200 0.000000 0.000000 0.000000
0.995578 0.626399 0.746889 0.000000 0.000000 0.000000
1.042716 0.547377 0.787232 0.000000 0.000000 0.000000
0.817995 0.450804 0.840253 0.000000 0.000000 0.000000
0.933772 0.637978 0.755927 0.000000 0.000000 0.000000
0.820491 0.489016 0.827445 0.000000 0.000000 0.000000
0.958617 0.381589 0.921737 0.000000 0.000000 0.000000
0.845156 0.417780 0.850609 0.000000 0.000000 0.000000
0.891164 0.641658 0.750330 0.000000 0.000000 0.000000
0.984565 0.635339 0.735652 0.000000 0.000000 0.000000
1.047418 0.371823 0.912119 0.000000 0.000000 0.000000
0.969634 0.644914 0.739682 0.000000 0.000000 0.000000
0.935653 0.655124 0.745412 0.000000 0.000000 0.000000
1.047267 0.571881 0.772399 0.000000 0.000000 0.000000
0.828847 0.567192 0.772167 0.000000 0.000000 0.000000
0.988509 0.634157 0.733005 0.000000 0.000000 0.000000
0.958248 0.349887 0.938296 0.000000 0.000000 0.000000
1.003585 0.317551 0.960160 0.000000 0.000000 0.000000
0.847836 0.424296 0.851380 0.000000 0.000000 0.000000
0.863331 0.417847 0.845548 0.000000 0.000000 0.000000
0.822087 0.440275 0.844595 0.000000 0.000000 0.000000
0.816492 0.446451 0.844071 0.000000 0.000000 0.000000
0.885882 0.370025 0.866943 0.000000 0.000000 0.000000
0.812131 0.459442 0.840952 0.000000 0.000000 0.000000
1.017682 0.497066 0.846768 0.000000 0.000000 0.000000
1.034644 0.583249 0.768814 0.000000 0.000000 0.000000
1.069506 0.418781 0.884747 0.000000 0.000000 0.000000
0.819498 0.449387 0.839956 0.000000 0.000000 0.000000
1.019287 0.318468 0.963392 0.000000 0.000000 0.000000
1.027940 0.487301 0.851283 0.000000 0.000000 0.000000
0.938637 0.356730 0.928819 0.000000 0.000000 0.000000
0.804858 0.493194 0.823637 0.000000 0.000000 0.000000
0.840049 0.582243 0.771843 0.000000 0.000000 0.000000
0.957720 0.334791 0.951257 0.000000 0.000000 0.000000
0.819316 0.544094 0.787908 0.000000 0.000000 0.000000
0.854922 0.607115 0.760472 0.000000 0.000000 0.000000
0.847293 0.423926 0.848758 0.000000 0.000000 0.000000
1.066475 0.374950 0.907442 0.000000 0.000000 0.000000
0.833828 0.436017 0.846664 0.000000 0.000000 0.000000
1.036513 0.365811 0.920970 0.000000 0.000000 0.000000
1.064154 0.401258 0.892553 0.000000 0.000000 0.000000
1.004415 0.403365 0.907002 0.000000 0.000000 0.000000
1.065448 0.360023 0.917332 0.000000 0.000000 0.000000
0.885350 0.627761 0.764740 0.000000 0.000000 0.000000
0.820145 0.570968 0.768159 0.000000 0.000000 0.000000
0.991657 0.330703 0.953833 0.000000 0.000000 0.000000
0.995812 0.624691 0.745212 0.000000 0.000000 0.000000
1.034018 0.342391 0.937883 0.000000 0.000000 0.000000
0.822948 0.518826 0.803373 0.000000 0.000000 0.000000
1.036299 0.366276 0.920970 0.000000 0.000000 0.000000
1.064320 0.371652 0.909214 0.000000 0.000000 0.000000
1.042293 0.369616 0.915869 0.000000 0.000000 0.000000
0.898129 0.637559 0.753892 0.000000 0.000000 0.000000
0.992216 0.322234 0.958084 0.000000 0.000000 0.000000
1.059983 0.374459 0.909504 0.000000 0.000000 0.000000
0.812232 0.498491 0.818168 0.000000 0.000000 0.000000
0.895864 0.634306 0.753116 0.000000 0.000000 0.000000
0.835348 0.556478 0.783003 0.000000 0.000000 0.000000
1.050688 0.478480 0.845153 0.000000 0.000000 0.000000
0.882278 0.636357 0.745546 0.000000 0.000000 0.000000
0.826684 0.540937 0.794899 0.000000 0.000000 0.000000
0.907878 0.654700 0.747316 0.000000 0.000000 0.000000
1.066452 0.515565 0.811397 0.000000 0.000000 0.000000
1.000654 0.628889 0.744801 0.000000 0.000000 0.000000
1.009789 0.313936 0.962495 0.000000 0.000000 0.000000
1.003974 0.323592 0.959256 0.000000 0.000000 0.000000
0.809702 0.457320 0.841140 0.000000 0.000000 0.000000
1.007742 0.621677 0.744426 0.000000 0.000000 0.000000
1.080958 0.365045 0.908997 0.000000 0.000000 0.000000
0.880322 0.480960 0.847804 0.000000 0.000000 0.000000
0.879963 0.456493 0.856774 0.000000 0.000000 0.000000
0.804304 0.521989 0.794610 0.000000 0.000000 0.000000
0.823031 0.532936 0.802544 0.000000 0.000000 0.000000
0.984194 0.636617 0.734813 0.000000 0.000000 0.000000
0.807653 0.468435 0.831657 0.000000 0.000000 0.000000
0.828624 0.426775 0.849215 0.000000 0.000000 0.000000
1.068334 0.521442 0.801073 0.000000 0.000000 0.000000
0.976362 0.633517 0.747208 0.000000 0.000000 0.000000
0.939267 0.421998 0.896787 0.000000 0.000000 0.000000
1.091471 0.457026 0.846206 0.000000 0.000000 0.000000
0.966404 0.650590 0.736835 0.000000 0.000000 0.000000
0.972997 0.643138 0.737690 0.000000 0.000000 0.000000
1.072545 0.524845 0.797607 0.000000 0.000000 0.000000
1.086626 0.511952 0.803603 0.000000 0.000000 0.000000
0.891151 0.477817 0.857412 0.000000 0.000000 0.000000
1.056078 0.354727 0.927631 0.000000 0.000000 0.000000
0.825964 0.578719 0.763079 0.000000 0.000000 0.000000
1.097721 0.482325 0.826670 0.000000 0.000000 0.000000
0.840138 0.444748 0.851296 0.000000 0.000000 0.000000
0.997528 0.628178 0.739431 0.000000 0.000000 0.000000
0.979268 0.638537 0.737391 0.000000 0.000000 0.000000
1.080947 0.454604 0.848755 0.000000 0.000000 0.000000
1.000046 0.631554 0.740580 0.000000 0.000000 0.000000
0.958885 0.342371 0.947433 0.000000 0.000000 0.000000
1.014945 0.319185 0.962361 0.000000 0.000000 0.000000
0.810070 0.454761 0.839586 0.000000 0.000000 0.000000
0.828265 0.469130 0.836770 0.000000 0.000000 0.000000
0.805613 0.469436 0.832635 0.000000 0.000000 0.000000
0.988486 0.628663 0.739501 0.000000 0.000000 0.000000
0.826876 0.436450 0.851484 0.000000 0.000000 0.000000
0.817653 0.476870 0.834781 0.000000 0.000000 0.000000
1.026535 0.608639 0.745836 0.000000 0.000000 0.000000
1.003397 0.599657 0.761160 0.000000 0.000000 0.000000
1.078079 0.376058 0.907124 0.000000 0.000000 0.000000
0.839848 0.435707 0.852175 0.000000 0.000000 0.000000
1.015878 0.618793 0.751991 0.000000 0.000000 0.000000
0.805467 0.507938 0.805269 0.000000 0.000000 0.000000
1.067754 0.489678 0.824636 0.000000 0.000000 0.000000
1.026998 0.609715 0.738391 0.000000 0.000000 0.000000
1.010489 0.325060 0.957662 0.000000 0.000000 0.000000
0.844645 0.609804 0.754561 0.000000 0.000000 0.000000
0.873608 0.627077 0.750661 0.000000 0.000000 0.000000
0.832077 0.585124 0.768353 0.000000 0.000000 0.000000
0.897492 0.355601 0.896643 0.000000 0.000000 0.000000
0.996403 0.631742 0.740875 0.000000 0.000000 0.000000
0.988480 0.601940 0.762307 0.000000 0.000000 0.000000
1.064812 0.429391 0.871053 0.000000 0.000000 0.000000
0.961627 0.644821 0.744207 0.000000 0.000000 0.000000
1.003074 0.631964 0.737724 0.000000 0.000000 0.000000
0.808892 0.520189 0.795600 0.000000 0.000000 0.000000
1.080509 0.476750 0.827856 0.000000 0.000000 0.000000
1.027641 0.592143 0.757969 0.000000 0.000000 0.000000
0.845137 0.419701 0.849286 0.000000 0.000000 0.000000
1.028600 0.606506 0.748045 0.000000 0.000000 0.000000
0.811998 0.480627 0.828824 0.000000 0.000000 0.000000
0.889729 0.372716 0.871348 0.000000 0.000000 0.000000
0.941489 0.372375 0.922626 0.000000 0.000000 0.000000
0.933854 0.348745 0.938848 0.000000 0.000000 0.000000
0.887387 0.370203 0.872553 0.000000 0.000000 0.000000
0.914405 0.645905 0.749390 0.000000 0.000000 0.000000
1.042196 0.593959 0.745412 0.000000 0.000000 0.000000
0.839226 0.450491 0.847474 0.000000 0.000000 0.000000
1.065747 0.433079 0.871802 0.000000 0.000000 0.000000
0.807399 0.501822 0.813317 0.000000 0.000000 0.000000
0.870614 0.614358 0.763567 0.000000 0.000000 0.000000
0.807122 0.526638 0.792593 0.000000 0.000000 0.000000
0.924089 0.380177 0.913280 0.000000 0.000000 0.000000
0.987511 0.327940 0.952487 0.000000 0.000000 0.000000
0.801437 0.467420 0.831351 0.000000 0.000000 0.000000
1.086722 0.376603 0.899118 0.000000 0.000000 0.000000
0.885904 0.637226 0.746403 0.000000 0.000000 0.000000
0.902449 0.641922 0.762318 0.000000 0.000000 0.000000
0.809747 0.478078 0.829680 0.000000 0.000000 0.000000
0.952351 0.650594 0.746165 0.000000 0.000000 0.000000
0.969756 0.652812 0.735210 0.000000 0.000000 0.000000
1.073067 0.433526 0.872115 0.000000 0.000000 0.000000
0.866496 0.601834 0.766506 0.000000 0.000000 0.000000
1.078259 0.390581 0.894484 0.000000 0.000000 0.000000
0.796884 0.492110 0.815706 0.000000 0.000000 0.000000
0.910962 0.654865 0.748704 0.000000 0.000000 0.000000
0.935350 0.359645 0.928974 0.000000 0.000000 0.000000
1.046620 0.357117 0.927404 0.000000 0.000000 0.000000
0.990745 0.632315 0.736187 0.000000 0.000000 0.000000
0.886284 0.635406 0.751076 0.000000 0.000000 0.000000
0.922386 0.650779 0.754114 0.000000 0.000000 0.000000
0.799583 0.499107 0.813155 0.000000 0.000000 0.000000
0.909230 0.371526 0.904564 0.000000 0.000000 0.000000
0.820303 0.542187 0.791538 0.000000 0.000000 0.000000
0.809455 0.471338 0.829417 0.000000 0.000000 0.000000
0.800016 0.491385 0.821581 0.000000 0.000000 0.000000
0.831321 0.440190 0.842819 0.000000 0.000000 0.000000
1.019443 0.608959 0.744587 0.000000 0.000000 0.000000
1.079246 0.451500 0.865813 0.000000 0.000000 0.000000
0.814947 0.549818 0.780397 0.000000 0.000000 0.000000
0.900576 0.651287 0.747883 0.000000 0.000000 0.000000
0.810160 0.545280 0.781755 0.000000 0.000000 0.000000
1.065989 0.446692 0.862972 0.000000 0.000000 0.000000
1.007184 0.322535 0.960684 0.000000 0.000000 0.000000
1.004906 0.316879 0.965339 0.000000 0.000000 0.000000
0.977744 0.646944 0.738205 0.000000 0.000000 0.000000
1.063459 0.528191 0.795954 0.000000 0.000000 0.000000
1.044524 0.579526 0.766854 0.000000 0.000000 0.000000
1.061403 0.467516 0.841494 0.000000 0.000000 0.000000
1.074968 0.441077 0.872465 0.000000 0.000000 0.000000
0.815643 0.552648 0.780179 0.000000 0.000000 0.000000
1.016136 0.324785 0.958715 0.000000 0.000000 0.000000
0.990800 0.635656 0.733054 0.000000 0.000000 0.000000
1.001049 0.317138 0.965216 0.000000 0.000000 0.000000
0.885736 0.623103 0.759186 0.000000 0.000000 0.000000
1.060782 0.532973 0.792850 0.000000 0.000000 0.000000
0.899021 0.648823 0.760738 0.000000 0.000000 0.000000
0.953374 0.348729 0.939514 0.000000 0.000000 0.000000
1.075400 0.520187 0.798681 0.000000 0.000000 0.000000
0.811004 0.463510 0.839017 0.000000 0.000000 0.000000
0.798463 0.490669 0.817925 0.000000 0.000000 0.000000
0.893000 0.647440 0.744299 0.000000 0.000000 0.000000
0.962170 0.342029 0.947880 0.000000 0.000000 0.000000
0.810011 0.454317 0.839444 0.000000 0.000000 0.000000
1.036499 0.597770 0.743935 0.000000 0.000000 0.000000
0.804306 0.506276 0.805883 0.000000 0.000000 0.000000
0.805206 0.479989 0.831018 0.000000 0.000000 0.000000
0.806338 0.542406 0.783344 0.000000 0.000000 0.000000
0.904726 0.650454 0.748186 0.000000 0.000000 0.000000
1.002433 0.625039 0.740206 0.000000 0.000000 0.000000
0.915445 0.364110 0.918815 0.000000 0.000000 0.000000
0.925622 0.651982 0.754887 0.000000 0.000000 0.000000
0.976908 0.485848 0.862618 0.000000 0.000000 0.000000
0.995565 0.581340 0.782065 0.000000 0.000000 0.000000
1.024255 0.327033 0.949870 0.000000 0.000000 0.000000
0.901930 0.651671 0.744927 0.000000 0.000000 0.000000
1.038670 0.592779 0.751224 0.000000 0.000000 0.000000
1.082695 0.463163 0.840284 0.000000 0.000000 0.000000
0.893959 0.647315 0.746537 0.000000 0.000000 0.000000
1.033939 0.601224 0.743341 0.000000 0.000000 0.000000
1.029259 0.597290 0.761347 0.000000 0.000000 0.000000
0.805122 0.494607 0.816272 0.000000 0.000000 0.000000
1.044283 0.579924 0.761197 0.000000 0.000000 0.000000
0.800769 0.509946 0.805407 0.000000 0.000000 0.000000
1.039337 0.576480 0.756533 0.000000 0.000000 0.000000
0.965678 0.518280 0.840208 0.000000 0.000000 0.000000
0.799473 0.500819 0.809749 0.000000 0.000000 0.000000
0.977552 0.578348 0.798133 0.000000 0.000000 0.000000
0.998095 0.592865 0.789718 0.000000 0.000000 0.000000
1.016880 0.589736 0.794103 0.000000 0.000000 0.000000
1.023378 0.569955 0.793707 0.000000 0.000000 0.000000
1.050789 0.570114 0.774530 0.000000 0.000000 0.000000
0.978542 0.511253 0.840764 0.000000 0.000000 0.000000
1.022618 0.327853 0.959741 0.000000 0.000000 0.000000
0.893622 0.647197 0.745581 0.000000 0.000000 0.000000
1.037804 0.586116 0.763803 0.000000 0.000000 0.000000
1.048707 0.470724 0.846274 0.000000 0.000000 0.000000
0.886509 0.643000 0.743683 0.000000 0.000000 0.000000
0.951700 0.348247 0.942747 0.000000 0.000000 0.000000
0.979878 0.344359 0.945953 0.000000 0.000000 0.000000
0.825158 0.563255 0.772643 0.000000 0.000000 0.000000
0.993237 0.320272 0.964127 0.000000 0.000000 0.000000
0.823243 0.449371 0.838866 0.000000 0.000000 0.000000
0.862630 0.615170 0.754326 0.000000 0.000000 0.000000
0.987192 0.318479 0.963348 0.000000 0.000000 0.000000
0.807496 0.486287 0.827241 0.000000 0.000000 0.000000
0.944376 0.343281 0.942795 0.000000 0.000000 0.000000
1.078425 0.440899 0.860447 0.000000 0.000000 0.000000
0.943495 0.662173 0.742615 0.000000 0.000000 0.000000
0.815922 0.448183 0.841568 0.000000 0.000000 0.000000
0.815487 0.510336 0.804934 0.000000 0.000000 0.000000
0.908439 0.655622 0.742736 0.000000 0.000000 0.000000
0.916939 0.646902 0.749446 0.000000 0.000000 0.000000
1.008917 0.319394 0.962268 0.000000 0.000000 0.000000
0.895039 0.650505 0.742635 0.000000 0.000000 0.000000
1.034743 0.588363 0.757594 0.000000 0.000000 0.000000
0.813121 0.456185 0.839366 0.000000 0.000000 0.000000
0.794562 0.490602 0.814895 0.000000 0.000000 0.000000
0.891927 0.373450 0.870965 0.000000 0.000000 0.000000
0.826959 0.451145 0.840423 0.000000 0.000000 0.000000
0.992288 0.623445 0.750220 0.000000 0.000000 0.000000
1.092927 0.428168 0.860801 0.000000 0.000000 0.000000
0.811114 0.455078 0.842902 0.000000 0.000000 0.000000
0.897968 0.372647 0.882631 0.000000 0.000000 0.000000
1.033897 0.603687 0.741780 0.000000 0.000000 0.000000
1.074120 0.419676 0.874255 0.000000 0.000000 0.000000
1.000349 0.632975 0.732095 0.000000 0.000000 0.000000
1.043193 0.590415 0.748385 0.000000 0.000000 0.000000
0.804536 0.486249 0.835719 0.000000 0.000000 0.000000
0.881689 0.378379 0.861430 0.000000 0.000000 0.000000
0.980908 0.637183 0.745696 0.000000 0.000000 0.000000
0.833145 0.489544 0.827641 0.000000 0.000000 0.000000
0.976978 0.534706 0.831291 0.000000 0.000000 0.000000
0.943783 0.343639 0.943833 0.000000 0.000000 0.000000
1.000539 0.316808 0.965039 0.000000 0.000000 0.000000
0.894074 0.618439 0.766527 0.000000 0.000000 0.000000
0.996147 0.318476 0.964887 0.000000 0.000000 0.000000
0.837227 0.572022 0.776526 0.000000 0.000000 0.000000
0.848755 0.609790 0.758197 0.000000 0.000000 0.000000
0.801510 0.467765 0.831717 0.000000 0.000000 0.000000
0.947636 0.646835 0.739907 0.000000 0.000000 0.000000
0.796639 0.478337 0.822981 0.000000 0.000000 0.000000
0.978326 0.327418 0.958136 0.000000 0.000000 0.000000
0.849941 0.592830 0.768091 0.000000 0.000000 0.000000
0.988190 0.322691 0.957225 0.000000 0.000000 0.000000
0.846415 0.593269 0.762197 0.000000 0.000000 0.000000
0.997786 0.331443 0.960148 0.000000 0.000000 0.000000
0.804461 0.504197 0.809704 0.000000 0.000000 0.000000
1.039725 0.577367 0.763182 0.000000 0.000000 0.000000
0.879539 0.602116 0.774977 0.000000 0.000000 0.000000
0.986704 0.638010 0.733338 0.000000 0.000000 0.000000
0.864079 0.603001 0.766964 0.000000 0.000000 0.000000
1.020006 0.330234 0.954557 0.000000 0.000000 0.000000
0.837073 0.596539 0.758705 0.000000 0.000000 0.000000
1.027084 0.322365 0.958035 0.000000 0.000000 0.000000
1.007607 0.328245 0.961168 0.000000 0.000000 0.000000
1.025029 0.560156 0.785850 0.000000 0.000000 0.000000
0.825998 0.573065 0.771609 0.000000 0.000000 0.000000
0.882685 0.599034 0.766318 0.000000 0.000000 0.000000
0.861258 0.606762 0.761970 0.000000 0.000000 0.000000
0.925987 0.666130 0.743920 0.000000 0.000000 0.000000
0.907449 0.650816 0.742817 0.000000 0.000000 0.000000
0.796740 0.501561 0.804976 0.000000 0.000000 0.000000
0.859578 0.611918 0.762364 0.000000 0.000000 0.000000
0.993861 0.626987 0.748602 0.000000 0.000000 0.000000
0.860065 0.602907 0.764473 0.000000 0.000000 0.000000
0.924062 0.657972 0.744549 0.000000 0.000000 0.000000
0.944562 0.355857 0.935258 0.000000 0.000000 0.000000
0.971126 0.334431 0.953301 0.000000 0.000000 0.000000
0.977285 0.326009 0.961220 0.000000 0.000000 0.000000
0.973900 0.322569 0.958375 0.000000 0.000000 0.000000
0.868485 0.617076 0.754203 0.000000 0.000000 0.000000
1.068502 0.550502 0.774735 0.000000 0.000000 0.000000
0.799046 0.512456 0.801941 0.000000 0.000000 0.000000
0.802619 0.504822 0.807876 0.000000 0.000000 0.000000
0.955452 0.657354 0.739958 0.000000 0.000000 0.000000
0.825789 0.512091 0.812885 0.000000 0.000000 0.000000
0.940788 0.639107 0.755884 0.000000 0.000000 0.000000
1.074594 0.526030 0.793326 0.000000 0.000000 0.000000
0.964437 0.652969 0.736737 0.000000 0.000000 0.000000
1.088758 0.443363 0.855032 0.000000 0.000000 0.000000
1.001123 0.481483 0.861837 0.000000 0.000000 0.000000
0.932039 0.607871 0.779804 0.000000 0.000000 0.000000
1.069452 0.528770 0.796933 0.000000 0.000000 0.000000
0.878967 0.416638 0.852196 0.000000 0.000000 0.000000
0.829377 0.500635 0.820098 0.000000 0.000000 0.000000
1.058885 0.545655 0.780592 0.000000 0.000000 0.000000
0.808350 0.514742 0.800585 0.000000 0.000000 0.000000
0.850712 0.515434 0.821126 0.000000 0.000000 0.000000
1.080816 0.526316 0.796790 0.000000 0.000000 0.000000
0.798270 0.494716 0.815704 0.000000 0.000000 0.000000
0.798213 0.499520 0.813449 0.000000 0.000000 0.000000
1.002248 0.324129 0.955903 0.000000 0.000000 0.000000
1.086787 0.455252 0.844378 0.000000 0.000000 0.000000
0.914674 0.371936 0.908770 0.000000 0.000000 0.000000
1.098069 0.455107 0.841659 0.000000 0.000000 0.000000
1.074314 0.519906 0.804668 0.000000 0.000000 0.000000
0.860881 0.394388 0.849965 0.000000 0.000000 0.000000
0.820103 0.516450 0.808405 0.000000 0.000000 0.000000
1.068323 0.545647 0.782051 0.000000 0.000000 0.000000
0.797206 0.499753 0.809574 0.000000 0.000000 0.000000
1.008288 0.314677 0.964971 0.000000 0.000000 0.000000
1.067765 0.518632 0.806661 0.000000 0.000000 0.000000
0.884678 0.632476 0.740949 0.000000 0.000000 0.000000
0.822177 0.567720 0.771610 0.000000 0.000000 0.000000
1.084106 0.444314 0.856447 0.000000 0.000000 0.000000
0.893342 0.569311 0.800398 0.000000 0.000000 0.000000
1.056138 0.539685 0.790392 0.000000 0.000000 0.000000
0.976381 0.518610 0.849469 0.000000 0.000000 0.000000
0.844107 0.552044 0.791222 0.000000 0.000000 0.000000
0.927182 0.513059 0.840043 0.000000 0.000000 0.000000
0.888375 0.564385 0.798791 0.000000 0.000000 0.000000
0.874547 0.543188 0.806691 0.000000 0.000000 0.000000
0.921191 0.515098 0.834799 0.000000 0.000000 0.000000
1.059221 0.563241 0.770379 0.000000 0.000000 0.000000
0.876055 0.594210 0.772244 0.000000 0.000000 0.000000
1.030631 0.606519 0.738099 0.000000 0.000000 0.000000
0.991483 0.548813 0.825911 0.000000 0.000000 0.000000
1.070342 0.516281 0.801557 0.000000 0.000000 0.000000
0.846407 0.405007 0.850519 0.000000 0.000000 0.000000
0.819436 0.487862 0.825549 0.000000 0.000000 0.000000
1.047735 0.329535 0.949145 0.000000 0.000000 0.000000
0.901524 0.365878 0.896875 0.000000 0.000000 0.000000
0.862685 0.624985 0.753410 0.000000 0.000000 0.000000
0.908192 0.372954 0.901485 0.000000 0.000000 0.000000
0.909572 0.355224 0.918829 0.000000 0.000000 0.000000
0.960328 0.331767 0.952770 0.000000 0.000000 0.000000
0.808311 0.456323 0.837365 0.000000 0.000000 0.000000
0.801991 0.490944 0.824017 0.000000 0.000000 0.000000
0.908936 0.378390 0.900202 0.000000 0.000000 0.000000
0.834772 0.465579 0.841052 0.000000 0.000000 0.000000
0.905897 0.357993 0.914126 0.000000 0.000000 0.000000
0.909446 0.363760 0.917910 0.000000 0.000000 0.000000
0.980718 0.323499 0.959293 0.000000 0.000000 0.000000
0.909702 0.362338 0.912333 0.000000 0.000000 0.000000
1.056831 0.566598 0.770223 0.000000 0.000000 0.000000
0.883869 0.637756 0.742178 0.000000 0.000000 0.000000
0.918617 0.389117 0.908919 0.000000 0.000000 0.000000
0.911485 0.358444 0.917788 0.000000 0.000000 0.000000
0.915446 0.354644 0.924136 0.000000 0.000000 0.000000
1.054664 0.562738 0.775506 0.000000 0.000000 0.000000
1.060385 0.374829 0.906984 0.000000 0.000000 0.000000
0.963036 0.345749 0.943161 0.000000 0.000000 0.000000
1.053405 0.327646 0.946678 0.000000 0.000000 0.000000
1.065066 0.548839 0.781502 0.000000 0.000000 0.000000
0.868338 0.574177 0.784556 0.000000 0.000000 0.000000
1.027873 0.597378 0.748180 0.000000 0.000000 0.000000
1.036565 0.601354 0.742889 0.000000 0.000000 0.000000
0.936738 0.347919 0.937583 0.000000 0.000000 0.000000
1.067221 0.460596 0.851859 0.000000 0.000000 0.000000
0.939427 0.661466 0.740315 0.000000 0.000000 0.000000
0.939913 0.662102 0.741347 0.000000 0.000000 0.000000
0.944981 0.341310 0.943850 0.000000 0.000000 0.000000
0.935215 0.344982 0.940296 0.000000 0.000000 0.000000
0.928776 0.354335 0.930972 0.000000 0.000000 0.000000
0.943264 0.361662 0.932254 0.000000 0.000000 0.000000
0.936070 0.355513 0.932270 0.000000 0.000000 0.000000
0.947963 0.344854 0.941948 0.000000 0.000000 0.000000
1.088901 0.402604 0.883747 0.000000 0.000000 0.000000
0.927016 0.376905 0.914666 0.000000 0.000000 0.000000
1.068591 0.413037 0.880481 0.000000 0.000000 0.000000
0.836818 0.582285 0.772537 0.000000 0.000000 0.000000
0.948606 0.351889 0.939549 0.000000 0.000000 0.000000
1.051915 0.576406 0.757478 0.000000 0.000000 0.000000
0.935326 0.355086 0.929479 0.000000 0.000000 0.000000
0.940965 0.365649 0.925497 0.000000 0.000000 0.000000
0.944205 0.351261 0.936627 0.000000 0.000000 0.000000
1.068547 0.474331 0.834791 0.000000 0.000000 0.000000
0.915414 0.367990 0.915543 0.000000 0.000000 0.000000
0.854198 0.407545 0.848408 0.000000 0.000000 0.000000
0.836060 0.591797 0.761729 0.000000 0.000000 0.000000
0.912665 0.358992 0.921042 0.000000 0.000000 0.000000
1.054414 0.324971 0.949739 0.000000 0.000000 0.000000
0.854744 0.421245 0.848351 0.000000 0.000000 0.000000
0.878869 0.385661 0.854669 0.000000 0.000000 0.000000
0.851174 0.411728 0.848510 0.000000 0.000000 0.000000
1.030501 0.604423 0.740775 0.000000 0.000000 0.000000
0.863211 0.402569 0.846761 0.000000 0.000000 0.000000
0.912049 0.361523 0.923923 0.000000 0.000000 0.000000
0.936682 0.664438 0.747885 0.000000 0.000000 0.000000
0.938881 0.618043 0.776494 0.000000 0.000000 0.000000
0.992073 0.605700 0.763868 0.000000 0.000000 0.000000
0.906362 0.592497 0.781496 0.000000 0.000000 0.000000
0.849519 0.429243 0.850671 0.000000 0.000000 0.000000
1.028047 0.569276 0.783907 0.000000 0.000000 0.000000
0.838203 0.426539 0.852047 0.000000 0.000000 0.000000
0.936529 0.662029 0.743380 0.000000 0.000000 0.000000
0.964372 0.575916 0.802479 0.000000 0.000000 0.000000
1.008536 0.438012 0.884572 0.000000 0.000000 0.000000
0.997482 0.577083 0.782122 0.000000 0.000000 0.000000
0.872447 0.412753 0.847419 0.000000 0.000000 0.000000
1.092806 0.401390 0.883219 0.000000 0.000000 0.000000
0.991868 0.537583 0.822158 0.000000 0.000000 0.000000
1.096644 0.448774 0.846789 0.000000 0.000000 0.000000
0.923481 0.351881 0.932672 0.000000 0.000000 0.000000
0.912631 0.619729 0.763794 0.000000 0.000000 0.000000
0.988726 0.613467 0.760435 0.000000 0.000000 0.000000
0.907738 0.622462 0.771719 0.000000 0.000000 0.000000
1.008774 0.584522 0.770730 0.000000 0.000000 0.000000
0.953540 0.628055 0.757302 0.000000 0.000000 0.000000
0.985968 0.593977 0.772620 0.000000 0.000000 0.000000
1.006425 0.441134 0.875430 0.000000 0.000000 0.000000
0.984197 0.591919 0.774212 0.000000 0.000000 0.000000
0.994323 0.530547 0.834676 0.000000 0.000000 0.000000
1.057426 0.468034 0.852026 0.000000 0.000000 0.000000
0.915317 0.365763 0.917885 0.000000 0.000000 0.000000
0.829043 0.440101 0.848179 0.000000 0.000000 0.000000
0.968466 0.324753 0.955804 0.000000 0.000000 0.000000
0.825154 0.430521 0.847945 0.000000 0.000000 0.000000
1.028840 0.610206 0.734531 0.000000 0.000000 0.000000
0.909216 0.353996 0.917126 0.000000 0.000000 0.000000
1.049909 0.325092 0.951603 0.000000 0.000000 0.000000
1.050436 0.325738 0.949253 0.000000 0.000000 0.000000
0.903715 0.649678 0.747696 0.000000 0.000000 0.000000
0.861133 0.596589 0.773124 0.000000 0.000000 0.000000
1.036334 0.335869 0.948138 0.000000 0.000000 0.000000
1.080442 0.480068 0.842978 0.000000 0.000000 0.000000
0.845001 0.604179 0.764985 0.000000 0.000000 0.000000
0.987895 0.600406 0.766820 0.000000 0.000000 0.000000
0.878741 0.586570 0.774372 0.000000 0.000000 0.000000
0.875117 0.628036 0.745869 0.000000 0.000000 0.000000
0.862539 0.623278 0.752072 0.000000 0.000000 0.000000
0.885515 0.375189 0.872015 0.000000 0.000000 0.000000
1.017789 0.337784 0.948381 0.000000 0.000000 0.000000
0.940902 0.574138 0.808668 0.000000 0.000000 0.000000
1.014439 0.342582 0.946486 0.000000 0.000000 0.000000
1.079992 0.512232 0.804852 0.000000 0.000000 0.000000
1.088780 0.475062 0.839420 0.000000 0.000000 0.000000
0.848838 0.599450 0.761261 0.000000 0.000000 0.000000
0.982387 0.597646 0.771330 0.000000 0.000000 0.000000
0.872472 0.606100 0.769579 0.000000 0.000000 0.000000
1.040279 0.325699 0.957033 0.000000 0.000000 0.000000
1.092233 0.486773 0.827323 0.000000 0.000000 0.000000
0.865907 0.622952 0.754004 0.000000 0.000000 0.000000
0.893632 0.357822 0.891595 0.000000 0.000000 0.000000
0.908383 0.657550 0.752496 0.000000 0.000000 0.000000
0.885270 0.374276 0.863540 0.000000 0.000000 0.000000
1.040541 0.328336 0.951052 0.000000 0.000000 0.000000
1.052983 0.336645 0.939839 0.000000 0.000000 0.000000
0.905583 0.363937 0.905976 0.000000 0.000000 0.000000
0.967020 0.329704 0.954301 0.000000 0.000000 0.000000
1.000311 0.322889 0.960235 0.000000 0.000000 0.000000
0.960907 0.331579 0.951968 0.000000 0.000000 0.000000
0.970211 0.335555 0.952116 0.000000 0.000000 0.000000
1.010425 0.320587 0.969052 0.000000 0.000000 0.000000
0.998302 0.316901 0.963213 0.000000 0.000000 0.000000
0.945472 0.336657 0.944669 0.000000 0.000000 0.000000
0.797706 0.489632 0.821095 0.000000 0.000000 0.000000
0.981217 0.598588 0.776731 0.000000 0.000000 0.000000
0.995797 0.584714 0.780709 0.000000 0.000000 0.000000
1.076299 0.507273 0.821099 0.000000 0.000000 0.000000
1.074749 0.517010 0.817623 0.000000 0.000000 0.000000
1.071925 0.374114 0.904004 0.000000 0.000000 0.000000
0.996894 0.629881 0.738025 0.000000 0.000000 0.000000
1.067116 0.474013 0.839589 0.000000 0.000000 0.000000
0.986555 0.602603 0.762784 0.000000 0.000000 0.000000
0.972675 0.607716 0.771637 0.000000 0.000000 0.000000
1.078429 0.466096 0.842053 0.000000 0.000000 0.000000
1.032074 0.325908 0.963172 0.000000 0.000000 0.000000
1.080591 0.370033 0.914162 0.000000 0.000000 0.000000
1.077111 0.357980 0.914738 0.000000 0.000000 0.000000
1.013584 0.619029 0.729768 0.000000 0.000000 0.000000
0.976242 0.647278 0.733309 0.000000 0.000000 0.000000
0.891811 0.370587 0.867024 0.000000 0.000000 0.000000
0.966645 0.609445 0.776420 0.000000 0.000000 0.000000
0.993685 0.575814 0.794423 0.000000 0.000000 0.000000
1.038302 0.440459 0.877360 0.000000 0.000000 0.000000
1.064106 0.536371 0.806127 0.000000 0.000000 0.000000
1.075931 0.476624 0.836205 0.000000 0.000000 0.000000
1.028222 0.486689 0.851265 0.000000 0.000000 0.000000
1.083797 0.512758 0.806922 0.000000 0.000000 0.000000
1.032926 0.550251 0.791918 0.000000 0.000000 0.000000
1.067987 0.464323 0.856265 0.000000 0.000000 0.000000
1.062437 0.472404 0.842007 0.000000 0.000000 0.000000
1.009961 0.618941 0.738252 0.000000 0.000000 0.000000
0.968421 0.653324 0.734605 0.000000 0.000000 0.000000
0.949987 0.524791 0.847882 0.000000 0.000000 0.000000
0.797869 0.512016 0.801670 0.000000 0.000000 0.000000
0.798126 0.498994 0.816890 0.000000 0.000000 0.000000
0.862605 0.624099 0.769747 0.000000 0.000000 0.000000
0.964804 0.333756 0.951613 0.000000 0.000000 0.000000
0.879222 0.633528 0.744237 0.000000 0.000000 0.000000
0.862581 0.616535 0.753457 0.000000 0.000000 0.000000
1.015370 0.620676 0.739173 0.000000 0.000000 0.000000
0.854676 0.600019 0.759462 0.000000 0.000000 0.000000
0.818893 0.568041 0.770941 0.000000 0.000000 0.000000
1.024140 0.614228 0.748248 0.000000 0.000000 0.000000
