ply
format ascii 1.0
comment VCGLIB generated
obj_info Generated by SPFormer!
element vertex 884
property float x
property float y
property float z
property float nx
property float ny
property float nz
end_header
0.751367 1.203131 1.182906 0.000000 0.000000 0.000000
0.804557 1.061537 1.211522 0.000000 0.000000 0.000000
0.755410 1.154574 1.196851 0.000000 0.000000 0.000000
0.879323 1.093343 1.167670 0.000000 0.000000 0.000000
0.914394 1.071295 1.160070 0.000000 0.000000 0.000000
0.768724 1.234521 1.155557 0.000000 0.000000 0.000000
0.748922 1.129193 1.201593 0.000000 0.000000 0.000000
0.871196 1.083746 1.174214 0.000000 0.000000 0.000000
0.811964 1.161070 1.159050 0.000000 0.000000 0.000000
0.797430 1.215730 1.156743 0.000000 0.000000 0.000000
0.794177 1.175346 1.162248 0.000000 0.000000 0.000000
0.851351 1.050527 1.195941 0.000000 0.000000 0.000000
0.851844 1.203320 1.124289 0.000000 0.000000 0.000000
0.750865 1.209066 1.187142 0.000000 0.000000 0.000000
0.828720 1.059546 1.200015 0.000000 0.000000 0.000000
0.794818 1.088495 1.200544 0.000000 0.000000 0.000000
0.781480 1.054483 1.225800 0.000000 0.000000 0.000000
0.800270 1.176023 1.177618 0.000000 0.000000 0.000000
0.864506 1.073925 1.181503 0.000000 0.000000 0.000000
0.743673 1.150099 1.199941 0.000000 0.000000 0.000000
0.721667 1.235159 1.181932 0.000000 0.000000 0.000000
0.733133 1.189655 1.183063 0.000000 0.000000 0.000000
0.792466 1.202442 1.169597 0.000000 0.000000 0.000000
0.890095 1.148071 1.119982 0.000000 0.000000 0.000000
0.820994 1.066014 1.203879 0.000000 0.000000 0.000000
0.789921 1.164001 1.167205 0.000000 0.000000 0.000000
0.869518 1.136475 1.140734 0.000000 0.000000 0.000000
0.846915 1.084379 1.194880 0.000000 0.000000 0.000000
0.878676 1.089319 1.177661 0.000000 0.000000 0.000000
0.743410 1.233384 1.173412 0.000000 0.000000 0.000000
0.838170 1.217144 1.125070 0.000000 0.000000 0.000000
0.822669 1.158716 1.162366 0.000000 0.000000 0.000000
0.904580 1.088506 1.156831 0.000000 0.000000 0.000000
0.775411 1.212094 1.156140 0.000000 0.000000 0.000000
0.819475 1.028353 1.220307 0.000000 0.000000 0.000000
0.848017 1.155410 1.141452 0.000000 0.000000 0.000000
0.895836 1.056415 1.182534 0.000000 0.000000 0.000000
0.800713 1.047482 1.225702 0.000000 0.000000 0.000000
0.721453 1.204331 1.198403 0.000000 0.000000 0.000000
0.765270 1.226710 1.155330 0.000000 0.000000 0.000000
0.912665 1.096060 1.138926 0.000000 0.000000 0.000000
0.838774 1.181529 1.136196 0.000000 0.000000 0.000000
0.788839 1.203824 1.152259 0.000000 0.000000 0.000000
0.787827 1.133806 1.191164 0.000000 0.000000 0.000000
0.754340 1.167341 1.198756 0.000000 0.000000 0.000000
0.828247 1.167204 1.146883 0.000000 0.000000 0.000000
0.711710 1.222313 1.190111 0.000000 0.000000 0.000000
0.864814 1.093922 1.168457 0.000000 0.000000 0.000000
0.825660 1.055847 1.204257 0.000000 0.000000 0.000000
0.824603 1.029416 1.215736 0.000000 0.000000 0.000000
0.763434 1.227743 1.157010 0.000000 0.000000 0.000000
0.751620 1.247125 1.161694 0.000000 0.000000 0.000000
0.836143 1.060484 1.195686 0.000000 0.000000 0.000000
0.750381 1.237806 1.171495 0.000000 0.000000 0.000000
0.918795 1.052005 1.180020 0.000000 0.000000 0.000000
0.742347 1.244893 1.160571 0.000000 0.000000 0.000000
0.787371 1.228850 1.154587 0.000000 0.000000 0.000000
0.712917 1.187060 1.204759 0.000000 0.000000 0.000000
0.777715 1.048265 1.226062 0.000000 0.000000 0.000000
0.717977 1.193530 1.197806 0.000000 0.000000 0.000000
0.784736 1.154683 1.181851 0.000000 0.000000 0.000000
0.831116 1.056809 1.201401 0.000000 0.000000 0.000000
0.788156 1.117925 1.202928 0.000000 0.000000 0.000000
0.850619 1.059913 1.189649 0.000000 0.000000 0.000000
0.742778 1.225014 1.172866 0.000000 0.000000 0.000000
0.725623 1.151252 1.207283 0.000000 0.000000 0.000000
0.727022 1.249636 1.170021 0.000000 0.000000 0.000000
0.738063 1.252442 1.163562 0.000000 0.000000 0.000000
0.783643 1.231635 1.154477 0.000000 0.000000 0.000000
0.711688 1.181491 1.206784 0.000000 0.000000 0.000000
0.909323 1.093456 1.150808 0.000000 0.000000 0.000000
0.876539 1.035235 1.200974 0.000000 0.000000 0.000000
0.717287 1.200651 1.189723 0.000000 0.000000 0.000000
0.830676 1.063292 1.192544 0.000000 0.000000 0.000000
0.808058 1.232718 1.136512 0.000000 0.000000 0.000000
0.776072 1.186310 1.169493 0.000000 0.000000 0.000000
0.845128 1.204786 1.128959 0.000000 0.000000 0.000000
0.823653 1.069165 1.195137 0.000000 0.000000 0.000000
0.704824 1.215701 1.196268 0.000000 0.000000 0.000000
0.791003 1.135600 1.181437 0.000000 0.000000 0.000000
0.799942 1.043901 1.219193 0.000000 0.000000 0.000000
0.751350 1.089623 1.219864 0.000000 0.000000 0.000000
0.899521 1.111253 1.142425 0.000000 0.000000 0.000000
0.881196 1.138671 1.132911 0.000000 0.000000 0.000000
0.749487 1.222063 1.164520 0.000000 0.000000 0.000000
0.794372 1.057469 1.218892 0.000000 0.000000 0.000000
0.756783 1.223578 1.179353 0.000000 0.000000 0.000000
0.764631 1.246062 1.160943 0.000000 0.000000 0.000000
0.778802 1.066759 1.217311 0.000000 0.000000 0.000000
0.786558 1.224594 1.147584 0.000000 0.000000 0.000000
0.847490 1.104728 1.187366 0.000000 0.000000 0.000000
0.737234 1.123887 1.211638 0.000000 0.000000 0.000000
0.730282 1.105102 1.224240 0.000000 0.000000 0.000000
0.751610 1.231255 1.160697 0.000000 0.000000 0.000000
0.893518 1.118839 1.146216 0.000000 0.000000 0.000000
0.724057 1.116355 1.223665 0.000000 0.000000 0.000000
0.747280 1.184994 1.199819 0.000000 0.000000 0.000000
0.804794 1.125468 1.178451 0.000000 0.000000 0.000000
0.748419 1.235747 1.166847 0.000000 0.000000 0.000000
0.774774 1.253783 1.145196 0.000000 0.000000 0.000000
0.741421 1.107245 1.217079 0.000000 0.000000 0.000000
0.812869 1.214454 1.139256 0.000000 0.000000 0.000000
0.839638 1.031830 1.213648 0.000000 0.000000 0.000000
0.812664 1.190126 1.154038 0.000000 0.000000 0.000000
0.813176 1.039481 1.219060 0.000000 0.000000 0.000000
0.876864 1.169850 1.123715 0.000000 0.000000 0.000000
0.792556 1.073937 1.206598 0.000000 0.000000 0.000000
0.863376 1.185968 1.124397 0.000000 0.000000 0.000000
0.765030 1.081070 1.220691 0.000000 0.000000 0.000000
0.706352 1.231990 1.191792 0.000000 0.000000 0.000000
0.920098 1.076513 1.157283 0.000000 0.000000 0.000000
0.876331 1.040279 1.194624 0.000000 0.000000 0.000000
0.743519 1.201099 1.173149 0.000000 0.000000 0.000000
0.717353 1.224723 1.187111 0.000000 0.000000 0.000000
0.718248 1.136605 1.224609 0.000000 0.000000 0.000000
0.819595 1.061206 1.201092 0.000000 0.000000 0.000000
0.738619 1.217206 1.191914 0.000000 0.000000 0.000000
0.721415 1.246457 1.169226 0.000000 0.000000 0.000000
0.799685 1.029011 1.224447 0.000000 0.000000 0.000000
0.827224 1.223610 1.128822 0.000000 0.000000 0.000000
0.796995 1.051514 1.220300 0.000000 0.000000 0.000000
0.859579 1.045214 1.199028 0.000000 0.000000 0.000000
0.813580 1.205245 1.152617 0.000000 0.000000 0.000000
0.831931 1.057774 1.199732 0.000000 0.000000 0.000000
0.742131 1.229540 1.183514 0.000000 0.000000 0.000000
0.834248 1.024767 1.215986 0.000000 0.000000 0.000000
0.850088 1.137353 1.150035 0.000000 0.000000 0.000000
0.844796 1.043338 1.200924 0.000000 0.000000 0.000000
0.770513 1.102277 1.203510 0.000000 0.000000 0.000000
0.792797 1.029500 1.226505 0.000000 0.000000 0.000000
0.805379 1.048085 1.221177 0.000000 0.000000 0.000000
0.714753 1.207421 1.190519 0.000000 0.000000 0.000000
0.860379 1.108496 1.167010 0.000000 0.000000 0.000000
0.902911 1.110037 1.143560 0.000000 0.000000 0.000000
0.853895 1.045667 1.198569 0.000000 0.000000 0.000000
0.776375 1.059570 1.222269 0.000000 0.000000 0.000000
0.829783 1.217516 1.134813 0.000000 0.000000 0.000000
0.755991 1.256192 1.158515 0.000000 0.000000 0.000000
0.779178 1.252777 1.144901 0.000000 0.000000 0.000000
0.722925 1.219801 1.176948 0.000000 0.000000 0.000000
0.866756 1.164023 1.125759 0.000000 0.000000 0.000000
0.785585 1.205876 1.155178 0.000000 0.000000 0.000000
0.741788 1.234724 1.161918 0.000000 0.000000 0.000000
0.894558 1.122005 1.136475 0.000000 0.000000 0.000000
0.721706 1.173097 1.205201 0.000000 0.000000 0.000000
0.785961 1.235631 1.148452 0.000000 0.000000 0.000000
0.907567 1.054283 1.177279 0.000000 0.000000 0.000000
0.894993 1.056228 1.178556 0.000000 0.000000 0.000000
0.731555 1.250507 1.170532 0.000000 0.000000 0.000000
0.737905 1.225134 1.165466 0.000000 0.000000 0.000000
0.725261 1.231618 1.179049 0.000000 0.000000 0.000000
0.772050 1.240408 1.145957 0.000000 0.000000 0.000000
0.875460 1.051977 1.184018 0.000000 0.000000 0.000000
0.716969 1.192414 1.203642 0.000000 0.000000 0.000000
0.756860 1.243681 1.156633 0.000000 0.000000 0.000000
0.769727 1.238869 1.149313 0.000000 0.000000 0.000000
0.718311 1.246459 1.178268 0.000000 0.000000 0.000000
0.743654 1.248053 1.158162 0.000000 0.000000 0.000000
0.752440 1.208829 1.179977 0.000000 0.000000 0.000000
0.707561 1.214606 1.194691 0.000000 0.000000 0.000000
0.762275 1.215628 1.168146 0.000000 0.000000 0.000000
0.734536 1.256945 1.168992 0.000000 0.000000 0.000000
0.748183 1.212909 1.168386 0.000000 0.000000 0.000000
0.855142 1.192473 1.121816 0.000000 0.000000 0.000000
0.775744 1.099616 1.208394 0.000000 0.000000 0.000000
0.750199 1.242103 1.169965 0.000000 0.000000 0.000000
0.796434 1.234839 1.144202 0.000000 0.000000 0.000000
0.842480 1.198191 1.138947 0.000000 0.000000 0.000000
0.869210 1.047571 1.198516 0.000000 0.000000 0.000000
0.764047 1.237558 1.166871 0.000000 0.000000 0.000000
0.845303 1.048549 1.197558 0.000000 0.000000 0.000000
0.830586 1.144934 1.165169 0.000000 0.000000 0.000000
0.888429 1.140760 1.132865 0.000000 0.000000 0.000000
0.727652 1.186912 1.195243 0.000000 0.000000 0.000000
0.822498 1.196753 1.153905 0.000000 0.000000 0.000000
0.740552 1.256353 1.165886 0.000000 0.000000 0.000000
0.728668 1.256783 1.172336 0.000000 0.000000 0.000000
0.815687 1.064856 1.197089 0.000000 0.000000 0.000000
0.800612 1.222969 1.134090 0.000000 0.000000 0.000000
0.767239 1.070423 1.222577 0.000000 0.000000 0.000000
0.744870 1.251802 1.165478 0.000000 0.000000 0.000000
0.803324 1.218379 1.142611 0.000000 0.000000 0.000000
0.913089 1.100791 1.149873 0.000000 0.000000 0.000000
0.886009 1.126063 1.140027 0.000000 0.000000 0.000000
0.717519 1.201804 1.194960 0.000000 0.000000 0.000000
0.715884 1.250620 1.178515 0.000000 0.000000 0.000000
0.790528 1.237498 1.141872 0.000000 0.000000 0.000000
0.835384 1.017903 1.217211 0.000000 0.000000 0.000000
0.879410 1.151977 1.137074 0.000000 0.000000 0.000000
0.888213 1.136972 1.135264 0.000000 0.000000 0.000000
0.764318 1.088380 1.212143 0.000000 0.000000 0.000000
0.752951 1.137640 1.207117 0.000000 0.000000 0.000000
0.721580 1.238068 1.184715 0.000000 0.000000 0.000000
0.800762 1.070162 1.207209 0.000000 0.000000 0.000000
0.792198 1.059820 1.218476 0.000000 0.000000 0.000000
0.803455 1.227819 1.139878 0.000000 0.000000 0.000000
0.818733 1.226178 1.137121 0.000000 0.000000 0.000000
0.896042 1.102272 1.149830 0.000000 0.000000 0.000000
0.878860 1.127598 1.144393 0.000000 0.000000 0.000000
0.754006 1.250874 1.155031 0.000000 0.000000 0.000000
0.823584 1.041938 1.218863 0.000000 0.000000 0.000000
0.741075 1.260305 1.161711 0.000000 0.000000 0.000000
0.817356 1.219755 1.141246 0.000000 0.000000 0.000000
0.798113 1.195586 1.154200 0.000000 0.000000 0.000000
0.761873 1.061535 1.232971 0.000000 0.000000 0.000000
0.744272 1.121946 1.213194 0.000000 0.000000 0.000000
0.762760 1.167889 1.181926 0.000000 0.000000 0.000000
0.820299 1.182327 1.145412 0.000000 0.000000 0.000000
0.811950 1.033210 1.218983 0.000000 0.000000 0.000000
0.800938 1.223738 1.148861 0.000000 0.000000 0.000000
0.803852 1.051595 1.219378 0.000000 0.000000 0.000000
0.754983 1.191292 1.176037 0.000000 0.000000 0.000000
0.730560 1.248753 1.168651 0.000000 0.000000 0.000000
0.812658 1.227615 1.135409 0.000000 0.000000 0.000000
0.821421 1.223107 1.134252 0.000000 0.000000 0.000000
0.918746 1.090643 1.146197 0.000000 0.000000 0.000000
0.822380 1.224649 1.129234 0.000000 0.000000 0.000000
0.746124 1.218267 1.176264 0.000000 0.000000 0.000000
0.707253 1.211689 1.193267 0.000000 0.000000 0.000000
0.721538 1.201796 1.191953 0.000000 0.000000 0.000000
0.714356 1.252619 1.176849 0.000000 0.000000 0.000000
0.828510 1.213287 1.128976 0.000000 0.000000 0.000000
0.798563 1.225478 1.143852 0.000000 0.000000 0.000000
0.891303 1.058215 1.186014 0.000000 0.000000 0.000000
0.778407 1.244069 1.149786 0.000000 0.000000 0.000000
0.740199 1.255169 1.159823 0.000000 0.000000 0.000000
0.842429 1.195713 1.132437 0.000000 0.000000 0.000000
0.866970 1.135950 1.146661 0.000000 0.000000 0.000000
0.885078 1.138069 1.126045 0.000000 0.000000 0.000000
0.878049 1.138874 1.134344 0.000000 0.000000 0.000000
0.726775 1.257227 1.169841 0.000000 0.000000 0.000000
0.829885 1.199686 1.134327 0.000000 0.000000 0.000000
0.793855 1.228833 1.145063 0.000000 0.000000 0.000000
0.843593 1.025371 1.209241 0.000000 0.000000 0.000000
0.725264 1.196057 1.198737 0.000000 0.000000 0.000000
0.733269 1.151206 1.210689 0.000000 0.000000 0.000000
0.739007 1.102067 1.220149 0.000000 0.000000 0.000000
0.825206 1.208992 1.134212 0.000000 0.000000 0.000000
0.728587 1.239411 1.170315 0.000000 0.000000 0.000000
0.755980 1.240999 1.154822 0.000000 0.000000 0.000000
0.810105 1.025953 1.222032 0.000000 0.000000 0.000000
0.831839 1.100055 1.200942 0.000000 0.000000 0.000000
0.787293 1.253438 1.140634 0.000000 0.000000 0.000000
0.724337 1.128463 1.225614 0.000000 0.000000 0.000000
0.843518 1.044295 1.205057 0.000000 0.000000 0.000000
0.792749 1.241546 1.146891 0.000000 0.000000 0.000000
0.794877 1.237472 1.134052 0.000000 0.000000 0.000000
0.835451 1.041053 1.211488 0.000000 0.000000 0.000000
0.862487 1.157608 1.129447 0.000000 0.000000 0.000000
0.889231 1.138901 1.138580 0.000000 0.000000 0.000000
0.799552 1.212198 1.147363 0.000000 0.000000 0.000000
0.825319 1.222920 1.137824 0.000000 0.000000 0.000000
0.811082 1.195949 1.137174 0.000000 0.000000 0.000000
0.807677 1.226357 1.147009 0.000000 0.000000 0.000000
0.853511 1.182418 1.119344 0.000000 0.000000 0.000000
0.709032 1.253361 1.179549 0.000000 0.000000 0.000000
0.743928 1.257271 1.154786 0.000000 0.000000 0.000000
0.715237 1.215120 1.185988 0.000000 0.000000 0.000000
0.766842 1.074754 1.219101 0.000000 0.000000 0.000000
0.830758 1.023372 1.219660 0.000000 0.000000 0.000000
0.777922 1.051740 1.224866 0.000000 0.000000 0.000000
0.730743 1.181606 1.204040 0.000000 0.000000 0.000000
0.859936 1.014024 1.213366 0.000000 0.000000 0.000000
0.786447 1.053046 1.220090 0.000000 0.000000 0.000000
0.740810 1.179323 1.195301 0.000000 0.000000 0.000000
0.731644 1.146137 1.201281 0.000000 0.000000 0.000000
0.759191 1.081905 1.219885 0.000000 0.000000 0.000000
0.800611 1.016673 1.228944 0.000000 0.000000 0.000000
0.906691 1.114325 1.137885 0.000000 0.000000 0.000000
0.722615 1.256492 1.173351 0.000000 0.000000 0.000000
0.709092 1.255484 1.181040 0.000000 0.000000 0.000000
0.764576 1.046672 1.233981 0.000000 0.000000 0.000000
0.747560 1.237403 1.160613 0.000000 0.000000 0.000000
0.902281 1.044450 1.194927 0.000000 0.000000 0.000000
0.748049 1.263325 1.156484 0.000000 0.000000 0.000000
0.730508 1.242803 1.181213 0.000000 0.000000 0.000000
0.746013 1.093446 1.218121 0.000000 0.000000 0.000000
0.785684 1.232933 1.144526 0.000000 0.000000 0.000000
0.723100 1.160409 1.207005 0.000000 0.000000 0.000000
0.757480 1.053973 1.230584 0.000000 0.000000 0.000000
0.748654 1.086343 1.222225 0.000000 0.000000 0.000000
0.748110 1.250862 1.159905 0.000000 0.000000 0.000000
0.723586 1.155773 1.202350 0.000000 0.000000 0.000000
0.742753 1.092946 1.222220 0.000000 0.000000 0.000000
0.727287 1.240857 1.173899 0.000000 0.000000 0.000000
0.704187 1.205769 1.196616 0.000000 0.000000 0.000000
0.704814 1.197776 1.197793 0.000000 0.000000 0.000000
0.897075 1.132306 1.132965 0.000000 0.000000 0.000000
0.821638 1.121143 1.170475 0.000000 0.000000 0.000000
0.887605 1.135655 1.137497 0.000000 0.000000 0.000000
0.721367 1.244710 1.179445 0.000000 0.000000 0.000000
0.744700 1.086031 1.225246 0.000000 0.000000 0.000000
0.738990 1.134277 1.219764 0.000000 0.000000 0.000000
0.709102 1.193547 1.201855 0.000000 0.000000 0.000000
0.743652 1.255243 1.160223 0.000000 0.000000 0.000000
0.837450 1.210275 1.131024 0.000000 0.000000 0.000000
0.873166 1.158567 1.121327 0.000000 0.000000 0.000000
0.713910 1.186091 1.206949 0.000000 0.000000 0.000000
0.725689 1.184040 1.210373 0.000000 0.000000 0.000000
0.757271 1.243404 1.154771 0.000000 0.000000 0.000000
0.811446 1.244658 1.129626 0.000000 0.000000 0.000000
0.777655 1.258205 1.145530 0.000000 0.000000 0.000000
0.731213 1.260284 1.164877 0.000000 0.000000 0.000000
0.817446 1.053742 1.212887 0.000000 0.000000 0.000000
0.834557 1.013740 1.224100 0.000000 0.000000 0.000000
0.856964 1.182054 1.123172 0.000000 0.000000 0.000000
0.833589 1.019333 1.217566 0.000000 0.000000 0.000000
0.711848 1.210810 1.191670 0.000000 0.000000 0.000000
0.737176 1.254715 1.165906 0.000000 0.000000 0.000000
0.712238 1.173928 1.209427 0.000000 0.000000 0.000000
0.892915 1.150632 1.114944 0.000000 0.000000 0.000000
0.796176 1.038654 1.221836 0.000000 0.000000 0.000000
0.802612 1.039836 1.226913 0.000000 0.000000 0.000000
0.709866 1.193423 1.197806 0.000000 0.000000 0.000000
0.760940 1.238849 1.160910 0.000000 0.000000 0.000000
0.793856 1.225854 1.150781 0.000000 0.000000 0.000000
0.722171 1.181848 1.200890 0.000000 0.000000 0.000000
0.850661 1.018757 1.209044 0.000000 0.000000 0.000000
0.799402 1.236035 1.147504 0.000000 0.000000 0.000000
0.850730 1.183093 1.124303 0.000000 0.000000 0.000000
0.888528 1.145146 1.130114 0.000000 0.000000 0.000000
0.761927 1.103356 1.212254 0.000000 0.000000 0.000000
0.743245 1.098135 1.222057 0.000000 0.000000 0.000000
0.711085 1.253933 1.181330 0.000000 0.000000 0.000000
0.854418 1.192090 1.123758 0.000000 0.000000 0.000000
0.817160 1.040125 1.219773 0.000000 0.000000 0.000000
0.754048 1.246170 1.170343 0.000000 0.000000 0.000000
0.739418 1.228373 1.167520 0.000000 0.000000 0.000000
0.741321 1.259656 1.164757 0.000000 0.000000 0.000000
0.717442 1.246021 1.181728 0.000000 0.000000 0.000000
0.709184 1.221162 1.194701 0.000000 0.000000 0.000000
0.803601 1.245130 1.135611 0.000000 0.000000 0.000000
0.849964 1.034947 1.206468 0.000000 0.000000 0.000000
0.843247 1.206614 1.135094 0.000000 0.000000 0.000000
0.752050 1.149230 1.191879 0.000000 0.000000 0.000000
0.787920 1.046024 1.223914 0.000000 0.000000 0.000000
0.741559 1.246434 1.172797 0.000000 0.000000 0.000000
0.776068 1.246670 1.149571 0.000000 0.000000 0.000000
0.723912 1.253481 1.174332 0.000000 0.000000 0.000000
0.718743 1.253153 1.176927 0.000000 0.000000 0.000000
0.803586 1.246584 1.133647 0.000000 0.000000 0.000000
0.822601 1.231434 1.130809 0.000000 0.000000 0.000000
0.698649 1.200751 1.207415 0.000000 0.000000 0.000000
0.763295 1.251803 1.149760 0.000000 0.000000 0.000000
0.726229 1.256929 1.169042 0.000000 0.000000 0.000000
0.778738 1.073673 1.212978 0.000000 0.000000 0.000000
0.846282 1.011205 1.217353 0.000000 0.000000 0.000000
0.705387 1.181837 1.214631 0.000000 0.000000 0.000000
0.699849 1.178761 1.215214 0.000000 0.000000 0.000000
0.895701 1.147893 1.114120 0.000000 0.000000 0.000000
0.862174 1.189620 1.114514 0.000000 0.000000 0.000000
0.733454 1.248004 1.166830 0.000000 0.000000 0.000000
0.728729 1.260085 1.171036 0.000000 0.000000 0.000000
0.713548 1.244781 1.177980 0.000000 0.000000 0.000000
0.735996 1.233244 1.166722 0.000000 0.000000 0.000000
0.701203 1.191039 1.206665 0.000000 0.000000 0.000000
0.812749 1.230035 1.131898 0.000000 0.000000 0.000000
0.783032 1.237029 1.145829 0.000000 0.000000 0.000000
0.775096 1.219651 1.155271 0.000000 0.000000 0.000000
0.762537 1.260091 1.151404 0.000000 0.000000 0.000000
0.732387 1.254723 1.171427 0.000000 0.000000 0.000000
0.765439 1.261368 1.146789 0.000000 0.000000 0.000000
0.749523 1.218694 1.173755 0.000000 0.000000 0.000000
0.716633 1.256784 1.179068 0.000000 0.000000 0.000000
0.723758 1.253572 1.176018 0.000000 0.000000 0.000000
0.814718 1.235982 1.134848 0.000000 0.000000 0.000000
0.782225 1.258977 1.139643 0.000000 0.000000 0.000000
0.701407 1.178974 1.211556 0.000000 0.000000 0.000000
0.719134 1.254777 1.173429 0.000000 0.000000 0.000000
0.728427 1.257657 1.171731 0.000000 0.000000 0.000000
0.805583 1.229110 1.135539 0.000000 0.000000 0.000000
0.713622 1.184039 1.206750 0.000000 0.000000 0.000000
0.846430 1.166498 1.148804 0.000000 0.000000 0.000000
0.725622 1.252288 1.177616 0.000000 0.000000 0.000000
0.716448 1.245498 1.178752 0.000000 0.000000 0.000000
0.806385 1.233647 1.142546 0.000000 0.000000 0.000000
0.713162 1.257942 1.179619 0.000000 0.000000 0.000000
0.760567 1.261370 1.151692 0.000000 0.000000 0.000000
0.711476 1.201570 1.197574 0.000000 0.000000 0.000000
0.709249 1.254532 1.180781 0.000000 0.000000 0.000000
0.700033 1.196244 1.205440 0.000000 0.000000 0.000000
0.713028 1.205045 1.200281 0.000000 0.000000 0.000000
0.789683 1.036119 1.227378 0.000000 0.000000 0.000000
0.820956 1.046617 1.215601 0.000000 0.000000 0.000000
0.749930 1.259177 1.158946 0.000000 0.000000 0.000000
0.775651 1.035889 1.232742 0.000000 0.000000 0.000000
0.717446 1.258152 1.175907 0.000000 0.000000 0.000000
0.810164 1.239028 1.139544 0.000000 0.000000 0.000000
0.761611 1.253530 1.156603 0.000000 0.000000 0.000000
0.761770 1.052786 1.233265 0.000000 0.000000 0.000000
0.801019 1.085274 1.194216 0.000000 0.000000 0.000000
0.726445 1.096445 1.228863 0.000000 0.000000 0.000000
0.719450 1.253923 1.176134 0.000000 0.000000 0.000000
0.718826 1.217706 1.185852 0.000000 0.000000 0.000000
0.770729 1.038925 1.234128 0.000000 0.000000 0.000000
0.729562 1.251205 1.164364 0.000000 0.000000 0.000000
0.738241 1.262061 1.161333 0.000000 0.000000 0.000000
0.784285 1.254298 1.138064 0.000000 0.000000 0.000000
0.913743 1.108066 1.136969 0.000000 0.000000 0.000000
0.746627 1.260310 1.156478 0.000000 0.000000 0.000000
0.736887 1.259510 1.164988 0.000000 0.000000 0.000000
0.715359 1.238054 1.177382 0.000000 0.000000 0.000000
0.793435 1.249701 1.138764 0.000000 0.000000 0.000000
0.755575 1.258606 1.155864 0.000000 0.000000 0.000000
0.719574 1.257374 1.173408 0.000000 0.000000 0.000000
0.810550 1.233598 1.134942 0.000000 0.000000 0.000000
0.927759 1.063406 1.156434 0.000000 0.000000 0.000000
0.717963 1.258968 1.174660 0.000000 0.000000 0.000000
0.715537 1.245443 1.175364 0.000000 0.000000 0.000000
0.903103 1.122336 1.128434 0.000000 0.000000 0.000000
0.718881 1.242739 1.182822 0.000000 0.000000 0.000000
0.880420 1.161489 1.120938 0.000000 0.000000 0.000000
0.910378 1.107184 1.140405 0.000000 0.000000 0.000000
0.724225 1.244610 1.173938 0.000000 0.000000 0.000000
0.747757 1.262219 1.156452 0.000000 0.000000 0.000000
0.916976 1.079123 1.151349 0.000000 0.000000 0.000000
0.914295 1.076201 1.159574 0.000000 0.000000 0.000000
0.897828 1.087572 1.158044 0.000000 0.000000 0.000000
0.853967 1.094285 1.170871 0.000000 0.000000 0.000000
0.758224 1.180396 1.189128 0.000000 0.000000 0.000000
0.756958 1.130457 1.195952 0.000000 0.000000 0.000000
0.924000 1.044897 1.177452 0.000000 0.000000 0.000000
0.909991 1.096529 1.154054 0.000000 0.000000 0.000000
0.872305 1.066490 1.193770 0.000000 0.000000 0.000000
0.808294 1.217435 1.148628 0.000000 0.000000 0.000000
0.914045 1.117346 1.136244 0.000000 0.000000 0.000000
0.764373 1.249188 1.163294 0.000000 0.000000 0.000000
0.872093 1.137064 1.148892 0.000000 0.000000 0.000000
0.889433 1.090817 1.160460 0.000000 0.000000 0.000000
0.854783 1.141832 1.146336 0.000000 0.000000 0.000000
0.793996 1.237302 1.141323 0.000000 0.000000 0.000000
0.792636 1.062999 1.216828 0.000000 0.000000 0.000000
0.774024 1.052236 1.230232 0.000000 0.000000 0.000000
0.916624 1.050361 1.184666 0.000000 0.000000 0.000000
0.905815 1.123252 1.127242 0.000000 0.000000 0.000000
0.765112 1.054443 1.232378 0.000000 0.000000 0.000000
0.918166 1.120153 1.114866 0.000000 0.000000 0.000000
0.877912 1.166743 1.113801 0.000000 0.000000 0.000000
0.891546 1.133190 1.130610 0.000000 0.000000 0.000000
0.862440 1.101439 1.163552 0.000000 0.000000 0.000000
0.728505 1.173064 1.200105 0.000000 0.000000 0.000000
0.882987 1.069558 1.189144 0.000000 0.000000 0.000000
0.763819 1.214267 1.156392 0.000000 0.000000 0.000000
0.893333 1.102676 1.167427 0.000000 0.000000 0.000000
0.779689 1.087675 1.205455 0.000000 0.000000 0.000000
0.892384 1.149063 1.118791 0.000000 0.000000 0.000000
0.904455 1.134571 1.135216 0.000000 0.000000 0.000000
0.840849 1.133016 1.159276 0.000000 0.000000 0.000000
0.701632 1.218910 1.198033 0.000000 0.000000 0.000000
0.788962 1.244548 1.149657 0.000000 0.000000 0.000000
0.873725 1.110605 1.170952 0.000000 0.000000 0.000000
0.700648 1.172940 1.214559 0.000000 0.000000 0.000000
0.782407 1.056332 1.227453 0.000000 0.000000 0.000000
0.913439 1.106210 1.135878 0.000000 0.000000 0.000000
0.842411 1.013960 1.217942 0.000000 0.000000 0.000000
0.740346 1.250002 1.164418 0.000000 0.000000 0.000000
0.741225 1.072657 1.229887 0.000000 0.000000 0.000000
0.740171 1.069142 1.234960 0.000000 0.000000 0.000000
0.923954 1.093363 1.147910 0.000000 0.000000 0.000000
0.786949 1.121860 1.186267 0.000000 0.000000 0.000000
0.860065 1.072015 1.181516 0.000000 0.000000 0.000000
0.851318 1.138865 1.168808 0.000000 0.000000 0.000000
0.929478 1.044403 1.182971 0.000000 0.000000 0.000000
0.790422 1.245519 1.150075 0.000000 0.000000 0.000000
0.710581 1.228488 1.192533 0.000000 0.000000 0.000000
0.788289 1.107526 1.192960 0.000000 0.000000 0.000000
0.858269 1.017859 1.209946 0.000000 0.000000 0.000000
0.754052 1.225291 1.159740 0.000000 0.000000 0.000000
0.854373 1.036515 1.205397 0.000000 0.000000 0.000000
0.750465 1.171748 1.184109 0.000000 0.000000 0.000000
0.884495 1.159349 1.112514 0.000000 0.000000 0.000000
0.839770 1.008836 1.221993 0.000000 0.000000 0.000000
0.923499 1.089150 1.137297 0.000000 0.000000 0.000000
0.876354 1.125040 1.163529 0.000000 0.000000 0.000000
0.756578 1.189629 1.172318 0.000000 0.000000 0.000000
0.831016 1.087558 1.181757 0.000000 0.000000 0.000000
0.804947 1.205837 1.150588 0.000000 0.000000 0.000000
0.778678 1.079991 1.209573 0.000000 0.000000 0.000000
0.757662 1.217473 1.161724 0.000000 0.000000 0.000000
0.740217 1.207291 1.175777 0.000000 0.000000 0.000000
0.783795 1.248786 1.149643 0.000000 0.000000 0.000000
0.765717 1.244924 1.149533 0.000000 0.000000 0.000000
0.747931 1.123051 1.206508 0.000000 0.000000 0.000000
0.771286 1.201428 1.167800 0.000000 0.000000 0.000000
0.850942 1.042457 1.198891 0.000000 0.000000 0.000000
0.758442 1.052095 1.234107 0.000000 0.000000 0.000000
0.767611 1.241892 1.149438 0.000000 0.000000 0.000000
0.720292 1.249091 1.177976 0.000000 0.000000 0.000000
0.819016 1.240714 1.128885 0.000000 0.000000 0.000000
0.782387 1.030501 1.231512 0.000000 0.000000 0.000000
0.715548 1.259017 1.178858 0.000000 0.000000 0.000000
0.799594 1.203807 1.163848 0.000000 0.000000 0.000000
0.730828 1.107259 1.230990 0.000000 0.000000 0.000000
0.791635 1.145256 1.180220 0.000000 0.000000 0.000000
0.732915 1.243137 1.167392 0.000000 0.000000 0.000000
0.761719 1.079647 1.236868 0.000000 0.000000 0.000000
0.738530 1.216080 1.170103 0.000000 0.000000 0.000000
0.703309 1.212124 1.200061 0.000000 0.000000 0.000000
0.908040 1.126380 1.122852 0.000000 0.000000 0.000000
0.908485 1.118321 1.132118 0.000000 0.000000 0.000000
0.881208 1.177563 1.100515 0.000000 0.000000 0.000000
0.907806 1.125172 1.122696 0.000000 0.000000 0.000000
0.898609 1.142671 1.111333 0.000000 0.000000 0.000000
0.731865 1.106124 1.227033 0.000000 0.000000 0.000000
0.824465 1.189238 1.154814 0.000000 0.000000 0.000000
0.736743 1.126487 1.221296 0.000000 0.000000 0.000000
0.815733 1.066303 1.209884 0.000000 0.000000 0.000000
0.785307 1.151503 1.179887 0.000000 0.000000 0.000000
0.743907 1.249895 1.164176 0.000000 0.000000 0.000000
0.780791 1.249226 1.144321 0.000000 0.000000 0.000000
0.707562 1.220493 1.192384 0.000000 0.000000 0.000000
0.908151 1.119955 1.133735 0.000000 0.000000 0.000000
0.892799 1.163655 1.101074 0.000000 0.000000 0.000000
0.767997 1.235419 1.149732 0.000000 0.000000 0.000000
0.916734 1.113269 1.125601 0.000000 0.000000 0.000000
0.738716 1.113232 1.217182 0.000000 0.000000 0.000000
0.752967 1.252348 1.154288 0.000000 0.000000 0.000000
0.756722 1.250821 1.164152 0.000000 0.000000 0.000000
0.721244 1.258014 1.173122 0.000000 0.000000 0.000000
0.843366 1.221447 1.122868 0.000000 0.000000 0.000000
0.788190 1.251812 1.141294 0.000000 0.000000 0.000000
0.755347 1.169676 1.181491 0.000000 0.000000 0.000000
0.731208 1.243358 1.173153 0.000000 0.000000 0.000000
0.704359 1.190974 1.207027 0.000000 0.000000 0.000000
0.806312 1.152951 1.164244 0.000000 0.000000 0.000000
0.733940 1.112456 1.223909 0.000000 0.000000 0.000000
0.848786 1.207339 1.127061 0.000000 0.000000 0.000000
0.795425 1.248460 1.141521 0.000000 0.000000 0.000000
0.876430 1.179807 1.105935 0.000000 0.000000 0.000000
0.756971 1.164181 1.187206 0.000000 0.000000 0.000000
0.921223 1.109381 1.120090 0.000000 0.000000 0.000000
0.761603 1.249812 1.157177 0.000000 0.000000 0.000000
0.728242 1.254968 1.172691 0.000000 0.000000 0.000000
0.731712 1.098490 1.220796 0.000000 0.000000 0.000000
0.716654 1.217440 1.190604 0.000000 0.000000 0.000000
0.872585 1.174307 1.121729 0.000000 0.000000 0.000000
0.821870 1.016649 1.219594 0.000000 0.000000 0.000000
0.907440 1.111200 1.142326 0.000000 0.000000 0.000000
0.877343 1.019397 1.203551 0.000000 0.000000 0.000000
0.704582 1.230037 1.193171 0.000000 0.000000 0.000000
0.922042 1.073671 1.150383 0.000000 0.000000 0.000000
0.901034 1.138413 1.120746 0.000000 0.000000 0.000000
0.786559 1.192557 1.157538 0.000000 0.000000 0.000000
0.898939 1.146649 1.121162 0.000000 0.000000 0.000000
0.844093 1.025238 1.211777 0.000000 0.000000 0.000000
0.914537 1.104147 1.131725 0.000000 0.000000 0.000000
0.798301 1.243955 1.138662 0.000000 0.000000 0.000000
0.912566 1.098251 1.144057 0.000000 0.000000 0.000000
0.874523 1.156201 1.127851 0.000000 0.000000 0.000000
0.889038 1.150202 1.118155 0.000000 0.000000 0.000000
0.782057 1.073344 1.227750 0.000000 0.000000 0.000000
0.736430 1.264521 1.161323 0.000000 0.000000 0.000000
0.738347 1.077469 1.230288 0.000000 0.000000 0.000000
0.751729 1.250710 1.156114 0.000000 0.000000 0.000000
0.725482 1.262777 1.168800 0.000000 0.000000 0.000000
0.736131 1.154776 1.198871 0.000000 0.000000 0.000000
0.752726 1.103205 1.225122 0.000000 0.000000 0.000000
0.838866 1.015442 1.218495 0.000000 0.000000 0.000000
0.912086 1.054254 1.187786 0.000000 0.000000 0.000000
0.917206 1.063779 1.171414 0.000000 0.000000 0.000000
0.907574 1.086839 1.167947 0.000000 0.000000 0.000000
0.909535 1.125782 1.120058 0.000000 0.000000 0.000000
0.818520 1.020893 1.226000 0.000000 0.000000 0.000000
0.721751 1.162701 1.207095 0.000000 0.000000 0.000000
0.753649 1.109982 1.206684 0.000000 0.000000 0.000000
0.807466 1.233704 1.139831 0.000000 0.000000 0.000000
0.828119 1.011460 1.221944 0.000000 0.000000 0.000000
0.722313 1.139294 1.213780 0.000000 0.000000 0.000000
0.901637 1.144193 1.109787 0.000000 0.000000 0.000000
0.900401 1.141239 1.114428 0.000000 0.000000 0.000000
0.755996 1.084993 1.219584 0.000000 0.000000 0.000000
0.918459 1.083738 1.155032 0.000000 0.000000 0.000000
0.910650 1.117547 1.142174 0.000000 0.000000 0.000000
0.924234 1.097961 1.135549 0.000000 0.000000 0.000000
0.737322 1.265665 1.161456 0.000000 0.000000 0.000000
0.736686 1.263220 1.161820 0.000000 0.000000 0.000000
0.740832 1.086917 1.222188 0.000000 0.000000 0.000000
0.750561 1.081656 1.222808 0.000000 0.000000 0.000000
0.706139 1.247731 1.190210 0.000000 0.000000 0.000000
0.722142 1.249854 1.177646 0.000000 0.000000 0.000000
0.738504 1.180399 1.187421 0.000000 0.000000 0.000000
0.741273 1.149959 1.197894 0.000000 0.000000 0.000000
0.776620 1.136510 1.184994 0.000000 0.000000 0.000000
0.766436 1.052993 1.229428 0.000000 0.000000 0.000000
0.702710 1.175638 1.212158 0.000000 0.000000 0.000000
0.730595 1.122206 1.224218 0.000000 0.000000 0.000000
0.749676 1.148956 1.193945 0.000000 0.000000 0.000000
0.777161 1.145537 1.183993 0.000000 0.000000 0.000000
0.735421 1.091663 1.230696 0.000000 0.000000 0.000000
0.743681 1.089167 1.229834 0.000000 0.000000 0.000000
0.856819 1.189799 1.127729 0.000000 0.000000 0.000000
0.712821 1.194794 1.199574 0.000000 0.000000 0.000000
0.711580 1.165553 1.213707 0.000000 0.000000 0.000000
0.831358 1.198059 1.147819 0.000000 0.000000 0.000000
0.736931 1.147637 1.201521 0.000000 0.000000 0.000000
0.894730 1.140001 1.119581 0.000000 0.000000 0.000000
0.834878 1.212567 1.135081 0.000000 0.000000 0.000000
0.720372 1.255995 1.174126 0.000000 0.000000 0.000000
0.921109 1.111607 1.119920 0.000000 0.000000 0.000000
0.882398 1.167071 1.108431 0.000000 0.000000 0.000000
0.923319 1.084349 1.146636 0.000000 0.000000 0.000000
0.733321 1.117189 1.216638 0.000000 0.000000 0.000000
0.757296 1.070935 1.229867 0.000000 0.000000 0.000000
0.835025 1.213988 1.133206 0.000000 0.000000 0.000000
0.801883 1.132316 1.177342 0.000000 0.000000 0.000000
0.727832 1.261274 1.167224 0.000000 0.000000 0.000000
0.839918 1.194427 1.142020 0.000000 0.000000 0.000000
0.884599 1.160396 1.114905 0.000000 0.000000 0.000000
0.748176 1.070159 1.232385 0.000000 0.000000 0.000000
0.753755 1.262725 1.153792 0.000000 0.000000 0.000000
0.881034 1.168419 1.107504 0.000000 0.000000 0.000000
0.718919 1.176704 1.203982 0.000000 0.000000 0.000000
0.753491 1.081797 1.221689 0.000000 0.000000 0.000000
0.738798 1.087338 1.227484 0.000000 0.000000 0.000000
0.865270 1.129312 1.162957 0.000000 0.000000 0.000000
0.917429 1.102795 1.134839 0.000000 0.000000 0.000000
0.923442 1.103016 1.124231 0.000000 0.000000 0.000000
0.922666 1.079333 1.149133 0.000000 0.000000 0.000000
0.702410 1.201473 1.203366 0.000000 0.000000 0.000000
0.769620 1.094461 1.208645 0.000000 0.000000 0.000000
0.914907 1.061957 1.173668 0.000000 0.000000 0.000000
0.899494 1.139770 1.116289 0.000000 0.000000 0.000000
0.804769 1.241995 1.135677 0.000000 0.000000 0.000000
0.771645 1.036772 1.237386 0.000000 0.000000 0.000000
0.708649 1.254818 1.185125 0.000000 0.000000 0.000000
0.902475 1.130454 1.126020 0.000000 0.000000 0.000000
0.868519 1.016615 1.210459 0.000000 0.000000 0.000000
0.772113 1.065445 1.227050 0.000000 0.000000 0.000000
0.847664 1.204415 1.121968 0.000000 0.000000 0.000000
0.728747 1.196527 1.191416 0.000000 0.000000 0.000000
0.898567 1.141041 1.124688 0.000000 0.000000 0.000000
0.860135 1.015615 1.210322 0.000000 0.000000 0.000000
0.928173 1.098038 1.127900 0.000000 0.000000 0.000000
0.724921 1.207609 1.184702 0.000000 0.000000 0.000000
0.723627 1.133386 1.217061 0.000000 0.000000 0.000000
0.794268 1.251823 1.138821 0.000000 0.000000 0.000000
0.701851 1.225214 1.190971 0.000000 0.000000 0.000000
0.712789 1.207924 1.193164 0.000000 0.000000 0.000000
0.712645 1.179130 1.207361 0.000000 0.000000 0.000000
0.926783 1.090371 1.135017 0.000000 0.000000 0.000000
0.860413 1.031771 1.213376 0.000000 0.000000 0.000000
0.701222 1.205621 1.203811 0.000000 0.000000 0.000000
0.720061 1.161672 1.205444 0.000000 0.000000 0.000000
0.868166 1.030097 1.203733 0.000000 0.000000 0.000000
0.711984 1.199230 1.203532 0.000000 0.000000 0.000000
0.764653 1.256379 1.155821 0.000000 0.000000 0.000000
0.726164 1.262884 1.168479 0.000000 0.000000 0.000000
0.722001 1.247805 1.178171 0.000000 0.000000 0.000000
0.877690 1.177891 1.108925 0.000000 0.000000 0.000000
0.845699 1.199490 1.126978 0.000000 0.000000 0.000000
0.855861 1.187223 1.117884 0.000000 0.000000 0.000000
0.870128 1.024383 1.202033 0.000000 0.000000 0.000000
0.902838 1.143374 1.106916 0.000000 0.000000 0.000000
0.734825 1.163664 1.215138 0.000000 0.000000 0.000000
0.713766 1.245954 1.183659 0.000000 0.000000 0.000000
0.852281 1.194105 1.119215 0.000000 0.000000 0.000000
0.853107 1.201539 1.120636 0.000000 0.000000 0.000000
0.872994 1.167590 1.134614 0.000000 0.000000 0.000000
0.881177 1.044297 1.192580 0.000000 0.000000 0.000000
0.903697 1.140276 1.109352 0.000000 0.000000 0.000000
0.754449 1.261731 1.155696 0.000000 0.000000 0.000000
0.912345 1.117687 1.121976 0.000000 0.000000 0.000000
0.892583 1.154395 1.108854 0.000000 0.000000 0.000000
0.924195 1.068140 1.159307 0.000000 0.000000 0.000000
0.932263 1.060077 1.157118 0.000000 0.000000 0.000000
0.926710 1.102414 1.124330 0.000000 0.000000 0.000000
0.913558 1.123974 1.116658 0.000000 0.000000 0.000000
0.756146 1.159895 1.184624 0.000000 0.000000 0.000000
0.877447 1.009389 1.209732 0.000000 0.000000 0.000000
0.922337 1.090329 1.138923 0.000000 0.000000 0.000000
0.812073 1.019938 1.223205 0.000000 0.000000 0.000000
0.922722 1.092609 1.138249 0.000000 0.000000 0.000000
0.927837 1.073645 1.149332 0.000000 0.000000 0.000000
0.923101 1.089712 1.143932 0.000000 0.000000 0.000000
0.903935 1.129263 1.123701 0.000000 0.000000 0.000000
0.744923 1.163019 1.189956 0.000000 0.000000 0.000000
0.777614 1.242264 1.152119 0.000000 0.000000 0.000000
0.784700 1.241805 1.149010 0.000000 0.000000 0.000000
0.744770 1.261241 1.155718 0.000000 0.000000 0.000000
0.778811 1.251899 1.142151 0.000000 0.000000 0.000000
0.785135 1.247427 1.144583 0.000000 0.000000 0.000000
0.767509 1.257569 1.146904 0.000000 0.000000 0.000000
0.718766 1.160471 1.212826 0.000000 0.000000 0.000000
0.725837 1.114647 1.225432 0.000000 0.000000 0.000000
0.911461 1.122608 1.121041 0.000000 0.000000 0.000000
0.716982 1.179701 1.203063 0.000000 0.000000 0.000000
0.721525 1.136852 1.222771 0.000000 0.000000 0.000000
0.703017 1.177935 1.211095 0.000000 0.000000 0.000000
0.782182 1.250789 1.143834 0.000000 0.000000 0.000000
0.701288 1.226641 1.194868 0.000000 0.000000 0.000000
0.912758 1.133916 1.107788 0.000000 0.000000 0.000000
0.793774 1.239304 1.151842 0.000000 0.000000 0.000000
0.726545 1.138079 1.212066 0.000000 0.000000 0.000000
0.731495 1.099374 1.231940 0.000000 0.000000 0.000000
0.717274 1.133457 1.221326 0.000000 0.000000 0.000000
0.718048 1.147921 1.213397 0.000000 0.000000 0.000000
0.883860 1.145149 1.137700 0.000000 0.000000 0.000000
0.770391 1.253021 1.143246 0.000000 0.000000 0.000000
0.710890 1.230394 1.189850 0.000000 0.000000 0.000000
0.905982 1.133038 1.118514 0.000000 0.000000 0.000000
0.925481 1.102127 1.123669 0.000000 0.000000 0.000000
0.930354 1.056997 1.161662 0.000000 0.000000 0.000000
0.707502 1.221809 1.192775 0.000000 0.000000 0.000000
0.924570 1.100490 1.126563 0.000000 0.000000 0.000000
0.784079 1.248158 1.144318 0.000000 0.000000 0.000000
0.870571 1.178648 1.117127 0.000000 0.000000 0.000000
0.756777 1.059226 1.231303 0.000000 0.000000 0.000000
0.904536 1.046230 1.183066 0.000000 0.000000 0.000000
0.818312 1.022672 1.226297 0.000000 0.000000 0.000000
0.787030 1.041743 1.226690 0.000000 0.000000 0.000000
0.871017 1.166635 1.122394 0.000000 0.000000 0.000000
0.807543 1.018102 1.228553 0.000000 0.000000 0.000000
0.733726 1.104399 1.222815 0.000000 0.000000 0.000000
0.715757 1.140136 1.220153 0.000000 0.000000 0.000000
0.710370 1.254216 1.181754 0.000000 0.000000 0.000000
0.820571 1.020755 1.220302 0.000000 0.000000 0.000000
0.746454 1.077675 1.229344 0.000000 0.000000 0.000000
0.776721 1.035489 1.231128 0.000000 0.000000 0.000000
0.820538 1.009115 1.224743 0.000000 0.000000 0.000000
0.797488 1.020273 1.230243 0.000000 0.000000 0.000000
0.771163 1.253404 1.154062 0.000000 0.000000 0.000000
0.764244 1.262977 1.149239 0.000000 0.000000 0.000000
0.841368 1.030749 1.217726 0.000000 0.000000 0.000000
0.769126 1.255237 1.145435 0.000000 0.000000 0.000000
0.896206 1.151933 1.105992 0.000000 0.000000 0.000000
0.770230 1.260302 1.145530 0.000000 0.000000 0.000000
0.773332 1.257919 1.145131 0.000000 0.000000 0.000000
0.810846 1.241384 1.133588 0.000000 0.000000 0.000000
0.719326 1.235516 1.189972 0.000000 0.000000 0.000000
0.927490 1.090182 1.134748 0.000000 0.000000 0.000000
0.908401 1.130904 1.117078 0.000000 0.000000 0.000000
0.893645 1.153676 1.116361 0.000000 0.000000 0.000000
0.731017 1.134672 1.213018 0.000000 0.000000 0.000000
0.705406 1.181695 1.210640 0.000000 0.000000 0.000000
0.898588 1.149004 1.106444 0.000000 0.000000 0.000000
0.858388 1.018780 1.206132 0.000000 0.000000 0.000000
0.900763 1.137356 1.117988 0.000000 0.000000 0.000000
0.907204 1.126823 1.120529 0.000000 0.000000 0.000000
0.788441 1.044708 1.228786 0.000000 0.000000 0.000000
0.713483 1.164572 1.212971 0.000000 0.000000 0.000000
0.714846 1.142268 1.214256 0.000000 0.000000 0.000000
0.709873 1.174381 1.210706 0.000000 0.000000 0.000000
0.902488 1.138663 1.112342 0.000000 0.000000 0.000000
0.762975 1.051138 1.234051 0.000000 0.000000 0.000000
0.854967 1.142576 1.146312 0.000000 0.000000 0.000000
0.857746 1.113035 1.178329 0.000000 0.000000 0.000000
0.781429 1.240696 1.157277 0.000000 0.000000 0.000000
0.843219 1.134180 1.175738 0.000000 0.000000 0.000000
0.916643 1.106925 1.124522 0.000000 0.000000 0.000000
0.706318 1.236473 1.190141 0.000000 0.000000 0.000000
0.860576 1.181349 1.122684 0.000000 0.000000 0.000000
0.764227 1.149808 1.187211 0.000000 0.000000 0.000000
0.851693 1.192095 1.133147 0.000000 0.000000 0.000000
0.772349 1.178235 1.170950 0.000000 0.000000 0.000000
0.907834 1.072249 1.166373 0.000000 0.000000 0.000000
0.823844 1.148061 1.160104 0.000000 0.000000 0.000000
0.823626 1.150788 1.157789 0.000000 0.000000 0.000000
0.708434 1.187317 1.210489 0.000000 0.000000 0.000000
0.914071 1.108830 1.131275 0.000000 0.000000 0.000000
0.760583 1.152737 1.188981 0.000000 0.000000 0.000000
0.731173 1.212274 1.176164 0.000000 0.000000 0.000000
0.895478 1.147794 1.115028 0.000000 0.000000 0.000000
0.818047 1.202542 1.139074 0.000000 0.000000 0.000000
0.920935 1.053108 1.169336 0.000000 0.000000 0.000000
0.812426 1.143449 1.168194 0.000000 0.000000 0.000000
0.847770 1.173805 1.134387 0.000000 0.000000 0.000000
0.709088 1.188772 1.214112 0.000000 0.000000 0.000000
0.917370 1.114783 1.121635 0.000000 0.000000 0.000000
0.871193 1.186929 1.106795 0.000000 0.000000 0.000000
0.912463 1.123902 1.115223 0.000000 0.000000 0.000000
0.874900 1.176712 1.108266 0.000000 0.000000 0.000000
0.903516 1.139966 1.108162 0.000000 0.000000 0.000000
0.851648 1.008688 1.211688 0.000000 0.000000 0.000000
0.867903 1.165127 1.135387 0.000000 0.000000 0.000000
0.849484 1.009089 1.215608 0.000000 0.000000 0.000000
0.896802 1.150190 1.106220 0.000000 0.000000 0.000000
0.712526 1.252375 1.181383 0.000000 0.000000 0.000000
0.711508 1.248515 1.186275 0.000000 0.000000 0.000000
0.922960 1.099483 1.130513 0.000000 0.000000 0.000000
0.921117 1.104008 1.129176 0.000000 0.000000 0.000000
0.837317 1.037605 1.205902 0.000000 0.000000 0.000000
0.712881 1.247356 1.177628 0.000000 0.000000 0.000000
0.703677 1.187243 1.202467 0.000000 0.000000 0.000000
0.818795 1.013419 1.228163 0.000000 0.000000 0.000000
0.922548 1.106633 1.122213 0.000000 0.000000 0.000000
0.923692 1.100334 1.130219 0.000000 0.000000 0.000000
0.876320 1.172559 1.117595 0.000000 0.000000 0.000000
0.877016 1.062906 1.188439 0.000000 0.000000 0.000000
0.846609 1.020812 1.210344 0.000000 0.000000 0.000000
0.722688 1.254082 1.173455 0.000000 0.000000 0.000000
0.712041 1.242897 1.182516 0.000000 0.000000 0.000000
0.700614 1.191627 1.207510 0.000000 0.000000 0.000000
0.917924 1.092443 1.143082 0.000000 0.000000 0.000000
0.916372 1.108446 1.130144 0.000000 0.000000 0.000000
0.913105 1.124045 1.117005 0.000000 0.000000 0.000000
0.861782 1.181452 1.124989 0.000000 0.000000 0.000000
0.879175 1.171700 1.118407 0.000000 0.000000 0.000000
0.700233 1.214052 1.201972 0.000000 0.000000 0.000000
0.719576 1.261705 1.173775 0.000000 0.000000 0.000000
0.810828 1.243622 1.131601 0.000000 0.000000 0.000000
0.875502 1.184079 1.102771 0.000000 0.000000 0.000000
0.882301 1.170968 1.103595 0.000000 0.000000 0.000000
0.708126 1.199647 1.200485 0.000000 0.000000 0.000000
0.708381 1.212632 1.195795 0.000000 0.000000 0.000000
0.875508 1.180888 1.108450 0.000000 0.000000 0.000000
0.864199 1.179427 1.125276 0.000000 0.000000 0.000000
0.879474 1.169027 1.121466 0.000000 0.000000 0.000000
0.883796 1.168665 1.102777 0.000000 0.000000 0.000000
0.866654 1.190765 1.109671 0.000000 0.000000 0.000000
0.871311 1.166238 1.126765 0.000000 0.000000 0.000000
0.880155 1.165153 1.115583 0.000000 0.000000 0.000000
0.871929 1.184917 1.106010 0.000000 0.000000 0.000000
0.756897 1.261734 1.152287 0.000000 0.000000 0.000000
0.856021 1.176469 1.132195 0.000000 0.000000 0.000000
0.710500 1.191815 1.208928 0.000000 0.000000 0.000000
0.867856 1.186338 1.110816 0.000000 0.000000 0.000000
0.902223 1.139935 1.113712 0.000000 0.000000 0.000000
0.869316 1.187802 1.111537 0.000000 0.000000 0.000000
0.926635 1.103886 1.125624 0.000000 0.000000 0.000000
0.791732 1.251231 1.136222 0.000000 0.000000 0.000000
0.723650 1.261006 1.167908 0.000000 0.000000 0.000000
0.819845 1.229939 1.135400 0.000000 0.000000 0.000000
0.733494 1.264553 1.166024 0.000000 0.000000 0.000000
0.773778 1.238481 1.155007 0.000000 0.000000 0.000000
0.791364 1.250627 1.138862 0.000000 0.000000 0.000000
0.791081 1.250157 1.140194 0.000000 0.000000 0.000000
0.838095 1.220949 1.129035 0.000000 0.000000 0.000000
0.717888 1.255668 1.177884 0.000000 0.000000 0.000000
0.791873 1.246312 1.141967 0.000000 0.000000 0.000000
0.902315 1.139530 1.115442 0.000000 0.000000 0.000000
0.730969 1.224504 1.178213 0.000000 0.000000 0.000000
0.930241 1.042179 1.177790 0.000000 0.000000 0.000000
0.877840 1.176424 1.106730 0.000000 0.000000 0.000000
0.785607 1.251929 1.141298 0.000000 0.000000 0.000000
0.869650 1.116755 1.154213 0.000000 0.000000 0.000000
0.786798 1.251952 1.141359 0.000000 0.000000 0.000000
0.802657 1.249579 1.135059 0.000000 0.000000 0.000000
0.925392 1.089304 1.139629 0.000000 0.000000 0.000000
0.700033 1.174042 1.215842 0.000000 0.000000 0.000000
0.885627 1.164192 1.106228 0.000000 0.000000 0.000000
0.729995 1.107513 1.227474 0.000000 0.000000 0.000000
0.797101 1.249897 1.134875 0.000000 0.000000 0.000000
0.861083 1.189443 1.111726 0.000000 0.000000 0.000000
0.875363 1.167684 1.119276 0.000000 0.000000 0.000000
0.857469 1.199660 1.118215 0.000000 0.000000 0.000000
0.814617 1.242508 1.130455 0.000000 0.000000 0.000000
0.865491 1.178292 1.113200 0.000000 0.000000 0.000000
0.874966 1.161375 1.139375 0.000000 0.000000 0.000000
0.853482 1.192134 1.114412 0.000000 0.000000 0.000000
0.789302 1.248235 1.138848 0.000000 0.000000 0.000000
0.823214 1.240011 1.127102 0.000000 0.000000 0.000000
0.701530 1.230856 1.193383 0.000000 0.000000 0.000000
0.707917 1.232709 1.186459 0.000000 0.000000 0.000000
0.858739 1.200837 1.113083 0.000000 0.000000 0.000000
0.724296 1.130239 1.225807 0.000000 0.000000 0.000000
0.729046 1.108841 1.223234 0.000000 0.000000 0.000000
0.764807 1.045449 1.233893 0.000000 0.000000 0.000000
0.711356 1.158406 1.217858 0.000000 0.000000 0.000000
0.935483 1.071978 1.142374 0.000000 0.000000 0.000000
0.715755 1.153254 1.214745 0.000000 0.000000 0.000000
0.702782 1.198859 1.203490 0.000000 0.000000 0.000000
0.708217 1.225726 1.199285 0.000000 0.000000 0.000000
0.704685 1.212341 1.197597 0.000000 0.000000 0.000000
0.882067 1.160645 1.133170 0.000000 0.000000 0.000000
0.776204 1.256886 1.144727 0.000000 0.000000 0.000000
0.767437 1.249247 1.152150 0.000000 0.000000 0.000000
0.753142 1.259315 1.155985 0.000000 0.000000 0.000000
0.890439 1.154896 1.111580 0.000000 0.000000 0.000000
0.888190 1.160478 1.108135 0.000000 0.000000 0.000000
0.707332 1.245212 1.187554 0.000000 0.000000 0.000000
0.743032 1.250599 1.166727 0.000000 0.000000 0.000000
0.701113 1.217357 1.195442 0.000000 0.000000 0.000000
0.865929 1.193833 1.111992 0.000000 0.000000 0.000000
0.714392 1.241502 1.183704 0.000000 0.000000 0.000000
0.715064 1.226055 1.182319 0.000000 0.000000 0.000000
0.707013 1.246811 1.185586 0.000000 0.000000 0.000000
0.706418 1.246290 1.187647 0.000000 0.000000 0.000000
0.765831 1.204715 1.161918 0.000000 0.000000 0.000000
0.905799 1.068536 1.180070 0.000000 0.000000 0.000000
0.838469 1.217067 1.128459 0.000000 0.000000 0.000000
0.711560 1.238471 1.183194 0.000000 0.000000 0.000000
0.775407 1.225904 1.159279 0.000000 0.000000 0.000000
0.896961 1.046636 1.195255 0.000000 0.000000 0.000000
0.719245 1.132966 1.222344 0.000000 0.000000 0.000000
