ply
format ascii 1.0
comment VCGLIB generated
obj_info Generated by SPFormer!
element vertex 884
property float x
property float y
property float z
property float nx
property float ny
property float nz
end_header
0.733982 0.827984 1.372783 0.000000 0.000000 0.000000
0.705329 1.077445 2.006216 0.000000 0.000000 0.000000
0.712197 1.148628 2.136673 0.000000 0.000000 0.000000
0.739311 1.031420 1.944311 0.000000 0.000000 0.000000
0.522934 0.461357 1.032693 0.000000 0.000000 0.000000
0.583850 0.714335 1.462613 0.000000 0.000000 0.000000
0.495961 0.682572 1.245813 0.000000 0.000000 0.000000
0.610868 0.780102 1.547159 0.000000 0.000000 0.000000
0.590895 0.728664 1.471978 0.000000 0.000000 0.000000
0.796598 1.228066 2.363896 0.000000 0.000000 0.000000
0.796399 0.933509 1.356781 0.000000 0.000000 0.000000
0.905890 1.010017 1.225744 0.000000 0.000000 0.000000
0.624855 0.737028 1.272367 0.000000 0.000000 0.000000
0.700258 1.078385 1.997429 0.000000 0.000000 0.000000
0.519732 0.485793 1.089476 0.000000 0.000000 0.000000
0.597611 0.724763 1.471810 0.000000 0.000000 0.000000
0.626131 0.824523 1.621527 0.000000 0.000000 0.000000
0.654214 0.944436 1.827395 0.000000 0.000000 0.000000
0.519081 0.469404 1.037497 0.000000 0.000000 0.000000
0.654552 0.935279 1.797829 0.000000 0.000000 0.000000
0.699272 0.769531 1.235986 0.000000 0.000000 0.000000
0.662264 0.969597 1.979445 0.000000 0.000000 0.000000
0.733532 1.177542 2.193589 0.000000 0.000000 0.000000
0.582752 0.711507 1.443176 0.000000 0.000000 0.000000
0.703139 1.143179 2.144168 0.000000 0.000000 0.000000
0.812102 1.256915 2.420863 0.000000 0.000000 0.000000
0.657406 0.973877 1.964550 0.000000 0.000000 0.000000
0.749301 1.138262 2.144411 0.000000 0.000000 0.000000
0.598651 0.767890 1.538773 0.000000 0.000000 0.000000
0.727230 0.822207 1.354808 0.000000 0.000000 0.000000
0.722742 0.828564 1.367370 0.000000 0.000000 0.000000
0.517797 0.477338 1.065314 0.000000 0.000000 0.000000
0.593727 0.752001 1.497160 0.000000 0.000000 0.000000
0.719899 1.085629 1.940212 0.000000 0.000000 0.000000
0.724708 1.176859 2.190548 0.000000 0.000000 0.000000
0.750974 1.139622 2.135608 0.000000 0.000000 0.000000
0.609805 0.794963 1.566533 0.000000 0.000000 0.000000
0.619929 0.848608 1.666805 0.000000 0.000000 0.000000
0.744950 1.061791 1.962664 0.000000 0.000000 0.000000
0.409827 0.605214 0.796550 0.000000 0.000000 0.000000
0.737670 1.061602 1.971183 0.000000 0.000000 0.000000
0.722058 0.712028 1.021190 0.000000 0.000000 0.000000
0.750143 1.133778 2.124807 0.000000 0.000000 0.000000
0.654999 0.986107 1.977944 0.000000 0.000000 0.000000
0.729240 1.111188 2.074986 0.000000 0.000000 0.000000
0.782123 1.188891 2.272145 0.000000 0.000000 0.000000
0.611736 0.617907 0.862067 0.000000 0.000000 0.000000
0.581919 0.675397 1.390419 0.000000 0.000000 0.000000
0.693327 0.729800 1.100400 0.000000 0.000000 0.000000
0.771906 1.188430 2.261802 0.000000 0.000000 0.000000
0.800067 1.220601 2.350070 0.000000 0.000000 0.000000
0.620939 0.841220 1.634956 0.000000 0.000000 0.000000
0.704614 1.078098 1.978732 0.000000 0.000000 0.000000
0.801278 0.939413 1.335926 0.000000 0.000000 0.000000
0.748828 1.166988 2.192553 0.000000 0.000000 0.000000
0.585262 0.719328 1.444859 0.000000 0.000000 0.000000
0.595297 0.720679 1.468106 0.000000 0.000000 0.000000
0.674946 1.054882 1.956165 0.000000 0.000000 0.000000
0.589155 0.716902 1.453937 0.000000 0.000000 0.000000
0.590439 0.719260 1.472492 0.000000 0.000000 0.000000
0.699263 1.073770 1.990418 0.000000 0.000000 0.000000
0.917210 1.018044 1.210717 0.000000 0.000000 0.000000
0.779930 1.184742 2.277664 0.000000 0.000000 0.000000
0.519775 0.470799 1.038558 0.000000 0.000000 0.000000
0.622585 0.839348 1.637075 0.000000 0.000000 0.000000
0.629176 0.863612 1.673934 0.000000 0.000000 0.000000
0.603875 0.616873 0.851547 0.000000 0.000000 0.000000
0.733070 1.118796 2.083241 0.000000 0.000000 0.000000
0.820127 1.264696 2.459655 0.000000 0.000000 0.000000
0.750929 1.164855 2.176923 0.000000 0.000000 0.000000
0.589665 0.734607 1.489155 0.000000 0.000000 0.000000
0.722838 1.034104 1.983596 0.000000 0.000000 0.000000
0.566508 0.715448 1.256224 0.000000 0.000000 0.000000
0.705690 1.086803 1.993244 0.000000 0.000000 0.000000
0.726828 0.807046 1.318636 0.000000 0.000000 0.000000
0.720902 1.113712 2.066913 0.000000 0.000000 0.000000
0.910960 0.689402 0.781950 0.000000 0.000000 0.000000
0.617004 0.642978 0.910070 0.000000 0.000000 0.000000
0.711198 0.936154 1.634835 0.000000 0.000000 0.000000
0.701315 1.078671 2.004089 0.000000 0.000000 0.000000
0.767160 0.910196 1.378185 0.000000 0.000000 0.000000
0.749651 1.167428 2.184518 0.000000 0.000000 0.000000
0.706855 1.080821 2.018640 0.000000 0.000000 0.000000
0.685308 0.742304 1.143293 0.000000 0.000000 0.000000
0.582403 0.717969 1.457067 0.000000 0.000000 0.000000
0.377307 0.607628 0.776043 0.000000 0.000000 0.000000
0.715916 0.897137 1.531649 0.000000 0.000000 0.000000
0.546588 0.546401 0.692087 0.000000 0.000000 0.000000
0.762833 1.167498 2.202776 0.000000 0.000000 0.000000
0.690216 0.727862 1.083932 0.000000 0.000000 0.000000
0.730520 1.112541 2.077042 0.000000 0.000000 0.000000
0.720679 1.048522 1.900759 0.000000 0.000000 0.000000
0.810478 0.947481 1.327274 0.000000 0.000000 0.000000
0.779294 1.186207 2.270407 0.000000 0.000000 0.000000
0.715216 0.931104 1.625814 0.000000 0.000000 0.000000
0.537687 0.531824 1.134904 0.000000 0.000000 0.000000
0.700186 1.074102 1.973187 0.000000 0.000000 0.000000
0.581437 0.727465 1.263806 0.000000 0.000000 0.000000
0.649113 0.951655 1.838065 0.000000 0.000000 0.000000
0.725295 1.150786 2.144355 0.000000 0.000000 0.000000
0.589657 0.571367 0.772482 0.000000 0.000000 0.000000
0.597535 0.755805 1.499197 0.000000 0.000000 0.000000
0.760037 1.331275 2.432684 0.000000 0.000000 0.000000
0.631413 0.742995 1.266546 0.000000 0.000000 0.000000
0.740980 1.137956 2.134897 0.000000 0.000000 0.000000
0.717331 1.014668 1.954203 0.000000 0.000000 0.000000
0.658912 0.983252 1.872623 0.000000 0.000000 0.000000
0.900736 1.014044 1.201549 0.000000 0.000000 0.000000
0.660165 0.990171 1.886527 0.000000 0.000000 0.000000
0.599791 0.643170 0.903772 0.000000 0.000000 0.000000
0.749272 0.704240 0.980092 0.000000 0.000000 0.000000
0.625561 0.663424 0.938167 0.000000 0.000000 0.000000
0.745730 1.063515 1.963115 0.000000 0.000000 0.000000
0.812855 1.257649 2.429815 0.000000 0.000000 0.000000
0.657895 0.964776 1.864299 0.000000 0.000000 0.000000
0.614856 0.840552 1.654407 0.000000 0.000000 0.000000
0.723193 0.831221 1.365273 0.000000 0.000000 0.000000
0.706749 0.947966 1.689258 0.000000 0.000000 0.000000
0.801659 0.937534 1.343127 0.000000 0.000000 0.000000
0.701126 1.006994 1.795226 0.000000 0.000000 0.000000
0.753843 1.299938 2.386834 0.000000 0.000000 0.000000
0.708270 1.080616 1.996292 0.000000 0.000000 0.000000
0.701115 1.076518 1.976807 0.000000 0.000000 0.000000
0.582581 0.539943 0.717756 0.000000 0.000000 0.000000
0.724296 0.868542 1.469876 0.000000 0.000000 0.000000
0.682030 0.767993 1.294347 0.000000 0.000000 0.000000
0.690724 0.748651 1.155293 0.000000 0.000000 0.000000
0.772979 0.916700 1.377632 0.000000 0.000000 0.000000
0.696124 1.056562 1.896172 0.000000 0.000000 0.000000
0.691584 1.047823 1.891233 0.000000 0.000000 0.000000
0.615782 0.787759 1.561925 0.000000 0.000000 0.000000
0.589223 0.739079 1.488986 0.000000 0.000000 0.000000
0.584423 0.727219 1.469350 0.000000 0.000000 0.000000
0.729076 0.823561 1.362810 0.000000 0.000000 0.000000
0.701943 1.072976 2.010179 0.000000 0.000000 0.000000
0.717048 1.152159 2.138893 0.000000 0.000000 0.000000
0.521358 0.458463 1.023855 0.000000 0.000000 0.000000
0.610076 0.767385 1.537329 0.000000 0.000000 0.000000
0.764354 0.909042 1.388907 0.000000 0.000000 0.000000
0.585036 0.716361 1.459253 0.000000 0.000000 0.000000
0.797262 1.229386 2.378905 0.000000 0.000000 0.000000
0.794455 0.934363 1.351972 0.000000 0.000000 0.000000
0.902865 1.007695 1.233727 0.000000 0.000000 0.000000
0.626339 0.738386 1.271782 0.000000 0.000000 0.000000
0.735689 0.879112 1.473882 0.000000 0.000000 0.000000
0.703545 1.073373 2.000940 0.000000 0.000000 0.000000
0.518546 0.478233 1.084439 0.000000 0.000000 0.000000
0.709047 0.791798 1.313088 0.000000 0.000000 0.000000
0.618208 0.823421 1.609291 0.000000 0.000000 0.000000
0.692381 1.052610 1.993818 0.000000 0.000000 0.000000
0.618892 0.838706 1.653105 0.000000 0.000000 0.000000
0.650318 0.943615 1.818904 0.000000 0.000000 0.000000
0.518807 0.468985 1.034874 0.000000 0.000000 0.000000
0.657294 0.976825 1.957779 0.000000 0.000000 0.000000
0.719185 1.123876 2.072771 0.000000 0.000000 0.000000
0.757270 1.266415 2.346426 0.000000 0.000000 0.000000
0.705914 1.148389 2.153941 0.000000 0.000000 0.000000
0.656612 0.978766 1.986683 0.000000 0.000000 0.000000
0.749418 1.138590 2.138609 0.000000 0.000000 0.000000
0.596589 0.761043 1.522991 0.000000 0.000000 0.000000
0.722553 0.822973 1.349772 0.000000 0.000000 0.000000
0.399962 0.609745 0.785199 0.000000 0.000000 0.000000
0.810979 0.947382 1.335012 0.000000 0.000000 0.000000
0.744416 1.131006 2.122452 0.000000 0.000000 0.000000
0.520697 0.456147 1.029947 0.000000 0.000000 0.000000
0.618490 1.021896 1.955530 0.000000 0.000000 0.000000
0.766798 1.175907 2.253283 0.000000 0.000000 0.000000
0.721998 0.921136 1.605326 0.000000 0.000000 0.000000
0.700215 0.942162 1.687002 0.000000 0.000000 0.000000
0.602798 1.035554 1.965031 0.000000 0.000000 0.000000
0.744769 1.290547 2.380093 0.000000 0.000000 0.000000
0.676191 0.999034 1.906581 0.000000 0.000000 0.000000
0.701140 0.941068 1.680853 0.000000 0.000000 0.000000
0.722843 1.059971 1.971721 0.000000 0.000000 0.000000
0.532173 0.509899 1.117287 0.000000 0.000000 0.000000
0.752417 0.895086 1.392195 0.000000 0.000000 0.000000
0.588809 0.722691 1.258311 0.000000 0.000000 0.000000
0.698372 1.046406 1.870016 0.000000 0.000000 0.000000
0.563030 0.709103 1.260005 0.000000 0.000000 0.000000
0.607294 0.756670 1.510298 0.000000 0.000000 0.000000
0.768049 1.170454 2.218680 0.000000 0.000000 0.000000
0.727684 1.014790 1.920134 0.000000 0.000000 0.000000
0.689370 1.041715 2.001761 0.000000 0.000000 0.000000
0.605763 0.633797 0.894490 0.000000 0.000000 0.000000
0.724409 1.028378 1.951654 0.000000 0.000000 0.000000
0.713968 0.913323 1.563462 0.000000 0.000000 0.000000
0.705537 1.070891 2.001918 0.000000 0.000000 0.000000
0.703011 1.001507 1.780246 0.000000 0.000000 0.000000
0.706375 0.970702 1.724810 0.000000 0.000000 0.000000
0.762872 0.903014 1.387213 0.000000 0.000000 0.000000
0.717776 0.806951 1.342082 0.000000 0.000000 0.000000
0.632120 0.657551 0.941501 0.000000 0.000000 0.000000
0.538665 0.537481 0.691729 0.000000 0.000000 0.000000
0.540119 0.536215 0.690359 0.000000 0.000000 0.000000
0.587883 0.681022 1.381251 0.000000 0.000000 0.000000
0.721122 1.073008 1.953085 0.000000 0.000000 0.000000
0.748008 1.284384 2.372139 0.000000 0.000000 0.000000
0.709603 1.090304 2.025475 0.000000 0.000000 0.000000
0.713333 1.088894 2.012826 0.000000 0.000000 0.000000
0.728841 0.870387 1.466267 0.000000 0.000000 0.000000
0.724164 0.869286 1.467235 0.000000 0.000000 0.000000
0.712898 0.905474 1.565477 0.000000 0.000000 0.000000
0.715103 0.911811 1.557799 0.000000 0.000000 0.000000
0.714502 1.149152 2.133230 0.000000 0.000000 0.000000
0.803982 1.227451 2.386447 0.000000 0.000000 0.000000
0.747026 1.277643 2.377599 0.000000 0.000000 0.000000
0.698693 0.745703 1.137182 0.000000 0.000000 0.000000
0.699416 0.936526 1.686202 0.000000 0.000000 0.000000
0.701706 1.006820 1.789502 0.000000 0.000000 0.000000
0.531620 0.697508 1.240879 0.000000 0.000000 0.000000
0.662844 0.701839 1.028333 0.000000 0.000000 0.000000
0.597346 0.757694 1.501821 0.000000 0.000000 0.000000
0.675247 0.729776 1.111991 0.000000 0.000000 0.000000
0.682039 0.732927 1.129105 0.000000 0.000000 0.000000
0.749157 0.966666 1.682293 0.000000 0.000000 0.000000
0.530739 0.695829 1.243354 0.000000 0.000000 0.000000
0.745280 1.286860 2.386585 0.000000 0.000000 0.000000
0.572994 0.565687 0.779114 0.000000 0.000000 0.000000
0.707675 0.968018 1.692937 0.000000 0.000000 0.000000
0.555121 0.549694 0.693225 0.000000 0.000000 0.000000
0.602951 0.773426 1.532843 0.000000 0.000000 0.000000
0.710327 1.081253 2.007226 0.000000 0.000000 0.000000
0.733276 1.029677 1.950805 0.000000 0.000000 0.000000
0.721149 1.008170 1.926467 0.000000 0.000000 0.000000
0.697541 0.746144 1.138374 0.000000 0.000000 0.000000
0.707345 1.087668 1.935816 0.000000 0.000000 0.000000
0.573872 0.715518 1.250731 0.000000 0.000000 0.000000
0.730051 1.021218 1.952320 0.000000 0.000000 0.000000
0.706939 0.951659 1.713830 0.000000 0.000000 0.000000
0.604641 0.761030 1.523702 0.000000 0.000000 0.000000
0.709519 0.973744 1.724591 0.000000 0.000000 0.000000
0.647491 0.942789 1.810152 0.000000 0.000000 0.000000
0.713833 0.905040 1.572849 0.000000 0.000000 0.000000
0.580082 0.717568 1.252224 0.000000 0.000000 0.000000
0.711911 1.070397 1.987912 0.000000 0.000000 0.000000
0.579852 0.718501 1.254184 0.000000 0.000000 0.000000
0.599570 0.761206 1.506861 0.000000 0.000000 0.000000
0.609848 0.776804 1.542707 0.000000 0.000000 0.000000
0.745300 1.129006 2.115789 0.000000 0.000000 0.000000
0.621228 0.737154 1.265459 0.000000 0.000000 0.000000
0.718327 1.078820 1.935529 0.000000 0.000000 0.000000
0.574883 0.720510 1.251839 0.000000 0.000000 0.000000
0.676466 0.763396 1.281408 0.000000 0.000000 0.000000
0.720643 1.091065 2.025277 0.000000 0.000000 0.000000
0.809111 1.228244 2.366931 0.000000 0.000000 0.000000
0.745534 1.282068 2.380936 0.000000 0.000000 0.000000
0.746336 1.258420 2.327545 0.000000 0.000000 0.000000
0.799361 0.695930 0.902238 0.000000 0.000000 0.000000
0.605415 0.762226 1.528839 0.000000 0.000000 0.000000
0.823998 0.697717 0.889755 0.000000 0.000000 0.000000
0.600511 1.030548 1.965332 0.000000 0.000000 0.000000
0.710122 1.079759 1.987997 0.000000 0.000000 0.000000
0.568691 0.623553 1.302902 0.000000 0.000000 0.000000
0.629714 0.740307 1.265414 0.000000 0.000000 0.000000
0.591995 0.576211 0.776236 0.000000 0.000000 0.000000
0.536673 0.519599 1.129479 0.000000 0.000000 0.000000
0.634520 0.743758 1.266840 0.000000 0.000000 0.000000
0.802550 0.699896 0.915579 0.000000 0.000000 0.000000
0.710813 1.161830 2.170422 0.000000 0.000000 0.000000
0.743376 1.281811 2.363818 0.000000 0.000000 0.000000
0.714745 0.921780 1.587353 0.000000 0.000000 0.000000
0.726311 0.878856 1.487538 0.000000 0.000000 0.000000
0.717077 0.919535 1.576088 0.000000 0.000000 0.000000
0.719920 0.913790 1.566117 0.000000 0.000000 0.000000
0.779554 0.698203 0.937644 0.000000 0.000000 0.000000
0.726106 0.827685 1.383016 0.000000 0.000000 0.000000
0.686063 1.062376 1.993633 0.000000 0.000000 0.000000
0.605140 0.619615 0.885458 0.000000 0.000000 0.000000
0.736322 1.051352 1.934207 0.000000 0.000000 0.000000
0.766034 1.186230 2.246102 0.000000 0.000000 0.000000
0.745585 1.286247 2.381845 0.000000 0.000000 0.000000
0.578727 0.548891 0.756370 0.000000 0.000000 0.000000
0.724148 0.877349 1.461944 0.000000 0.000000 0.000000
0.733703 1.185523 2.217631 0.000000 0.000000 0.000000
0.576174 0.535924 0.721123 0.000000 0.000000 0.000000
0.714898 1.178607 2.198294 0.000000 0.000000 0.000000
0.776549 1.178341 2.256560 0.000000 0.000000 0.000000
0.572506 0.673947 1.369045 0.000000 0.000000 0.000000
0.806766 1.229409 2.393247 0.000000 0.000000 0.000000
0.616688 0.802409 1.585251 0.000000 0.000000 0.000000
0.634311 0.876830 1.690791 0.000000 0.000000 0.000000
0.566449 0.619404 1.291043 0.000000 0.000000 0.000000
0.713161 1.090825 2.015440 0.000000 0.000000 0.000000
0.679941 1.062863 1.996835 0.000000 0.000000 0.000000
0.726372 1.211447 2.243421 0.000000 0.000000 0.000000
0.597302 0.608470 0.859331 0.000000 0.000000 0.000000
0.717116 1.032009 1.986135 0.000000 0.000000 0.000000
0.694841 0.733084 1.093183 0.000000 0.000000 0.000000
0.801189 0.699261 0.920351 0.000000 0.000000 0.000000
0.758604 1.170270 2.217208 0.000000 0.000000 0.000000
0.726779 0.835387 1.374776 0.000000 0.000000 0.000000
0.579490 0.717003 1.261555 0.000000 0.000000 0.000000
0.738421 1.138354 2.115733 0.000000 0.000000 0.000000
0.528151 0.698328 1.261474 0.000000 0.000000 0.000000
0.690531 0.726999 1.131779 0.000000 0.000000 0.000000
0.831212 0.694576 0.874614 0.000000 0.000000 0.000000
0.558384 0.556386 0.694067 0.000000 0.000000 0.000000
0.664303 0.987804 1.890538 0.000000 0.000000 0.000000
0.726453 0.883469 1.505721 0.000000 0.000000 0.000000
0.727697 1.166241 2.169968 0.000000 0.000000 0.000000
0.771182 1.174781 2.237190 0.000000 0.000000 0.000000
0.727426 1.205867 2.228520 0.000000 0.000000 0.000000
0.719562 1.029156 1.947826 0.000000 0.000000 0.000000
0.611635 0.623851 0.890907 0.000000 0.000000 0.000000
0.706468 0.977867 1.743904 0.000000 0.000000 0.000000
0.663325 0.984732 1.895488 0.000000 0.000000 0.000000
0.663488 0.998280 1.915241 0.000000 0.000000 0.000000
0.701653 1.039898 1.883391 0.000000 0.000000 0.000000
0.707876 0.973432 1.717725 0.000000 0.000000 0.000000
0.498095 0.678827 1.248117 0.000000 0.000000 0.000000
0.612137 0.612862 0.873832 0.000000 0.000000 0.000000
0.582763 0.720766 1.258268 0.000000 0.000000 0.000000
0.714110 0.901426 1.549371 0.000000 0.000000 0.000000
0.607434 0.616312 0.853184 0.000000 0.000000 0.000000
0.813873 0.692336 0.898825 0.000000 0.000000 0.000000
0.741194 1.130911 2.107628 0.000000 0.000000 0.000000
0.708321 1.082572 1.997377 0.000000 0.000000 0.000000
0.721893 0.825778 1.376679 0.000000 0.000000 0.000000
0.746574 1.146529 2.147814 0.000000 0.000000 0.000000
0.702029 1.005359 1.813551 0.000000 0.000000 0.000000
0.608217 0.757450 1.513853 0.000000 0.000000 0.000000
0.386440 0.596971 0.784899 0.000000 0.000000 0.000000
0.587301 0.536012 0.715447 0.000000 0.000000 0.000000
0.610210 0.617064 0.863279 0.000000 0.000000 0.000000
0.581662 0.712754 1.452264 0.000000 0.000000 0.000000
0.646341 0.945510 1.822605 0.000000 0.000000 0.000000
0.808465 0.692167 0.898626 0.000000 0.000000 0.000000
0.600922 0.637111 0.917297 0.000000 0.000000 0.000000
0.696030 0.946042 1.687626 0.000000 0.000000 0.000000
0.574277 0.641781 1.332850 0.000000 0.000000 0.000000
0.727292 0.881355 1.491643 0.000000 0.000000 0.000000
0.730585 1.226781 2.287480 0.000000 0.000000 0.000000
0.812089 0.695288 0.898479 0.000000 0.000000 0.000000
0.726699 0.819708 1.360303 0.000000 0.000000 0.000000
0.721034 0.874948 1.471724 0.000000 0.000000 0.000000
0.676653 0.764227 1.285645 0.000000 0.000000 0.000000
0.730920 1.219245 2.250065 0.000000 0.000000 0.000000
0.711855 1.154169 2.165674 0.000000 0.000000 0.000000
0.812363 0.693584 0.906003 0.000000 0.000000 0.000000
0.654713 0.949143 1.815861 0.000000 0.000000 0.000000
0.724633 0.794002 1.299188 0.000000 0.000000 0.000000
0.711502 0.961447 1.704799 0.000000 0.000000 0.000000
0.711064 0.803964 1.287082 0.000000 0.000000 0.000000
0.596341 0.766443 1.530051 0.000000 0.000000 0.000000
0.609463 0.768947 1.538228 0.000000 0.000000 0.000000
0.710158 1.086632 2.007657 0.000000 0.000000 0.000000
0.610828 0.733594 1.274179 0.000000 0.000000 0.000000
0.714554 0.903840 1.554531 0.000000 0.000000 0.000000
0.572313 0.712542 1.252112 0.000000 0.000000 0.000000
0.714500 1.085521 2.006763 0.000000 0.000000 0.000000
0.598329 0.770098 1.548380 0.000000 0.000000 0.000000
0.581510 0.681744 1.385795 0.000000 0.000000 0.000000
0.571488 0.717361 1.257800 0.000000 0.000000 0.000000
0.722948 1.048097 1.980357 0.000000 0.000000 0.000000
0.708050 1.027671 1.982069 0.000000 0.000000 0.000000
0.740775 1.045164 1.930962 0.000000 0.000000 0.000000
0.825625 0.696187 0.888884 0.000000 0.000000 0.000000
0.588429 0.706433 1.432836 0.000000 0.000000 0.000000
0.726741 1.161549 2.173178 0.000000 0.000000 0.000000
0.681968 1.068065 1.996260 0.000000 0.000000 0.000000
0.721036 1.207131 2.240947 0.000000 0.000000 0.000000
0.711939 1.149725 2.135844 0.000000 0.000000 0.000000
0.796701 0.697280 0.916314 0.000000 0.000000 0.000000
0.604162 0.755092 1.514649 0.000000 0.000000 0.000000
0.718154 0.916732 1.572201 0.000000 0.000000 0.000000
0.697977 1.011477 1.804962 0.000000 0.000000 0.000000
0.723552 1.164359 2.163960 0.000000 0.000000 0.000000
0.715595 0.920342 1.572428 0.000000 0.000000 0.000000
0.745076 1.281983 2.373135 0.000000 0.000000 0.000000
0.590553 0.642055 0.889115 0.000000 0.000000 0.000000
0.582329 0.557207 0.744133 0.000000 0.000000 0.000000
0.606343 0.623727 0.894133 0.000000 0.000000 0.000000
0.769602 1.177208 2.241761 0.000000 0.000000 0.000000
0.578425 0.547419 0.750078 0.000000 0.000000 0.000000
0.721786 1.195381 2.222466 0.000000 0.000000 0.000000
0.630522 0.853130 1.673734 0.000000 0.000000 0.000000
0.575480 0.542459 0.736131 0.000000 0.000000 0.000000
0.713225 1.170959 2.189484 0.000000 0.000000 0.000000
0.511019 0.451336 1.011291 0.000000 0.000000 0.000000
0.575955 0.657993 1.364477 0.000000 0.000000 0.000000
0.510512 0.448112 1.028521 0.000000 0.000000 0.000000
0.811015 1.231492 2.395815 0.000000 0.000000 0.000000
0.636964 0.872944 1.702286 0.000000 0.000000 0.000000
0.709137 1.090661 2.010254 0.000000 0.000000 0.000000
0.686629 1.066440 2.000458 0.000000 0.000000 0.000000
0.732491 1.217658 2.238076 0.000000 0.000000 0.000000
0.604293 0.624673 0.885758 0.000000 0.000000 0.000000
0.711439 1.029577 1.981685 0.000000 0.000000 0.000000
0.770610 0.704623 0.952753 0.000000 0.000000 0.000000
0.709791 0.909970 1.569708 0.000000 0.000000 0.000000
0.588172 0.682835 1.390199 0.000000 0.000000 0.000000
0.808368 0.698389 0.899751 0.000000 0.000000 0.000000
0.754350 1.164667 2.211166 0.000000 0.000000 0.000000
0.709083 1.142038 2.126241 0.000000 0.000000 0.000000
0.729525 0.841915 1.383276 0.000000 0.000000 0.000000
0.595279 0.725122 1.266654 0.000000 0.000000 0.000000
0.707289 1.160326 2.164450 0.000000 0.000000 0.000000
0.741175 1.138666 2.123658 0.000000 0.000000 0.000000
0.532081 0.698607 1.256653 0.000000 0.000000 0.000000
0.693185 0.729530 1.125723 0.000000 0.000000 0.000000
0.742666 1.132324 2.111570 0.000000 0.000000 0.000000
0.808235 0.693568 0.904582 0.000000 0.000000 0.000000
0.560424 0.550677 0.694485 0.000000 0.000000 0.000000
0.673457 1.003660 1.906365 0.000000 0.000000 0.000000
0.725713 0.891857 1.517059 0.000000 0.000000 0.000000
0.620494 1.017381 1.949732 0.000000 0.000000 0.000000
0.588959 0.693838 1.413557 0.000000 0.000000 0.000000
0.762163 1.176523 2.225671 0.000000 0.000000 0.000000
0.726571 1.203063 2.227701 0.000000 0.000000 0.000000
0.726669 1.033666 1.951280 0.000000 0.000000 0.000000
0.608916 0.619942 0.877174 0.000000 0.000000 0.000000
0.706698 0.978941 1.739127 0.000000 0.000000 0.000000
0.666837 0.999940 1.898770 0.000000 0.000000 0.000000
0.695654 1.034685 1.877252 0.000000 0.000000 0.000000
0.707637 0.973081 1.722380 0.000000 0.000000 0.000000
0.500698 0.682753 1.250138 0.000000 0.000000 0.000000
0.611943 0.617148 0.880884 0.000000 0.000000 0.000000
0.711528 0.911208 1.577908 0.000000 0.000000 0.000000
0.721908 0.875061 1.479319 0.000000 0.000000 0.000000
0.607037 0.612298 0.854666 0.000000 0.000000 0.000000
0.627921 0.669933 0.959171 0.000000 0.000000 0.000000
0.701147 1.078306 1.980513 0.000000 0.000000 0.000000
0.716419 0.825550 1.371814 0.000000 0.000000 0.000000
0.744014 1.140494 2.130966 0.000000 0.000000 0.000000
0.606568 0.789884 1.552938 0.000000 0.000000 0.000000
0.706045 1.008761 1.823902 0.000000 0.000000 0.000000
0.368982 0.596379 0.778472 0.000000 0.000000 0.000000
0.610064 0.617179 0.861479 0.000000 0.000000 0.000000
0.593710 0.585223 0.798807 0.000000 0.000000 0.000000
0.814987 0.692066 0.887597 0.000000 0.000000 0.000000
0.599551 0.641234 0.920598 0.000000 0.000000 0.000000
0.693134 0.937381 1.683592 0.000000 0.000000 0.000000
0.728934 1.026504 1.947220 0.000000 0.000000 0.000000
0.574248 0.640938 1.325125 0.000000 0.000000 0.000000
0.577069 0.649837 1.339216 0.000000 0.000000 0.000000
0.732198 1.224223 2.280590 0.000000 0.000000 0.000000
0.698292 0.738721 1.143840 0.000000 0.000000 0.000000
0.803286 0.696734 0.904121 0.000000 0.000000 0.000000
0.716050 1.188498 2.203030 0.000000 0.000000 0.000000
0.724914 0.873760 1.477095 0.000000 0.000000 0.000000
0.728638 1.228469 2.271116 0.000000 0.000000 0.000000
0.712237 1.150555 2.154004 0.000000 0.000000 0.000000
0.811920 0.696721 0.907036 0.000000 0.000000 0.000000
0.727106 0.796001 1.305780 0.000000 0.000000 0.000000
0.711819 0.957811 1.706848 0.000000 0.000000 0.000000
0.598623 0.773483 1.539430 0.000000 0.000000 0.000000
0.605546 0.763961 1.526466 0.000000 0.000000 0.000000
0.612367 0.733040 1.270839 0.000000 0.000000 0.000000
0.599296 0.772676 1.542426 0.000000 0.000000 0.000000
0.717943 0.911775 1.555278 0.000000 0.000000 0.000000
0.626781 0.663737 0.939353 0.000000 0.000000 0.000000
0.714503 1.089173 2.014055 0.000000 0.000000 0.000000
0.711759 0.806857 1.303550 0.000000 0.000000 0.000000
0.705122 1.059229 1.976987 0.000000 0.000000 0.000000
0.713409 1.031772 1.988431 0.000000 0.000000 0.000000
0.741820 1.057027 1.928728 0.000000 0.000000 0.000000
0.829623 0.692736 0.875080 0.000000 0.000000 0.000000
0.719105 0.821339 1.367378 0.000000 0.000000 0.000000
0.723004 1.164094 2.160818 0.000000 0.000000 0.000000
0.680258 1.064828 1.993458 0.000000 0.000000 0.000000
0.748195 1.065503 1.935561 0.000000 0.000000 0.000000
0.726568 0.857094 1.421353 0.000000 0.000000 0.000000
0.747371 1.133855 2.126017 0.000000 0.000000 0.000000
0.606033 0.793842 1.567318 0.000000 0.000000 0.000000
0.746659 1.067264 1.936535 0.000000 0.000000 0.000000
0.746774 1.285848 2.389435 0.000000 0.000000 0.000000
0.640517 0.698770 1.019314 0.000000 0.000000 0.000000
0.745678 1.060560 1.943449 0.000000 0.000000 0.000000
0.573115 0.658946 1.349220 0.000000 0.000000 0.000000
0.731054 1.084048 1.948093 0.000000 0.000000 0.000000
0.626000 0.847226 1.645877 0.000000 0.000000 0.000000
0.658824 0.975516 2.000588 0.000000 0.000000 0.000000
0.588866 0.573100 0.776421 0.000000 0.000000 0.000000
0.608425 0.781255 1.543474 0.000000 0.000000 0.000000
0.705765 1.047631 1.903827 0.000000 0.000000 0.000000
0.581470 0.721453 1.261238 0.000000 0.000000 0.000000
0.598257 0.767044 1.519708 0.000000 0.000000 0.000000
0.706861 0.777537 1.296604 0.000000 0.000000 0.000000
0.897827 0.691306 0.763768 0.000000 0.000000 0.000000
0.589428 0.569578 0.769544 0.000000 0.000000 0.000000
0.712032 0.938290 1.627554 0.000000 0.000000 0.000000
0.649804 0.949214 1.818116 0.000000 0.000000 0.000000
0.739844 1.029204 1.908745 0.000000 0.000000 0.000000
0.585164 0.585717 0.784148 0.000000 0.000000 0.000000
0.607848 0.807932 1.590513 0.000000 0.000000 0.000000
0.700790 0.976579 1.750568 0.000000 0.000000 0.000000
0.706043 0.977430 1.742328 0.000000 0.000000 0.000000
0.607508 0.790351 1.576883 0.000000 0.000000 0.000000
0.656416 1.002239 1.942986 0.000000 0.000000 0.000000
0.822051 0.689444 0.869087 0.000000 0.000000 0.000000
0.717892 1.117067 2.066489 0.000000 0.000000 0.000000
0.727760 1.043894 1.954219 0.000000 0.000000 0.000000
0.752563 0.968118 1.681629 0.000000 0.000000 0.000000
0.566681 0.637919 0.889928 0.000000 0.000000 0.000000
0.706244 1.075795 2.012997 0.000000 0.000000 0.000000
0.537674 0.534578 0.690740 0.000000 0.000000 0.000000
0.736050 1.065934 1.934263 0.000000 0.000000 0.000000
0.521751 0.468186 1.052536 0.000000 0.000000 0.000000
0.664767 0.974581 1.986866 0.000000 0.000000 0.000000
0.712960 1.085315 2.009506 0.000000 0.000000 0.000000
0.660783 0.974349 2.006016 0.000000 0.000000 0.000000
0.606366 0.621368 0.875837 0.000000 0.000000 0.000000
0.616565 0.809592 1.592843 0.000000 0.000000 0.000000
0.831295 0.690802 0.878606 0.000000 0.000000 0.000000
0.735132 1.058503 1.918269 0.000000 0.000000 0.000000
0.785012 0.704563 0.921064 0.000000 0.000000 0.000000
0.730545 0.852804 1.404376 0.000000 0.000000 0.000000
0.838068 0.680047 0.865046 0.000000 0.000000 0.000000
0.577573 0.629191 0.896926 0.000000 0.000000 0.000000
0.712211 0.772772 1.253989 0.000000 0.000000 0.000000
0.798420 0.934145 1.345868 0.000000 0.000000 0.000000
0.629120 0.738839 1.269220 0.000000 0.000000 0.000000
0.610871 0.793371 1.585244 0.000000 0.000000 0.000000
0.614642 0.793858 1.571949 0.000000 0.000000 0.000000
0.723894 0.845212 1.411365 0.000000 0.000000 0.000000
0.710089 0.933996 1.628439 0.000000 0.000000 0.000000
0.566411 0.716648 1.250384 0.000000 0.000000 0.000000
0.567437 0.630101 0.894263 0.000000 0.000000 0.000000
0.697123 1.003015 1.797683 0.000000 0.000000 0.000000
0.732551 1.048777 1.890282 0.000000 0.000000 0.000000
0.720222 1.042155 1.901338 0.000000 0.000000 0.000000
0.728002 0.867533 1.412458 0.000000 0.000000 0.000000
0.742363 1.059483 1.964043 0.000000 0.000000 0.000000
0.831276 0.687863 0.867743 0.000000 0.000000 0.000000
0.586929 0.555955 0.747497 0.000000 0.000000 0.000000
0.577951 0.632239 0.892289 0.000000 0.000000 0.000000
0.772693 1.334683 2.450961 0.000000 0.000000 0.000000
0.739240 1.016450 1.914613 0.000000 0.000000 0.000000
0.660982 0.950387 1.834994 0.000000 0.000000 0.000000
0.699382 0.937638 1.691890 0.000000 0.000000 0.000000
0.682240 0.735882 1.131577 0.000000 0.000000 0.000000
0.583502 0.676752 1.383545 0.000000 0.000000 0.000000
0.603325 0.589630 0.826453 0.000000 0.000000 0.000000
0.579589 0.584786 0.775372 0.000000 0.000000 0.000000
0.742079 1.017109 1.922173 0.000000 0.000000 0.000000
0.745840 1.023416 1.917707 0.000000 0.000000 0.000000
0.657993 0.974427 1.998172 0.000000 0.000000 0.000000
0.716444 0.934462 1.629164 0.000000 0.000000 0.000000
0.801655 0.937072 1.338562 0.000000 0.000000 0.000000
0.703700 1.001346 1.781254 0.000000 0.000000 0.000000
0.737660 1.055914 1.923392 0.000000 0.000000 0.000000
0.582448 0.587498 0.774248 0.000000 0.000000 0.000000
0.592226 0.554213 0.747305 0.000000 0.000000 0.000000
0.634771 0.845786 1.659046 0.000000 0.000000 0.000000
0.827911 0.693883 0.884746 0.000000 0.000000 0.000000
0.710795 1.080870 2.001043 0.000000 0.000000 0.000000
0.581719 0.564511 0.767243 0.000000 0.000000 0.000000
0.586110 0.555961 0.748300 0.000000 0.000000 0.000000
0.795218 0.693867 0.911549 0.000000 0.000000 0.000000
0.589906 0.553140 0.747839 0.000000 0.000000 0.000000
0.575845 0.715196 1.252933 0.000000 0.000000 0.000000
0.738198 1.071189 1.967389 0.000000 0.000000 0.000000
0.712068 0.931383 1.632900 0.000000 0.000000 0.000000
0.729932 1.018359 1.954697 0.000000 0.000000 0.000000
0.832732 0.687680 0.876409 0.000000 0.000000 0.000000
0.732577 1.130392 2.092872 0.000000 0.000000 0.000000
0.622271 0.646248 0.919194 0.000000 0.000000 0.000000
0.853635 0.683596 0.841974 0.000000 0.000000 0.000000
0.706452 1.002332 1.933892 0.000000 0.000000 0.000000
0.635722 0.741088 1.272458 0.000000 0.000000 0.000000
0.712426 1.084806 2.013285 0.000000 0.000000 0.000000
0.607527 0.793305 1.581035 0.000000 0.000000 0.000000
0.739254 1.052673 1.919746 0.000000 0.000000 0.000000
0.608973 0.809925 1.600452 0.000000 0.000000 0.000000
0.737721 1.044732 1.978548 0.000000 0.000000 0.000000
0.742090 1.087671 1.953735 0.000000 0.000000 0.000000
0.744541 1.060790 1.962132 0.000000 0.000000 0.000000
0.629890 0.740993 1.268531 0.000000 0.000000 0.000000
0.593101 0.558250 0.755432 0.000000 0.000000 0.000000
0.592697 0.581428 0.790109 0.000000 0.000000 0.000000
0.634564 0.741399 1.271356 0.000000 0.000000 0.000000
0.744791 1.061269 1.960206 0.000000 0.000000 0.000000
0.630525 0.740888 1.269989 0.000000 0.000000 0.000000
0.754427 0.969469 1.683126 0.000000 0.000000 0.000000
0.709878 1.092744 2.013832 0.000000 0.000000 0.000000
0.711028 0.961089 1.698566 0.000000 0.000000 0.000000
0.601062 0.774799 1.545172 0.000000 0.000000 0.000000
0.711532 1.088282 2.008920 0.000000 0.000000 0.000000
0.751277 1.173910 2.208927 0.000000 0.000000 0.000000
0.703209 1.006266 1.815819 0.000000 0.000000 0.000000
0.598343 0.768956 1.537134 0.000000 0.000000 0.000000
0.710911 1.087480 2.000401 0.000000 0.000000 0.000000
0.722952 0.824861 1.366939 0.000000 0.000000 0.000000
0.704075 0.780586 1.248631 0.000000 0.000000 0.000000
0.443631 0.603320 0.809363 0.000000 0.000000 0.000000
0.580221 0.585166 0.801333 0.000000 0.000000 0.000000
0.774923 1.186313 2.278827 0.000000 0.000000 0.000000
0.863778 0.690186 0.837419 0.000000 0.000000 0.000000
0.691784 1.047024 1.890043 0.000000 0.000000 0.000000
0.588156 0.632175 0.898305 0.000000 0.000000 0.000000
0.769010 1.335289 2.448229 0.000000 0.000000 0.000000
0.717981 1.103872 2.044070 0.000000 0.000000 0.000000
0.821487 0.690509 0.877763 0.000000 0.000000 0.000000
0.732231 0.843359 1.404454 0.000000 0.000000 0.000000
0.577958 0.579083 0.785791 0.000000 0.000000 0.000000
0.627369 0.865069 1.671568 0.000000 0.000000 0.000000
0.527967 0.630586 0.863060 0.000000 0.000000 0.000000
0.738917 1.032100 1.908790 0.000000 0.000000 0.000000
0.818084 0.692220 0.876294 0.000000 0.000000 0.000000
0.616110 0.811684 1.590437 0.000000 0.000000 0.000000
0.585024 0.580050 0.774541 0.000000 0.000000 0.000000
0.712317 0.776113 1.262191 0.000000 0.000000 0.000000
0.791769 1.212445 2.334667 0.000000 0.000000 0.000000
0.709686 0.958084 1.724249 0.000000 0.000000 0.000000
0.612867 0.629186 0.909263 0.000000 0.000000 0.000000
0.555135 0.631694 0.885913 0.000000 0.000000 0.000000
0.585205 0.720439 1.258977 0.000000 0.000000 0.000000
0.611052 0.733760 1.269654 0.000000 0.000000 0.000000
0.806089 0.942855 1.340824 0.000000 0.000000 0.000000
0.571245 0.626529 0.866897 0.000000 0.000000 0.000000
0.605352 0.621817 0.870670 0.000000 0.000000 0.000000
0.710903 0.942530 1.642091 0.000000 0.000000 0.000000
0.707423 0.966762 1.722621 0.000000 0.000000 0.000000
0.757601 1.329490 2.445967 0.000000 0.000000 0.000000
0.863976 0.679037 0.805420 0.000000 0.000000 0.000000
0.730662 0.838825 1.404149 0.000000 0.000000 0.000000
0.796815 1.219124 2.335889 0.000000 0.000000 0.000000
0.811213 0.690705 0.883489 0.000000 0.000000 0.000000
0.802283 0.694819 0.905086 0.000000 0.000000 0.000000
0.793959 0.703563 0.922908 0.000000 0.000000 0.000000
0.737389 1.045969 1.911012 0.000000 0.000000 0.000000
0.857132 0.683951 0.824866 0.000000 0.000000 0.000000
0.536241 0.515548 1.134803 0.000000 0.000000 0.000000
0.711582 1.144690 2.128060 0.000000 0.000000 0.000000
0.608725 0.617229 0.873524 0.000000 0.000000 0.000000
0.799429 0.937810 1.341151 0.000000 0.000000 0.000000
0.451830 0.613412 0.806402 0.000000 0.000000 0.000000
0.565800 0.634580 0.881999 0.000000 0.000000 0.000000
0.454586 0.610738 0.810781 0.000000 0.000000 0.000000
0.583426 0.723518 1.269960 0.000000 0.000000 0.000000
0.659803 0.710223 1.060882 0.000000 0.000000 0.000000
0.617656 0.664079 0.960734 0.000000 0.000000 0.000000
0.683821 0.740812 1.148037 0.000000 0.000000 0.000000
0.709301 0.952021 1.656554 0.000000 0.000000 0.000000
0.664833 0.982617 1.890807 0.000000 0.000000 0.000000
0.659050 0.988247 1.905293 0.000000 0.000000 0.000000
0.803665 1.243876 2.388935 0.000000 0.000000 0.000000
0.730363 1.211467 2.261928 0.000000 0.000000 0.000000
0.792350 1.220508 2.347576 0.000000 0.000000 0.000000
0.719596 0.901429 1.547225 0.000000 0.000000 0.000000
0.726992 1.196420 2.210649 0.000000 0.000000 0.000000
0.728845 1.049759 1.899137 0.000000 0.000000 0.000000
0.735144 0.831012 1.367974 0.000000 0.000000 0.000000
0.580079 0.583834 0.774548 0.000000 0.000000 0.000000
0.435050 0.612428 0.796259 0.000000 0.000000 0.000000
0.787855 0.694246 0.915058 0.000000 0.000000 0.000000
0.820985 0.690662 0.871591 0.000000 0.000000 0.000000
0.594090 0.581326 0.795150 0.000000 0.000000 0.000000
0.649201 0.700220 1.037689 0.000000 0.000000 0.000000
0.631211 0.847022 1.656100 0.000000 0.000000 0.000000
0.712657 0.940279 1.631779 0.000000 0.000000 0.000000
0.706384 1.082698 1.992227 0.000000 0.000000 0.000000
0.821190 0.691646 0.879229 0.000000 0.000000 0.000000
0.695962 0.733551 1.143856 0.000000 0.000000 0.000000
0.707419 1.168979 2.179543 0.000000 0.000000 0.000000
0.837008 0.966360 1.310809 0.000000 0.000000 0.000000
0.597713 0.758786 1.502089 0.000000 0.000000 0.000000
0.608371 0.640363 0.925876 0.000000 0.000000 0.000000
0.522799 0.624297 0.856631 0.000000 0.000000 0.000000
0.604519 0.641517 0.895964 0.000000 0.000000 0.000000
0.615835 0.797761 1.577024 0.000000 0.000000 0.000000
0.741559 1.139769 2.136618 0.000000 0.000000 0.000000
0.721929 1.131028 2.116991 0.000000 0.000000 0.000000
0.650194 1.055233 1.984957 0.000000 0.000000 0.000000
0.733064 0.881771 1.495160 0.000000 0.000000 0.000000
0.722170 1.152371 2.146222 0.000000 0.000000 0.000000
0.623238 0.862243 1.683421 0.000000 0.000000 0.000000
0.691010 1.034478 1.860700 0.000000 0.000000 0.000000
0.552514 0.627093 0.881885 0.000000 0.000000 0.000000
0.852494 0.678797 0.843758 0.000000 0.000000 0.000000
0.573188 0.715432 1.265811 0.000000 0.000000 0.000000
0.623073 0.740410 1.271503 0.000000 0.000000 0.000000
0.805270 0.940830 1.339710 0.000000 0.000000 0.000000
0.733488 1.176388 2.194670 0.000000 0.000000 0.000000
0.715061 1.105201 2.047661 0.000000 0.000000 0.000000
0.713544 0.900436 1.547843 0.000000 0.000000 0.000000
0.618544 0.663918 0.961658 0.000000 0.000000 0.000000
0.592865 0.557689 0.758392 0.000000 0.000000 0.000000
0.573656 0.666682 1.356147 0.000000 0.000000 0.000000
0.618685 0.639470 0.913029 0.000000 0.000000 0.000000
0.754710 1.299528 2.382893 0.000000 0.000000 0.000000
0.724401 1.108004 2.060517 0.000000 0.000000 0.000000
0.764202 1.320742 2.447185 0.000000 0.000000 0.000000
0.718595 1.135089 2.131957 0.000000 0.000000 0.000000
0.590673 0.702221 1.422243 0.000000 0.000000 0.000000
0.714313 1.164187 2.181800 0.000000 0.000000 0.000000
0.595359 0.581052 0.793477 0.000000 0.000000 0.000000
0.596896 0.582607 0.797290 0.000000 0.000000 0.000000
0.623308 0.652685 0.927070 0.000000 0.000000 0.000000
0.812730 0.690937 0.902661 0.000000 0.000000 0.000000
0.709231 1.079835 1.995526 0.000000 0.000000 0.000000
0.578380 0.560604 0.761373 0.000000 0.000000 0.000000
0.720540 1.183260 2.197357 0.000000 0.000000 0.000000
0.701072 0.770067 1.236909 0.000000 0.000000 0.000000
0.448280 0.603668 0.808052 0.000000 0.000000 0.000000
0.629844 0.873488 1.695051 0.000000 0.000000 0.000000
0.646334 0.695650 1.024864 0.000000 0.000000 0.000000
0.774173 1.185083 2.275655 0.000000 0.000000 0.000000
0.602481 0.753890 1.506327 0.000000 0.000000 0.000000
0.702385 1.047361 1.908090 0.000000 0.000000 0.000000
0.533301 0.697101 1.250190 0.000000 0.000000 0.000000
0.716551 0.957397 1.712013 0.000000 0.000000 0.000000
0.588552 0.644346 0.898074 0.000000 0.000000 0.000000
0.697107 1.060218 1.898255 0.000000 0.000000 0.000000
0.709464 1.134502 2.125301 0.000000 0.000000 0.000000
0.658483 0.958679 1.850143 0.000000 0.000000 0.000000
0.733279 0.844247 1.416548 0.000000 0.000000 0.000000
0.625047 0.855714 1.667704 0.000000 0.000000 0.000000
0.625950 0.860906 1.668759 0.000000 0.000000 0.000000
0.586756 0.592525 0.793121 0.000000 0.000000 0.000000
0.564576 0.635557 0.877246 0.000000 0.000000 0.000000
0.823298 0.693952 0.888571 0.000000 0.000000 0.000000
0.585092 0.720776 1.256633 0.000000 0.000000 0.000000
0.758877 1.177344 2.220897 0.000000 0.000000 0.000000
0.618152 0.807964 1.590819 0.000000 0.000000 0.000000
0.663256 0.996277 1.880454 0.000000 0.000000 0.000000
0.709208 0.786204 1.260718 0.000000 0.000000 0.000000
0.796454 1.214238 2.340362 0.000000 0.000000 0.000000
0.613264 0.642648 0.907621 0.000000 0.000000 0.000000
0.556241 0.630528 0.887945 0.000000 0.000000 0.000000
0.610082 0.733869 1.266579 0.000000 0.000000 0.000000
0.577336 0.635980 0.877544 0.000000 0.000000 0.000000
0.588004 0.720003 1.264856 0.000000 0.000000 0.000000
0.608697 0.622135 0.871309 0.000000 0.000000 0.000000
0.710293 0.936873 1.624457 0.000000 0.000000 0.000000
0.708835 0.955347 1.714601 0.000000 0.000000 0.000000
0.766145 1.335910 2.447852 0.000000 0.000000 0.000000
0.869030 0.680527 0.806711 0.000000 0.000000 0.000000
0.726892 0.839652 1.385045 0.000000 0.000000 0.000000
0.807668 0.689156 0.887404 0.000000 0.000000 0.000000
0.796647 0.692730 0.902022 0.000000 0.000000 0.000000
0.708412 0.939887 1.641584 0.000000 0.000000 0.000000
0.734642 1.042638 1.908064 0.000000 0.000000 0.000000
0.694283 1.037588 1.855280 0.000000 0.000000 0.000000
0.849157 0.683937 0.840888 0.000000 0.000000 0.000000
0.542388 0.631509 0.868385 0.000000 0.000000 0.000000
0.557038 0.642419 0.871563 0.000000 0.000000 0.000000
0.539836 0.516609 1.138121 0.000000 0.000000 0.000000
0.660318 0.981298 2.001661 0.000000 0.000000 0.000000
0.706057 1.149099 2.150336 0.000000 0.000000 0.000000
0.613625 0.625553 0.877040 0.000000 0.000000 0.000000
0.809039 0.947846 1.327744 0.000000 0.000000 0.000000
0.571506 0.641274 0.889132 0.000000 0.000000 0.000000
0.827226 0.687369 0.864344 0.000000 0.000000 0.000000
0.580099 0.719229 1.271736 0.000000 0.000000 0.000000
0.613807 0.661429 0.956003 0.000000 0.000000 0.000000
0.512149 0.623563 0.863579 0.000000 0.000000 0.000000
0.683545 0.740100 1.150417 0.000000 0.000000 0.000000
0.720793 0.855456 1.438864 0.000000 0.000000 0.000000
0.664820 0.989719 1.899753 0.000000 0.000000 0.000000
0.838981 0.685245 0.849537 0.000000 0.000000 0.000000
0.657283 0.974271 1.870310 0.000000 0.000000 0.000000
0.736148 1.229990 2.271576 0.000000 0.000000 0.000000
0.408295 0.614038 0.792248 0.000000 0.000000 0.000000
0.621531 0.738580 1.268091 0.000000 0.000000 0.000000
0.727185 1.188828 2.208702 0.000000 0.000000 0.000000
0.738366 0.825628 1.361429 0.000000 0.000000 0.000000
0.442559 0.613418 0.802272 0.000000 0.000000 0.000000
0.789390 0.692508 0.913217 0.000000 0.000000 0.000000
0.827902 0.687427 0.869727 0.000000 0.000000 0.000000
0.593127 0.581069 0.792908 0.000000 0.000000 0.000000
0.595749 0.737016 1.479239 0.000000 0.000000 0.000000
0.735425 0.841985 1.402712 0.000000 0.000000 0.000000
0.714869 0.937382 1.625264 0.000000 0.000000 0.000000
0.818467 0.692391 0.893531 0.000000 0.000000 0.000000
0.693961 0.735747 1.143421 0.000000 0.000000 0.000000
0.709337 1.166206 2.182084 0.000000 0.000000 0.000000
0.833319 0.961755 1.303120 0.000000 0.000000 0.000000
0.598228 0.759936 1.503814 0.000000 0.000000 0.000000
0.614534 0.652285 0.939444 0.000000 0.000000 0.000000
0.749871 1.163444 2.183353 0.000000 0.000000 0.000000
0.636622 1.051079 1.988171 0.000000 0.000000 0.000000
0.721614 1.157627 2.152270 0.000000 0.000000 0.000000
0.715639 1.060989 1.917555 0.000000 0.000000 0.000000
0.622173 0.848385 1.662372 0.000000 0.000000 0.000000
0.727204 0.830627 1.355190 0.000000 0.000000 0.000000
0.804773 0.694729 0.903865 0.000000 0.000000 0.000000
0.556931 0.638519 0.880301 0.000000 0.000000 0.000000
0.849451 0.683429 0.847832 0.000000 0.000000 0.000000
0.597641 0.727010 1.260716 0.000000 0.000000 0.000000
0.603181 0.751585 1.509708 0.000000 0.000000 0.000000
0.630606 0.743531 1.273775 0.000000 0.000000 0.000000
0.778433 1.184396 2.270791 0.000000 0.000000 0.000000
0.728995 1.197614 2.217021 0.000000 0.000000 0.000000
0.593224 0.560899 0.762277 0.000000 0.000000 0.000000
0.571019 0.659283 1.348657 0.000000 0.000000 0.000000
0.578012 0.588234 0.810296 0.000000 0.000000 0.000000
0.553992 0.709177 1.252240 0.000000 0.000000 0.000000
0.688831 1.036752 1.860736 0.000000 0.000000 0.000000
0.758745 1.320440 2.441782 0.000000 0.000000 0.000000
0.767187 1.323978 2.434211 0.000000 0.000000 0.000000
0.616012 0.637603 0.912031 0.000000 0.000000 0.000000
0.760132 1.322727 2.449698 0.000000 0.000000 0.000000
0.727244 1.137073 2.123044 0.000000 0.000000 0.000000
0.582427 0.708465 1.447927 0.000000 0.000000 0.000000
0.722805 1.160349 2.160300 0.000000 0.000000 0.000000
0.595605 0.762254 1.526552 0.000000 0.000000 0.000000
0.742577 1.035036 1.914447 0.000000 0.000000 0.000000
0.802100 0.940139 1.340098 0.000000 0.000000 0.000000
0.580466 0.699860 1.398911 0.000000 0.000000 0.000000
0.591658 0.578485 0.787426 0.000000 0.000000 0.000000
0.593682 0.579639 0.791817 0.000000 0.000000 0.000000
0.619070 0.645112 0.918493 0.000000 0.000000 0.000000
0.799174 0.692941 0.913740 0.000000 0.000000 0.000000
0.708077 1.076932 2.004560 0.000000 0.000000 0.000000
0.750129 1.138801 2.134607 0.000000 0.000000 0.000000
0.721144 0.708372 1.009598 0.000000 0.000000 0.000000
0.759740 1.297817 2.376410 0.000000 0.000000 0.000000
0.621575 0.837627 1.650572 0.000000 0.000000 0.000000
0.712334 1.073431 1.985361 0.000000 0.000000 0.000000
0.658684 0.987007 1.891861 0.000000 0.000000 0.000000
0.586946 0.544497 0.743130 0.000000 0.000000 0.000000
0.696219 0.922942 1.684073 0.000000 0.000000 0.000000
0.614766 0.819221 1.603147 0.000000 0.000000 0.000000
0.717678 0.709690 1.015924 0.000000 0.000000 0.000000
0.633790 0.669344 0.956275 0.000000 0.000000 0.000000
0.600224 0.774249 1.531181 0.000000 0.000000 0.000000
0.697460 0.948235 1.692244 0.000000 0.000000 0.000000
0.581123 0.546899 0.750937 0.000000 0.000000 0.000000
0.561907 0.565254 0.732325 0.000000 0.000000 0.000000
0.581977 0.559401 0.763706 0.000000 0.000000 0.000000
0.718184 0.918706 1.600734 0.000000 0.000000 0.000000
0.582611 0.549794 0.759427 0.000000 0.000000 0.000000
0.773389 1.175639 2.245319 0.000000 0.000000 0.000000
0.600371 0.776917 1.547182 0.000000 0.000000 0.000000
0.507352 0.435305 1.002842 0.000000 0.000000 0.000000
0.667385 0.961779 1.856302 0.000000 0.000000 0.000000
0.612933 0.828659 1.636173 0.000000 0.000000 0.000000
0.698999 1.072207 1.983580 0.000000 0.000000 0.000000
0.618228 0.813034 1.606930 0.000000 0.000000 0.000000
0.722046 0.852343 1.441222 0.000000 0.000000 0.000000
0.469037 0.619759 0.831943 0.000000 0.000000 0.000000
0.611085 0.730271 1.267558 0.000000 0.000000 0.000000
0.651812 0.948205 1.831629 0.000000 0.000000 0.000000
0.712908 0.913742 1.593720 0.000000 0.000000 0.000000
0.594767 0.652511 0.902833 0.000000 0.000000 0.000000
0.661562 0.954688 1.842356 0.000000 0.000000 0.000000
0.601399 0.783350 1.550726 0.000000 0.000000 0.000000
0.617108 0.831291 1.640868 0.000000 0.000000 0.000000
0.562843 0.550506 0.691932 0.000000 0.000000 0.000000
0.635279 0.744328 1.269204 0.000000 0.000000 0.000000
0.687062 0.749879 1.184081 0.000000 0.000000 0.000000
0.828056 0.959036 1.320955 0.000000 0.000000 0.000000
0.568508 0.557523 0.726191 0.000000 0.000000 0.000000
0.613170 0.830437 1.638151 0.000000 0.000000 0.000000
0.667757 1.004408 1.902676 0.000000 0.000000 0.000000
0.601200 0.783609 1.563534 0.000000 0.000000 0.000000
0.774312 0.916373 1.373410 0.000000 0.000000 0.000000
0.717246 0.917768 1.603823 0.000000 0.000000 0.000000
0.603762 0.779789 1.555133 0.000000 0.000000 0.000000
0.584872 0.562813 0.766330 0.000000 0.000000 0.000000
0.697446 0.937754 1.690908 0.000000 0.000000 0.000000
0.633810 0.877064 1.714464 0.000000 0.000000 0.000000
0.704502 1.008195 1.793594 0.000000 0.000000 0.000000
0.524017 0.470486 1.060330 0.000000 0.000000 0.000000
0.626992 0.861978 1.690998 0.000000 0.000000 0.000000
0.711988 0.915416 1.585264 0.000000 0.000000 0.000000
0.576213 0.550732 0.749481 0.000000 0.000000 0.000000
0.498121 0.627685 0.849112 0.000000 0.000000 0.000000
0.723917 0.855502 1.427495 0.000000 0.000000 0.000000
0.638222 0.667849 0.954709 0.000000 0.000000 0.000000
0.657831 0.722052 1.051003 0.000000 0.000000 0.000000
0.695377 0.732736 1.086026 0.000000 0.000000 0.000000
0.662251 0.954084 1.841300 0.000000 0.000000 0.000000
0.653132 0.708694 1.053671 0.000000 0.000000 0.000000
0.696664 0.765543 1.227594 0.000000 0.000000 0.000000
0.709607 0.949497 1.661709 0.000000 0.000000 0.000000
0.599885 0.780399 1.551461 0.000000 0.000000 0.000000
0.570937 0.566266 0.772962 0.000000 0.000000 0.000000
0.649059 0.953077 1.835378 0.000000 0.000000 0.000000
0.591082 0.734824 1.455050 0.000000 0.000000 0.000000
0.701509 0.753455 1.174947 0.000000 0.000000 0.000000
0.667849 1.056144 1.925346 0.000000 0.000000 0.000000
0.589020 0.563716 0.764423 0.000000 0.000000 0.000000
0.615601 0.785718 1.559876 0.000000 0.000000 0.000000
0.694909 0.764516 1.227124 0.000000 0.000000 0.000000
0.588763 0.542391 0.732158 0.000000 0.000000 0.000000
0.706193 0.976327 1.753578 0.000000 0.000000 0.000000
0.619672 0.733252 1.267660 0.000000 0.000000 0.000000
0.547845 0.533665 0.699357 0.000000 0.000000 0.000000
0.649500 1.027560 1.921883 0.000000 0.000000 0.000000
0.612699 0.770154 1.539370 0.000000 0.000000 0.000000
0.714046 1.088118 2.011762 0.000000 0.000000 0.000000
0.637119 0.676452 0.964417 0.000000 0.000000 0.000000
