ply
format ascii 1.0
comment VCGLIB generated
obj_info Generated by SPFormer!
element vertex 880
property float x
property float y
property float z
property float nx
property float ny
property float nz
end_header
0.281656 0.013774 1.674489 0.000000 0.000000 0.000000
0.362309 -0.004905 1.775112 0.000000 0.000000 0.000000
0.457118 0.023890 1.760448 0.000000 0.000000 0.000000
0.330408 0.034260 1.670861 0.000000 0.000000 0.000000
0.310657 0.031648 1.649777 0.000000 0.000000 0.000000
0.307672 -0.008245 1.756016 0.000000 0.000000 0.000000
0.343347 0.047335 1.647208 0.000000 0.000000 0.000000
0.375116 0.047430 1.672373 0.000000 0.000000 0.000000
0.300372 0.019737 1.671532 0.000000 0.000000 0.000000
0.280447 -0.005710 1.728463 0.000000 0.000000 0.000000
0.298003 0.007582 1.715026 0.000000 0.000000 0.000000
0.329059 0.040399 1.648924 0.000000 0.000000 0.000000
0.273724 -0.010257 1.724102 0.000000 0.000000 0.000000
0.258721 -0.003783 1.703909 0.000000 0.000000 0.000000
0.400301 0.028636 1.725168 0.000000 0.000000 0.000000
0.378378 0.008826 1.768713 0.000000 0.000000 0.000000
0.375801 0.028257 1.719374 0.000000 0.000000 0.000000
0.267446 0.003452 1.691558 0.000000 0.000000 0.000000
0.297697 0.013858 1.691751 0.000000 0.000000 0.000000
0.313453 0.031680 1.653030 0.000000 0.000000 0.000000
0.386229 0.026686 1.719587 0.000000 0.000000 0.000000
0.312360 -0.014133 1.765679 0.000000 0.000000 0.000000
0.281284 0.020393 1.645192 0.000000 0.000000 0.000000
0.333773 0.037980 1.659627 0.000000 0.000000 0.000000
0.311131 0.007307 1.730422 0.000000 0.000000 0.000000
0.321429 0.012206 1.726428 0.000000 0.000000 0.000000
0.259028 -0.002316 1.696362 0.000000 0.000000 0.000000
0.406575 0.033244 1.712715 0.000000 0.000000 0.000000
0.377574 0.013111 1.755268 0.000000 0.000000 0.000000
0.342192 0.005806 1.750038 0.000000 0.000000 0.000000
0.291642 0.017487 1.664560 0.000000 0.000000 0.000000
0.319790 0.034167 1.657051 0.000000 0.000000 0.000000
0.364944 0.003672 1.761657 0.000000 0.000000 0.000000
0.365095 0.052040 1.656480 0.000000 0.000000 0.000000
0.337035 0.041813 1.655099 0.000000 0.000000 0.000000
0.437617 0.000641 1.774468 0.000000 0.000000 0.000000
0.269663 -0.000850 1.707999 0.000000 0.000000 0.000000
0.252831 -0.002844 1.685701 0.000000 0.000000 0.000000
0.352083 0.023630 1.717460 0.000000 0.000000 0.000000
0.343669 0.048540 1.644798 0.000000 0.000000 0.000000
0.422558 0.031973 1.720909 0.000000 0.000000 0.000000
0.302024 -0.005622 1.746238 0.000000 0.000000 0.000000
0.364192 0.001398 1.769458 0.000000 0.000000 0.000000
0.318589 0.006334 1.737303 0.000000 0.000000 0.000000
0.341458 0.050979 1.650790 0.000000 0.000000 0.000000
0.394390 0.036798 1.705109 0.000000 0.000000 0.000000
0.320153 0.022259 1.695393 0.000000 0.000000 0.000000
0.368260 0.002556 1.771538 0.000000 0.000000 0.000000
0.304001 0.015709 1.693433 0.000000 0.000000 0.000000
0.274776 0.006026 1.693100 0.000000 0.000000 0.000000
0.414616 0.015657 1.759091 0.000000 0.000000 0.000000
0.293983 -0.010778 1.751809 0.000000 0.000000 0.000000
0.340373 0.000380 1.756739 0.000000 0.000000 0.000000
0.265408 0.004320 1.696510 0.000000 0.000000 0.000000
0.318182 0.030467 1.667504 0.000000 0.000000 0.000000
0.287942 0.016206 1.667355 0.000000 0.000000 0.000000
0.351132 0.022028 1.719739 0.000000 0.000000 0.000000
0.287418 0.013497 1.675268 0.000000 0.000000 0.000000
0.273985 0.003012 1.703386 0.000000 0.000000 0.000000
0.407221 0.044860 1.705294 0.000000 0.000000 0.000000
0.340525 0.038911 1.661065 0.000000 0.000000 0.000000
0.267349 0.016234 1.644657 0.000000 0.000000 0.000000
0.351456 0.044442 1.662079 0.000000 0.000000 0.000000
0.420636 0.029735 1.734383 0.000000 0.000000 0.000000
0.283150 0.008595 1.694153 0.000000 0.000000 0.000000
0.430092 0.043360 1.713763 0.000000 0.000000 0.000000
0.366466 0.033720 1.698009 0.000000 0.000000 0.000000
0.332078 0.032743 1.670472 0.000000 0.000000 0.000000
0.324937 0.040323 1.645026 0.000000 0.000000 0.000000
0.375725 0.022044 1.736374 0.000000 0.000000 0.000000
0.295847 -0.015315 1.761427 0.000000 0.000000 0.000000
0.421054 0.048542 1.697613 0.000000 0.000000 0.000000
0.378237 0.024202 1.733409 0.000000 0.000000 0.000000
0.325643 0.029416 1.671675 0.000000 0.000000 0.000000
0.327038 0.039438 1.649924 0.000000 0.000000 0.000000
0.393311 0.056752 1.666090 0.000000 0.000000 0.000000
0.353183 0.052367 1.646953 0.000000 0.000000 0.000000
0.358939 0.038234 1.680904 0.000000 0.000000 0.000000
0.345899 0.047192 1.651551 0.000000 0.000000 0.000000
0.395238 0.060723 1.661060 0.000000 0.000000 0.000000
0.328235 0.037228 1.658212 0.000000 0.000000 0.000000
0.323597 0.029515 1.673405 0.000000 0.000000 0.000000
0.354547 0.004231 1.756191 0.000000 0.000000 0.000000
0.302748 0.000806 1.733745 0.000000 0.000000 0.000000
0.340025 0.000699 1.757503 0.000000 0.000000 0.000000
0.262646 0.003365 1.672872 0.000000 0.000000 0.000000
0.391227 0.005033 1.774739 0.000000 0.000000 0.000000
0.320750 0.002848 1.743487 0.000000 0.000000 0.000000
0.268606 -0.011227 1.732254 0.000000 0.000000 0.000000
0.366374 0.036291 1.692776 0.000000 0.000000 0.000000
0.373910 0.038789 1.690480 0.000000 0.000000 0.000000
0.296781 0.015522 1.684476 0.000000 0.000000 0.000000
0.273533 0.005241 1.668576 0.000000 0.000000 0.000000
0.363198 0.056309 1.645302 0.000000 0.000000 0.000000
0.260477 -0.010188 1.728294 0.000000 0.000000 0.000000
0.387809 0.041783 1.690987 0.000000 0.000000 0.000000
0.387860 0.056044 1.664984 0.000000 0.000000 0.000000
0.288614 0.018326 1.661351 0.000000 0.000000 0.000000
0.385022 0.038131 1.703056 0.000000 0.000000 0.000000
0.443588 0.025698 1.737914 0.000000 0.000000 0.000000
0.269028 0.000523 1.702522 0.000000 0.000000 0.000000
0.390642 0.002851 1.777024 0.000000 0.000000 0.000000
0.331587 0.013759 1.728244 0.000000 0.000000 0.000000
0.283073 0.023491 1.642080 0.000000 0.000000 0.000000
0.268497 -0.005997 1.718736 0.000000 0.000000 0.000000
0.394872 0.053607 1.673418 0.000000 0.000000 0.000000
0.316080 0.032572 1.651416 0.000000 0.000000 0.000000
0.344173 0.044374 1.657067 0.000000 0.000000 0.000000
0.342161 -0.010871 1.775049 0.000000 0.000000 0.000000
0.371327 0.005686 1.762457 0.000000 0.000000 0.000000
0.412456 0.051049 1.693207 0.000000 0.000000 0.000000
0.421993 0.019336 1.758013 0.000000 0.000000 0.000000
0.314199 0.038264 1.637424 0.000000 0.000000 0.000000
0.285489 -0.002530 1.724645 0.000000 0.000000 0.000000
0.444765 0.010143 1.766517 0.000000 0.000000 0.000000
0.318431 0.030304 1.665410 0.000000 0.000000 0.000000
0.285499 -0.006961 1.736950 0.000000 0.000000 0.000000
0.371153 0.007315 1.781104 0.000000 0.000000 0.000000
0.316096 -0.003513 1.752214 0.000000 0.000000 0.000000
0.470172 0.014529 1.774305 0.000000 0.000000 0.000000
0.397781 0.046319 1.689074 0.000000 0.000000 0.000000
0.416124 0.067584 1.663899 0.000000 0.000000 0.000000
0.290149 0.005117 1.708807 0.000000 0.000000 0.000000
0.352246 0.045152 1.661083 0.000000 0.000000 0.000000
0.267622 0.001847 1.697680 0.000000 0.000000 0.000000
0.282979 0.002612 1.708594 0.000000 0.000000 0.000000
0.286116 0.018526 1.656367 0.000000 0.000000 0.000000
0.268704 0.004360 1.683019 0.000000 0.000000 0.000000
0.276173 0.007465 1.684888 0.000000 0.000000 0.000000
0.347112 0.042243 1.660604 0.000000 0.000000 0.000000
0.271168 -0.006162 1.720816 0.000000 0.000000 0.000000
0.299203 0.022538 1.662416 0.000000 0.000000 0.000000
0.370025 0.052136 1.667970 0.000000 0.000000 0.000000
0.264207 0.000024 1.700752 0.000000 0.000000 0.000000
0.280436 -0.002285 1.720502 0.000000 0.000000 0.000000
0.279236 0.004753 1.702330 0.000000 0.000000 0.000000
0.363725 0.046706 1.666877 0.000000 0.000000 0.000000
0.373130 0.016956 1.748663 0.000000 0.000000 0.000000
0.286685 0.009048 1.692928 0.000000 0.000000 0.000000
0.309388 0.030930 1.647284 0.000000 0.000000 0.000000
0.303313 -0.001778 1.741282 0.000000 0.000000 0.000000
0.297459 0.016077 1.681815 0.000000 0.000000 0.000000
0.415660 0.054571 1.701935 0.000000 0.000000 0.000000
0.421460 0.027046 1.735307 0.000000 0.000000 0.000000
0.414628 0.042743 1.707256 0.000000 0.000000 0.000000
0.305143 0.020879 1.675538 0.000000 0.000000 0.000000
0.271028 -0.000175 1.708039 0.000000 0.000000 0.000000
0.312797 0.017308 1.698457 0.000000 0.000000 0.000000
0.341172 0.050654 1.645147 0.000000 0.000000 0.000000
0.319657 -0.008997 1.762925 0.000000 0.000000 0.000000
0.274303 -0.001285 1.712836 0.000000 0.000000 0.000000
0.399418 0.042151 1.698835 0.000000 0.000000 0.000000
0.426714 0.020740 1.761109 0.000000 0.000000 0.000000
0.309785 0.035848 1.636728 0.000000 0.000000 0.000000
0.411087 0.066821 1.663723 0.000000 0.000000 0.000000
0.478504 0.007507 1.762472 0.000000 0.000000 0.000000
0.256335 -0.010869 1.719179 0.000000 0.000000 0.000000
0.265449 -0.002838 1.711164 0.000000 0.000000 0.000000
0.281035 0.011383 1.669482 0.000000 0.000000 0.000000
0.423797 0.041715 1.715377 0.000000 0.000000 0.000000
0.344582 0.039312 1.668018 0.000000 0.000000 0.000000
0.386691 0.051303 1.672821 0.000000 0.000000 0.000000
0.292852 0.023405 1.648928 0.000000 0.000000 0.000000
0.397727 0.052285 1.678906 0.000000 0.000000 0.000000
0.292279 -0.015179 1.764505 0.000000 0.000000 0.000000
0.324197 -0.003661 1.763644 0.000000 0.000000 0.000000
0.305773 0.028015 1.650617 0.000000 0.000000 0.000000
0.333361 0.044762 1.641869 0.000000 0.000000 0.000000
0.296970 0.014206 1.687097 0.000000 0.000000 0.000000
0.393550 0.049899 1.680577 0.000000 0.000000 0.000000
0.387145 0.024190 1.736438 0.000000 0.000000 0.000000
0.311916 0.021782 1.683074 0.000000 0.000000 0.000000
0.287637 0.001056 1.719568 0.000000 0.000000 0.000000
0.441008 0.044243 1.727503 0.000000 0.000000 0.000000
0.276523 0.005312 1.699270 0.000000 0.000000 0.000000
0.283719 0.006316 1.702855 0.000000 0.000000 0.000000
0.431736 0.056521 1.692803 0.000000 0.000000 0.000000
0.299090 0.002894 1.726333 0.000000 0.000000 0.000000
0.381497 0.047699 1.674910 0.000000 0.000000 0.000000
0.369440 0.002186 1.769722 0.000000 0.000000 0.000000
0.349419 0.050286 1.645150 0.000000 0.000000 0.000000
0.346411 0.031738 1.689461 0.000000 0.000000 0.000000
0.286197 0.022784 1.643920 0.000000 0.000000 0.000000
0.329509 0.035877 1.658609 0.000000 0.000000 0.000000
0.304358 0.006751 1.722351 0.000000 0.000000 0.000000
0.261436 0.000895 1.683169 0.000000 0.000000 0.000000
0.391792 0.049059 1.683221 0.000000 0.000000 0.000000
0.362638 0.039174 1.681558 0.000000 0.000000 0.000000
0.301838 0.033392 1.635850 0.000000 0.000000 0.000000
0.268082 0.004419 1.677897 0.000000 0.000000 0.000000
0.263503 -0.007107 1.714730 0.000000 0.000000 0.000000
0.293359 0.018852 1.664459 0.000000 0.000000 0.000000
0.390363 0.041379 1.689535 0.000000 0.000000 0.000000
0.357155 0.002635 1.760983 0.000000 0.000000 0.000000
0.252555 -0.005893 1.702159 0.000000 0.000000 0.000000
0.324268 0.020782 1.700599 0.000000 0.000000 0.000000
0.285813 0.019193 1.650085 0.000000 0.000000 0.000000
0.368153 0.001244 1.772979 0.000000 0.000000 0.000000
0.302905 0.000574 1.735205 0.000000 0.000000 0.000000
0.258059 -0.001759 1.688081 0.000000 0.000000 0.000000
0.458739 0.008216 1.765617 0.000000 0.000000 0.000000
0.366490 0.003244 1.765061 0.000000 0.000000 0.000000
0.309692 0.031085 1.646259 0.000000 0.000000 0.000000
0.417071 0.037062 1.722398 0.000000 0.000000 0.000000
0.417662 -0.000538 1.770396 0.000000 0.000000 0.000000
0.446212 0.050279 1.710911 0.000000 0.000000 0.000000
0.345882 0.009919 1.745651 0.000000 0.000000 0.000000
0.303944 0.005505 1.727545 0.000000 0.000000 0.000000
0.273503 0.018501 1.645196 0.000000 0.000000 0.000000
0.252193 -0.000113 1.679554 0.000000 0.000000 0.000000
0.339333 0.043514 1.645613 0.000000 0.000000 0.000000
0.355934 0.042783 1.669381 0.000000 0.000000 0.000000
0.263947 -0.009300 1.720885 0.000000 0.000000 0.000000
0.264571 -0.009743 1.722860 0.000000 0.000000 0.000000
0.261779 -0.003779 1.705855 0.000000 0.000000 0.000000
0.463165 0.013839 1.765969 0.000000 0.000000 0.000000
0.424791 0.044708 1.702940 0.000000 0.000000 0.000000
0.416377 -0.009765 1.785509 0.000000 0.000000 0.000000
0.247401 -0.000681 1.679028 0.000000 0.000000 0.000000
0.278055 0.014872 1.657143 0.000000 0.000000 0.000000
0.310202 0.033778 1.643717 0.000000 0.000000 0.000000
0.263935 -0.004137 1.711428 0.000000 0.000000 0.000000
0.347373 -0.003144 1.762959 0.000000 0.000000 0.000000
0.368277 0.050046 1.662527 0.000000 0.000000 0.000000
0.403074 0.025191 1.733209 0.000000 0.000000 0.000000
0.265593 -0.000208 1.702410 0.000000 0.000000 0.000000
0.343417 0.052098 1.637393 0.000000 0.000000 0.000000
0.431581 0.053500 1.702001 0.000000 0.000000 0.000000
0.380110 0.008443 1.768090 0.000000 0.000000 0.000000
0.283134 0.020073 1.648812 0.000000 0.000000 0.000000
0.308805 0.031079 1.651357 0.000000 0.000000 0.000000
0.276247 0.004984 1.696386 0.000000 0.000000 0.000000
0.336765 0.042271 1.654132 0.000000 0.000000 0.000000
0.332482 0.047288 1.634890 0.000000 0.000000 0.000000
0.282293 -0.009662 1.740557 0.000000 0.000000 0.000000
0.276839 0.008937 1.680708 0.000000 0.000000 0.000000
0.312735 0.024068 1.677909 0.000000 0.000000 0.000000
0.458250 0.028736 1.729916 0.000000 0.000000 0.000000
0.290762 -0.004777 1.733111 0.000000 0.000000 0.000000
0.337798 0.044729 1.648703 0.000000 0.000000 0.000000
0.415847 0.059898 1.677419 0.000000 0.000000 0.000000
0.412425 0.043140 1.698252 0.000000 0.000000 0.000000
0.401845 0.063855 1.661153 0.000000 0.000000 0.000000
0.318666 0.031210 1.663429 0.000000 0.000000 0.000000
0.456608 0.024056 1.746733 0.000000 0.000000 0.000000
0.284651 -0.009919 1.741659 0.000000 0.000000 0.000000
0.338387 -0.007701 1.767431 0.000000 0.000000 0.000000
0.384380 0.061276 1.650331 0.000000 0.000000 0.000000
0.359259 0.055990 1.641902 0.000000 0.000000 0.000000
0.398488 0.058846 1.668415 0.000000 0.000000 0.000000
0.361130 0.054626 1.649078 0.000000 0.000000 0.000000
0.378100 0.041270 1.688848 0.000000 0.000000 0.000000
0.408759 0.054088 1.683060 0.000000 0.000000 0.000000
0.289646 -0.007522 1.741118 0.000000 0.000000 0.000000
0.332794 0.038339 1.662028 0.000000 0.000000 0.000000
0.349213 0.043627 1.661845 0.000000 0.000000 0.000000
0.410666 0.029058 1.725287 0.000000 0.000000 0.000000
0.330238 -0.001514 1.755856 0.000000 0.000000 0.000000
0.321720 0.022958 1.690247 0.000000 0.000000 0.000000
0.298279 0.016957 1.651261 0.000000 0.000000 0.000000
0.325313 0.028430 1.676032 0.000000 0.000000 0.000000
0.455604 0.040546 1.724403 0.000000 0.000000 0.000000
0.278488 0.009581 1.669693 0.000000 0.000000 0.000000
0.374964 0.054296 1.660801 0.000000 0.000000 0.000000
0.310546 0.028350 1.660190 0.000000 0.000000 0.000000
0.313224 0.029988 1.655923 0.000000 0.000000 0.000000
0.274145 0.004489 1.696266 0.000000 0.000000 0.000000
0.431179 0.056975 1.706631 0.000000 0.000000 0.000000
0.259259 0.001829 1.681415 0.000000 0.000000 0.000000
0.325518 0.038088 1.653498 0.000000 0.000000 0.000000
0.368427 0.054343 1.654197 0.000000 0.000000 0.000000
0.264433 0.003616 1.675319 0.000000 0.000000 0.000000
0.412478 0.050425 1.691298 0.000000 0.000000 0.000000
0.370752 0.060011 1.641812 0.000000 0.000000 0.000000
0.361874 -0.000901 1.769966 0.000000 0.000000 0.000000
0.348037 0.033541 1.688970 0.000000 0.000000 0.000000
0.430480 0.049108 1.706200 0.000000 0.000000 0.000000
0.377810 0.060684 1.647248 0.000000 0.000000 0.000000
0.301277 0.029811 1.645001 0.000000 0.000000 0.000000
0.312802 0.030258 1.654089 0.000000 0.000000 0.000000
0.283524 0.010276 1.684325 0.000000 0.000000 0.000000
0.446513 0.045827 1.713936 0.000000 0.000000 0.000000
0.320023 0.034074 1.652603 0.000000 0.000000 0.000000
0.299329 0.008971 1.712042 0.000000 0.000000 0.000000
0.332571 0.007330 1.741247 0.000000 0.000000 0.000000
0.296416 0.017609 1.671762 0.000000 0.000000 0.000000
0.292674 0.008260 1.704300 0.000000 0.000000 0.000000
0.366141 0.047459 1.665448 0.000000 0.000000 0.000000
0.257635 0.003869 1.669558 0.000000 0.000000 0.000000
0.275937 0.009845 1.690146 0.000000 0.000000 0.000000
0.293296 0.012220 1.692665 0.000000 0.000000 0.000000
0.434737 0.009464 1.766779 0.000000 0.000000 0.000000
0.353842 -0.016166 1.791293 0.000000 0.000000 0.000000
0.271740 0.012163 1.657222 0.000000 0.000000 0.000000
0.274625 0.005334 1.687048 0.000000 0.000000 0.000000
0.296350 0.023650 1.659431 0.000000 0.000000 0.000000
0.274646 0.006239 1.690114 0.000000 0.000000 0.000000
0.260561 0.005813 1.669043 0.000000 0.000000 0.000000
0.299269 0.031668 1.638288 0.000000 0.000000 0.000000
0.265007 0.002011 1.686386 0.000000 0.000000 0.000000
0.308906 -0.001992 1.744719 0.000000 0.000000 0.000000
0.370462 0.060174 1.645644 0.000000 0.000000 0.000000
0.275874 0.009814 1.670597 0.000000 0.000000 0.000000
0.355951 0.039348 1.678362 0.000000 0.000000 0.000000
0.311826 0.025652 1.667821 0.000000 0.000000 0.000000
0.414906 0.053205 1.687163 0.000000 0.000000 0.000000
0.443616 0.054666 1.712521 0.000000 0.000000 0.000000
0.254113 0.000356 1.671551 0.000000 0.000000 0.000000
0.374954 0.003561 1.771737 0.000000 0.000000 0.000000
0.292440 -0.004826 1.736934 0.000000 0.000000 0.000000
0.307840 -0.010079 1.760199 0.000000 0.000000 0.000000
0.384860 -0.012764 1.791524 0.000000 0.000000 0.000000
0.268628 0.007871 1.665729 0.000000 0.000000 0.000000
0.445256 0.053806 1.705052 0.000000 0.000000 0.000000
0.263351 0.001281 1.685720 0.000000 0.000000 0.000000
0.248186 -0.002754 1.693560 0.000000 0.000000 0.000000
0.348809 0.046367 1.654668 0.000000 0.000000 0.000000
0.290590 -0.010388 1.747606 0.000000 0.000000 0.000000
0.413092 -0.006233 1.783312 0.000000 0.000000 0.000000
0.382252 0.012017 1.759861 0.000000 0.000000 0.000000
0.413483 0.069964 1.659062 0.000000 0.000000 0.000000
0.341119 0.033320 1.680231 0.000000 0.000000 0.000000
0.302540 -0.020598 1.779134 0.000000 0.000000 0.000000
0.290808 -0.007495 1.741619 0.000000 0.000000 0.000000
0.282733 -0.005466 1.732355 0.000000 0.000000 0.000000
0.312733 -0.003802 1.751683 0.000000 0.000000 0.000000
0.364553 -0.000699 1.768666 0.000000 0.000000 0.000000
0.330442 -0.015559 1.775182 0.000000 0.000000 0.000000
0.445854 0.055730 1.713255 0.000000 0.000000 0.000000
0.310328 0.032612 1.657202 0.000000 0.000000 0.000000
0.334659 0.044589 1.647689 0.000000 0.000000 0.000000
0.318341 -0.003182 1.751626 0.000000 0.000000 0.000000
0.357545 0.047011 1.660751 0.000000 0.000000 0.000000
0.248265 0.000276 1.680704 0.000000 0.000000 0.000000
0.270917 -0.012195 1.739602 0.000000 0.000000 0.000000
0.363621 0.052167 1.654030 0.000000 0.000000 0.000000
0.273164 0.008752 1.683329 0.000000 0.000000 0.000000
0.328924 -0.001316 1.755754 0.000000 0.000000 0.000000
0.403601 0.022886 1.747801 0.000000 0.000000 0.000000
0.295336 0.018661 1.664762 0.000000 0.000000 0.000000
0.324994 -0.009123 1.764530 0.000000 0.000000 0.000000
0.320082 0.040303 1.638200 0.000000 0.000000 0.000000
0.266343 0.002442 1.682786 0.000000 0.000000 0.000000
0.294173 -0.004838 1.738434 0.000000 0.000000 0.000000
0.432141 0.049271 1.706201 0.000000 0.000000 0.000000
0.331661 0.008014 1.740115 0.000000 0.000000 0.000000
0.415107 0.053618 1.686924 0.000000 0.000000 0.000000
0.276303 -0.002947 1.718035 0.000000 0.000000 0.000000
0.357434 0.050737 1.651990 0.000000 0.000000 0.000000
0.400879 0.048350 1.687919 0.000000 0.000000 0.000000
0.296890 0.016915 1.678624 0.000000 0.000000 0.000000
0.335716 0.043281 1.650443 0.000000 0.000000 0.000000
0.274464 0.005500 1.673423 0.000000 0.000000 0.000000
0.345626 -0.011033 1.777939 0.000000 0.000000 0.000000
0.327615 0.043323 1.631852 0.000000 0.000000 0.000000
0.420764 0.065869 1.671341 0.000000 0.000000 0.000000
0.326506 0.002947 1.746745 0.000000 0.000000 0.000000
0.320092 -0.015153 1.772241 0.000000 0.000000 0.000000
0.291837 0.021484 1.653445 0.000000 0.000000 0.000000
0.274727 0.006251 1.687302 0.000000 0.000000 0.000000
0.351637 -0.004717 1.769197 0.000000 0.000000 0.000000
0.278431 -0.014137 1.723531 0.000000 0.000000 0.000000
0.272655 -0.000245 1.709768 0.000000 0.000000 0.000000
0.394139 0.054947 1.669506 0.000000 0.000000 0.000000
0.316845 -0.004989 1.755696 0.000000 0.000000 0.000000
0.379951 -0.006223 1.786281 0.000000 0.000000 0.000000
0.302479 -0.005689 1.749010 0.000000 0.000000 0.000000
0.260069 -0.002265 1.691393 0.000000 0.000000 0.000000
0.385165 0.043389 1.693961 0.000000 0.000000 0.000000
0.277543 0.018004 1.649518 0.000000 0.000000 0.000000
0.323650 0.000390 1.750954 0.000000 0.000000 0.000000
0.275052 0.014332 1.653678 0.000000 0.000000 0.000000
0.263067 0.002969 1.671888 0.000000 0.000000 0.000000
0.421671 0.056475 1.687989 0.000000 0.000000 0.000000
0.367580 0.054497 1.647223 0.000000 0.000000 0.000000
0.321674 -0.001351 1.750753 0.000000 0.000000 0.000000
0.418688 0.066377 1.669333 0.000000 0.000000 0.000000
0.290091 0.022193 1.644014 0.000000 0.000000 0.000000
0.300481 -0.007685 1.751372 0.000000 0.000000 0.000000
0.250859 0.007226 1.661222 0.000000 0.000000 0.000000
0.422211 0.046969 1.702889 0.000000 0.000000 0.000000
0.274034 0.001711 1.689210 0.000000 0.000000 0.000000
0.422856 0.051680 1.689188 0.000000 0.000000 0.000000
0.346440 -0.013511 1.783804 0.000000 0.000000 0.000000
0.358561 0.049464 1.656048 0.000000 0.000000 0.000000
0.250284 -0.000115 1.679603 0.000000 0.000000 0.000000
0.324134 0.024518 1.684677 0.000000 0.000000 0.000000
0.382568 0.025408 1.738893 0.000000 0.000000 0.000000
0.376651 -0.016264 1.794351 0.000000 0.000000 0.000000
0.465331 0.048965 1.722142 0.000000 0.000000 0.000000
0.271544 -0.001653 1.711874 0.000000 0.000000 0.000000
0.406816 0.055251 1.680697 0.000000 0.000000 0.000000
0.437261 0.061547 1.687212 0.000000 0.000000 0.000000
0.291365 0.017006 1.668601 0.000000 0.000000 0.000000
0.360377 0.057755 1.639376 0.000000 0.000000 0.000000
0.391054 -0.000265 1.781041 0.000000 0.000000 0.000000
0.373805 -0.004657 1.783797 0.000000 0.000000 0.000000
0.369329 0.053068 1.654497 0.000000 0.000000 0.000000
0.260529 0.005653 1.663849 0.000000 0.000000 0.000000
0.346460 -0.020318 1.797716 0.000000 0.000000 0.000000
0.274140 0.013313 1.662029 0.000000 0.000000 0.000000
0.322879 -0.010292 1.765565 0.000000 0.000000 0.000000
0.263375 0.002953 1.691368 0.000000 0.000000 0.000000
0.390390 0.062822 1.656133 0.000000 0.000000 0.000000
0.404696 -0.004189 1.783640 0.000000 0.000000 0.000000
0.455555 0.026992 1.742190 0.000000 0.000000 0.000000
0.357558 -0.004073 1.771840 0.000000 0.000000 0.000000
0.416693 -0.009308 1.786274 0.000000 0.000000 0.000000
0.300632 -0.020826 1.767707 0.000000 0.000000 0.000000
0.269530 0.010187 1.663528 0.000000 0.000000 0.000000
0.253061 0.001939 1.670953 0.000000 0.000000 0.000000
0.465956 0.053984 1.713696 0.000000 0.000000 0.000000
0.411766 0.061555 1.671699 0.000000 0.000000 0.000000
0.257842 -0.007002 1.702238 0.000000 0.000000 0.000000
0.386627 0.050524 1.672394 0.000000 0.000000 0.000000
0.254397 0.008775 1.659492 0.000000 0.000000 0.000000
0.269854 0.007781 1.677532 0.000000 0.000000 0.000000
0.361945 -0.016493 1.793280 0.000000 0.000000 0.000000
0.449120 0.024509 1.747845 0.000000 0.000000 0.000000
0.357320 0.053411 1.646244 0.000000 0.000000 0.000000
0.455309 0.054313 1.707207 0.000000 0.000000 0.000000
0.377651 0.011194 1.755168 0.000000 0.000000 0.000000
0.352812 0.050619 1.647725 0.000000 0.000000 0.000000
0.314548 0.001547 1.743702 0.000000 0.000000 0.000000
0.451550 0.064531 1.694810 0.000000 0.000000 0.000000
0.265529 -0.003702 1.708865 0.000000 0.000000 0.000000
0.320164 -0.020586 1.783876 0.000000 0.000000 0.000000
0.311640 0.026037 1.668970 0.000000 0.000000 0.000000
0.346569 -0.005309 1.767601 0.000000 0.000000 0.000000
0.340431 -0.010228 1.789154 0.000000 0.000000 0.000000
0.277990 0.002501 1.705040 0.000000 0.000000 0.000000
0.382358 0.057417 1.654489 0.000000 0.000000 0.000000
0.279557 0.002134 1.709017 0.000000 0.000000 0.000000
0.380699 0.051869 1.667455 0.000000 0.000000 0.000000
0.369201 0.061811 1.638159 0.000000 0.000000 0.000000
0.276956 0.020717 1.643619 0.000000 0.000000 0.000000
0.447748 0.050430 1.715660 0.000000 0.000000 0.000000
0.304699 -0.011593 1.758710 0.000000 0.000000 0.000000
0.407164 -0.004146 1.783597 0.000000 0.000000 0.000000
0.439542 0.040844 1.723147 0.000000 0.000000 0.000000
0.304684 -0.013710 1.766594 0.000000 0.000000 0.000000
0.438500 0.044173 1.709178 0.000000 0.000000 0.000000
0.259957 0.003054 1.674148 0.000000 0.000000 0.000000
0.401450 0.064303 1.659959 0.000000 0.000000 0.000000
0.352384 0.052111 1.647203 0.000000 0.000000 0.000000
0.310195 -0.004243 1.753620 0.000000 0.000000 0.000000
0.314273 -0.005359 1.755561 0.000000 0.000000 0.000000
0.252904 0.002941 1.668563 0.000000 0.000000 0.000000
0.307517 0.031294 1.644600 0.000000 0.000000 0.000000
0.312351 -0.011303 1.762212 0.000000 0.000000 0.000000
0.380220 0.006709 1.766877 0.000000 0.000000 0.000000
0.376749 0.061687 1.646454 0.000000 0.000000 0.000000
0.440003 0.066616 1.679340 0.000000 0.000000 0.000000
0.269522 0.000015 1.707092 0.000000 0.000000 0.000000
0.341542 0.050069 1.637153 0.000000 0.000000 0.000000
0.403607 0.063607 1.662863 0.000000 0.000000 0.000000
0.396674 0.048269 1.680342 0.000000 0.000000 0.000000
0.473475 0.037589 1.735156 0.000000 0.000000 0.000000
0.427130 0.063912 1.694341 0.000000 0.000000 0.000000
0.378673 -0.001446 1.782589 0.000000 0.000000 0.000000
0.385108 0.064148 1.646269 0.000000 0.000000 0.000000
0.313181 -0.012879 1.765960 0.000000 0.000000 0.000000
0.357420 -0.004382 1.772830 0.000000 0.000000 0.000000
0.447017 0.058049 1.712005 0.000000 0.000000 0.000000
0.456215 0.044487 1.712970 0.000000 0.000000 0.000000
0.427778 0.065648 1.699791 0.000000 0.000000 0.000000
0.290701 0.002767 1.719019 0.000000 0.000000 0.000000
0.260903 0.004466 1.667224 0.000000 0.000000 0.000000
0.347781 0.053238 1.642642 0.000000 0.000000 0.000000
0.437738 0.006938 1.771354 0.000000 0.000000 0.000000
0.351346 0.046450 1.652014 0.000000 0.000000 0.000000
0.306853 -0.007249 1.754728 0.000000 0.000000 0.000000
0.457665 0.048138 1.722295 0.000000 0.000000 0.000000
0.406532 0.058440 1.673495 0.000000 0.000000 0.000000
0.460773 0.054194 1.723363 0.000000 0.000000 0.000000
0.363878 -0.006620 1.782555 0.000000 0.000000 0.000000
0.336633 -0.006014 1.764167 0.000000 0.000000 0.000000
0.441073 0.061000 1.688899 0.000000 0.000000 0.000000
0.354073 0.001216 1.759538 0.000000 0.000000 0.000000
0.454307 0.030119 1.738715 0.000000 0.000000 0.000000
0.356943 0.049703 1.661235 0.000000 0.000000 0.000000
0.466587 0.033393 1.732170 0.000000 0.000000 0.000000
0.440681 0.037644 1.745135 0.000000 0.000000 0.000000
0.358425 0.022831 1.732230 0.000000 0.000000 0.000000
0.435867 0.058502 1.690306 0.000000 0.000000 0.000000
0.381370 0.061860 1.646959 0.000000 0.000000 0.000000
0.333526 -0.017733 1.782930 0.000000 0.000000 0.000000
0.265061 -0.007066 1.717655 0.000000 0.000000 0.000000
0.426703 0.003513 1.773244 0.000000 0.000000 0.000000
0.308743 -0.019318 1.776718 0.000000 0.000000 0.000000
0.444701 0.060366 1.701220 0.000000 0.000000 0.000000
0.371502 0.057184 1.650446 0.000000 0.000000 0.000000
0.416132 0.066486 1.668307 0.000000 0.000000 0.000000
0.424508 0.046880 1.704523 0.000000 0.000000 0.000000
0.407686 0.057487 1.676436 0.000000 0.000000 0.000000
0.278146 -0.010491 1.739024 0.000000 0.000000 0.000000
0.265318 -0.003195 1.712036 0.000000 0.000000 0.000000
0.331165 0.045332 1.640973 0.000000 0.000000 0.000000
0.306869 -0.016613 1.768740 0.000000 0.000000 0.000000
0.362495 -0.000660 1.770778 0.000000 0.000000 0.000000
0.411698 0.008368 1.773184 0.000000 0.000000 0.000000
0.267068 -0.006720 1.716076 0.000000 0.000000 0.000000
0.467045 0.024830 1.746215 0.000000 0.000000 0.000000
0.349480 0.049694 1.648378 0.000000 0.000000 0.000000
0.463441 0.047500 1.717029 0.000000 0.000000 0.000000
0.432936 0.064535 1.682360 0.000000 0.000000 0.000000
0.318495 0.015295 1.711232 0.000000 0.000000 0.000000
0.451277 0.051281 1.719167 0.000000 0.000000 0.000000
0.254645 -0.006160 1.700569 0.000000 0.000000 0.000000
0.262480 0.001663 1.687209 0.000000 0.000000 0.000000
0.254643 -0.011320 1.729910 0.000000 0.000000 0.000000
0.388250 0.064791 1.648705 0.000000 0.000000 0.000000
0.436275 0.063651 1.685932 0.000000 0.000000 0.000000
0.351336 0.049493 1.648449 0.000000 0.000000 0.000000
0.370384 0.048990 1.661539 0.000000 0.000000 0.000000
0.437113 0.032308 1.734699 0.000000 0.000000 0.000000
0.443636 0.062265 1.709504 0.000000 0.000000 0.000000
0.421396 0.060317 1.675257 0.000000 0.000000 0.000000
0.347344 -0.019869 1.781360 0.000000 0.000000 0.000000
0.397456 0.065494 1.657130 0.000000 0.000000 0.000000
0.435035 0.060741 1.685792 0.000000 0.000000 0.000000
0.274190 -0.007489 1.727655 0.000000 0.000000 0.000000
0.279867 0.023447 1.639976 0.000000 0.000000 0.000000
0.310094 -0.020728 1.779677 0.000000 0.000000 0.000000
0.281569 -0.005606 1.729446 0.000000 0.000000 0.000000
0.268932 0.007575 1.670016 0.000000 0.000000 0.000000
0.282818 0.014163 1.661148 0.000000 0.000000 0.000000
0.359735 0.048172 1.659777 0.000000 0.000000 0.000000
0.454366 0.056357 1.702430 0.000000 0.000000 0.000000
0.379594 0.059626 1.649188 0.000000 0.000000 0.000000
0.395170 0.065225 1.653945 0.000000 0.000000 0.000000
0.295380 0.003159 1.721367 0.000000 0.000000 0.000000
0.282607 -0.006825 1.731552 0.000000 0.000000 0.000000
0.379461 0.062236 1.644022 0.000000 0.000000 0.000000
0.424950 0.060925 1.680753 0.000000 0.000000 0.000000
0.413607 0.060285 1.668763 0.000000 0.000000 0.000000
0.305673 0.008113 1.722972 0.000000 0.000000 0.000000
0.300595 -0.000118 1.731479 0.000000 0.000000 0.000000
0.431599 0.050814 1.701651 0.000000 0.000000 0.000000
0.319182 -0.013636 1.768097 0.000000 0.000000 0.000000
0.331805 -0.023781 1.790881 0.000000 0.000000 0.000000
0.453070 0.061063 1.692892 0.000000 0.000000 0.000000
0.295688 -0.013000 1.758089 0.000000 0.000000 0.000000
0.405339 0.058618 1.663447 0.000000 0.000000 0.000000
0.473514 0.022621 1.745939 0.000000 0.000000 0.000000
0.323767 0.038517 1.646477 0.000000 0.000000 0.000000
0.278897 0.019275 1.648845 0.000000 0.000000 0.000000
0.320430 -0.014571 1.771813 0.000000 0.000000 0.000000
0.310210 -0.014494 1.765319 0.000000 0.000000 0.000000
0.331060 0.047252 1.631783 0.000000 0.000000 0.000000
0.261808 -0.010521 1.722632 0.000000 0.000000 0.000000
0.282131 0.011315 1.678564 0.000000 0.000000 0.000000
0.372130 0.058026 1.649240 0.000000 0.000000 0.000000
0.462274 0.059702 1.703655 0.000000 0.000000 0.000000
0.415578 0.068554 1.660517 0.000000 0.000000 0.000000
0.436251 0.055840 1.696466 0.000000 0.000000 0.000000
0.284860 0.003188 1.712607 0.000000 0.000000 0.000000
0.283260 -0.008216 1.738710 0.000000 0.000000 0.000000
0.385665 0.054246 1.665255 0.000000 0.000000 0.000000
0.361125 0.055394 1.644402 0.000000 0.000000 0.000000
0.332530 0.044444 1.642208 0.000000 0.000000 0.000000
0.287192 -0.006585 1.736394 0.000000 0.000000 0.000000
0.330420 0.040293 1.653666 0.000000 0.000000 0.000000
0.300649 0.030921 1.638731 0.000000 0.000000 0.000000
0.382293 0.062020 1.649557 0.000000 0.000000 0.000000
0.418459 0.066427 1.666304 0.000000 0.000000 0.000000
0.440541 0.066175 1.681347 0.000000 0.000000 0.000000
0.439055 0.062486 1.679991 0.000000 0.000000 0.000000
0.314506 0.034213 1.644783 0.000000 0.000000 0.000000
0.332757 -0.010523 1.769774 0.000000 0.000000 0.000000
0.273149 0.006484 1.674406 0.000000 0.000000 0.000000
0.453133 0.062883 1.693578 0.000000 0.000000 0.000000
0.375586 0.001828 1.775083 0.000000 0.000000 0.000000
0.277904 -0.009206 1.733201 0.000000 0.000000 0.000000
0.386128 0.046357 1.679407 0.000000 0.000000 0.000000
0.255529 0.002174 1.680192 0.000000 0.000000 0.000000
0.351930 0.015846 1.738055 0.000000 0.000000 0.000000
0.280150 -0.008689 1.737165 0.000000 0.000000 0.000000
0.366773 0.059755 1.648465 0.000000 0.000000 0.000000
0.436607 0.019508 1.757339 0.000000 0.000000 0.000000
0.435895 0.016335 1.761290 0.000000 0.000000 0.000000
0.266467 -0.005919 1.717191 0.000000 0.000000 0.000000
0.330120 0.044330 1.637370 0.000000 0.000000 0.000000
0.275898 -0.011383 1.729703 0.000000 0.000000 0.000000
0.445438 0.055569 1.697936 0.000000 0.000000 0.000000
0.256041 -0.009941 1.714953 0.000000 0.000000 0.000000
0.456741 0.063197 1.692501 0.000000 0.000000 0.000000
0.360644 0.053338 1.650700 0.000000 0.000000 0.000000
0.342612 -0.009498 1.771378 0.000000 0.000000 0.000000
0.439266 0.063923 1.684850 0.000000 0.000000 0.000000
0.447905 0.062207 1.690825 0.000000 0.000000 0.000000
0.407204 0.060636 1.670548 0.000000 0.000000 0.000000
0.436172 0.060506 1.691891 0.000000 0.000000 0.000000
0.292398 -0.005040 1.736645 0.000000 0.000000 0.000000
0.398895 0.060876 1.660080 0.000000 0.000000 0.000000
0.281139 -0.009978 1.739623 0.000000 0.000000 0.000000
0.408002 0.068528 1.671888 0.000000 0.000000 0.000000
0.457128 0.031149 1.740001 0.000000 0.000000 0.000000
0.255039 0.004328 1.665086 0.000000 0.000000 0.000000
0.255236 -0.011855 1.714941 0.000000 0.000000 0.000000
0.363202 0.060907 1.635660 0.000000 0.000000 0.000000
0.441149 0.061129 1.686789 0.000000 0.000000 0.000000
0.264996 -0.012386 1.717785 0.000000 0.000000 0.000000
0.452220 0.066281 1.688539 0.000000 0.000000 0.000000
0.304192 -0.019280 1.773256 0.000000 0.000000 0.000000
0.273814 -0.014461 1.733485 0.000000 0.000000 0.000000
0.248702 -0.006078 1.700016 0.000000 0.000000 0.000000
0.272357 0.000097 1.705958 0.000000 0.000000 0.000000
0.408970 0.062748 1.669125 0.000000 0.000000 0.000000
0.325464 -0.011282 1.768130 0.000000 0.000000 0.000000
0.253164 0.000701 1.686065 0.000000 0.000000 0.000000
0.277743 0.019570 1.646270 0.000000 0.000000 0.000000
0.265724 -0.001775 1.705466 0.000000 0.000000 0.000000
0.458941 0.061822 1.699651 0.000000 0.000000 0.000000
0.319771 0.000585 1.743588 0.000000 0.000000 0.000000
0.323524 -0.022649 1.785855 0.000000 0.000000 0.000000
0.461345 0.038308 1.733500 0.000000 0.000000 0.000000
0.318641 -0.024392 1.779330 0.000000 0.000000 0.000000
0.298070 -0.017890 1.766408 0.000000 0.000000 0.000000
0.261541 -0.005450 1.706076 0.000000 0.000000 0.000000
0.469448 0.036871 1.732681 0.000000 0.000000 0.000000
0.370926 0.000621 1.783767 0.000000 0.000000 0.000000
0.373604 0.020881 1.736172 0.000000 0.000000 0.000000
0.435137 0.003260 1.772233 0.000000 0.000000 0.000000
0.322469 -0.017940 1.774503 0.000000 0.000000 0.000000
0.346488 0.001406 1.757045 0.000000 0.000000 0.000000
0.356675 0.011033 1.747898 0.000000 0.000000 0.000000
0.328757 0.003184 1.747539 0.000000 0.000000 0.000000
0.290732 0.002213 1.716675 0.000000 0.000000 0.000000
0.439088 0.022228 1.750628 0.000000 0.000000 0.000000
0.439889 0.043873 1.717740 0.000000 0.000000 0.000000
0.411291 0.022930 1.747528 0.000000 0.000000 0.000000
0.331856 -0.019683 1.790727 0.000000 0.000000 0.000000
0.445149 0.034186 1.731083 0.000000 0.000000 0.000000
0.419631 0.026988 1.743249 0.000000 0.000000 0.000000
0.458219 0.005359 1.770354 0.000000 0.000000 0.000000
0.357243 -0.009428 1.785731 0.000000 0.000000 0.000000
0.350216 0.007469 1.751161 0.000000 0.000000 0.000000
0.336496 0.007126 1.746786 0.000000 0.000000 0.000000
0.279229 -0.015053 1.754462 0.000000 0.000000 0.000000
0.458426 0.054425 1.717270 0.000000 0.000000 0.000000
0.444105 0.025484 1.746443 0.000000 0.000000 0.000000
0.467767 0.056220 1.711531 0.000000 0.000000 0.000000
0.454465 0.014908 1.762084 0.000000 0.000000 0.000000
0.252484 -0.005820 1.697422 0.000000 0.000000 0.000000
0.292291 -0.005844 1.740247 0.000000 0.000000 0.000000
0.467522 0.028324 1.735914 0.000000 0.000000 0.000000
0.450955 0.062844 1.696232 0.000000 0.000000 0.000000
0.415670 0.000544 1.775754 0.000000 0.000000 0.000000
0.361168 0.010411 1.751264 0.000000 0.000000 0.000000
0.329093 -0.003758 1.758381 0.000000 0.000000 0.000000
0.267214 -0.007750 1.720812 0.000000 0.000000 0.000000
0.351326 0.009955 1.749715 0.000000 0.000000 0.000000
0.285241 0.005537 1.703221 0.000000 0.000000 0.000000
0.431524 0.030022 1.735670 0.000000 0.000000 0.000000
0.351794 0.023111 1.718056 0.000000 0.000000 0.000000
0.377286 0.025838 1.724484 0.000000 0.000000 0.000000
0.382980 -0.012234 1.791948 0.000000 0.000000 0.000000
0.447033 0.030778 1.737980 0.000000 0.000000 0.000000
0.273026 -0.010423 1.736798 0.000000 0.000000 0.000000
0.279233 -0.012019 1.745923 0.000000 0.000000 0.000000
0.267904 -0.007619 1.722770 0.000000 0.000000 0.000000
0.444207 0.008416 1.774503 0.000000 0.000000 0.000000
0.346912 0.006139 1.749471 0.000000 0.000000 0.000000
0.332911 0.002092 1.752363 0.000000 0.000000 0.000000
0.405181 0.028278 1.738254 0.000000 0.000000 0.000000
0.452982 0.064807 1.689625 0.000000 0.000000 0.000000
0.468331 0.045817 1.726099 0.000000 0.000000 0.000000
0.467268 0.038698 1.728832 0.000000 0.000000 0.000000
0.467115 0.023912 1.746602 0.000000 0.000000 0.000000
0.456468 0.018920 1.755391 0.000000 0.000000 0.000000
0.466550 0.058720 1.708118 0.000000 0.000000 0.000000
0.272404 0.015543 1.648683 0.000000 0.000000 0.000000
0.429354 0.030230 1.741575 0.000000 0.000000 0.000000
0.401037 0.062464 1.662213 0.000000 0.000000 0.000000
0.370789 -0.009703 1.788727 0.000000 0.000000 0.000000
0.335764 0.051209 1.623651 0.000000 0.000000 0.000000
0.454208 0.059570 1.696093 0.000000 0.000000 0.000000
0.384130 -0.006938 1.793500 0.000000 0.000000 0.000000
0.444678 0.066468 1.682947 0.000000 0.000000 0.000000
0.472500 0.009269 1.769029 0.000000 0.000000 0.000000
0.296026 -0.001821 1.728059 0.000000 0.000000 0.000000
0.263428 -0.004248 1.712066 0.000000 0.000000 0.000000
0.438153 0.057569 1.697708 0.000000 0.000000 0.000000
0.287460 -0.014111 1.756595 0.000000 0.000000 0.000000
0.393591 -0.009616 1.788080 0.000000 0.000000 0.000000
0.395417 0.057593 1.664429 0.000000 0.000000 0.000000
0.369076 0.017986 1.741553 0.000000 0.000000 0.000000
0.342820 -0.012459 1.779359 0.000000 0.000000 0.000000
0.259519 -0.000160 1.697168 0.000000 0.000000 0.000000
0.243565 -0.008911 1.704159 0.000000 0.000000 0.000000
0.287732 -0.002405 1.724091 0.000000 0.000000 0.000000
0.400674 0.054686 1.671778 0.000000 0.000000 0.000000
0.293670 -0.006528 1.741683 0.000000 0.000000 0.000000
0.329884 0.005636 1.743323 0.000000 0.000000 0.000000
0.431121 -0.005853 1.778616 0.000000 0.000000 0.000000
0.337122 0.000344 1.756265 0.000000 0.000000 0.000000
0.430546 0.017022 1.760077 0.000000 0.000000 0.000000
0.409368 0.001572 1.776449 0.000000 0.000000 0.000000
0.354543 0.000134 1.766169 0.000000 0.000000 0.000000
0.327363 -0.025226 1.794566 0.000000 0.000000 0.000000
0.332978 0.048339 1.633376 0.000000 0.000000 0.000000
0.336919 0.051280 1.630957 0.000000 0.000000 0.000000
0.259801 -0.006214 1.707216 0.000000 0.000000 0.000000
0.342748 -0.018413 1.796052 0.000000 0.000000 0.000000
0.277334 0.015254 1.658927 0.000000 0.000000 0.000000
0.269919 0.007183 1.671101 0.000000 0.000000 0.000000
0.457743 0.011519 1.767594 0.000000 0.000000 0.000000
0.452133 0.054932 1.708599 0.000000 0.000000 0.000000
0.466637 0.035635 1.733513 0.000000 0.000000 0.000000
0.324437 0.040179 1.643145 0.000000 0.000000 0.000000
0.473001 0.008154 1.766272 0.000000 0.000000 0.000000
0.383399 0.007241 1.770757 0.000000 0.000000 0.000000
0.264348 0.007512 1.662230 0.000000 0.000000 0.000000
0.408765 0.014825 1.765491 0.000000 0.000000 0.000000
0.250804 -0.000155 1.676786 0.000000 0.000000 0.000000
0.444347 0.058065 1.693530 0.000000 0.000000 0.000000
0.363811 -0.008946 1.786559 0.000000 0.000000 0.000000
0.387921 0.000098 1.780213 0.000000 0.000000 0.000000
0.324522 0.036996 1.651421 0.000000 0.000000 0.000000
0.327874 0.043290 1.639292 0.000000 0.000000 0.000000
0.391542 0.008519 1.774314 0.000000 0.000000 0.000000
0.268504 0.010510 1.656548 0.000000 0.000000 0.000000
0.404195 0.018947 1.764945 0.000000 0.000000 0.000000
0.255379 0.000748 1.677880 0.000000 0.000000 0.000000
0.464943 0.043721 1.722044 0.000000 0.000000 0.000000
0.433676 0.069750 1.675135 0.000000 0.000000 0.000000
0.373080 -0.016061 1.799472 0.000000 0.000000 0.000000
0.434805 0.001953 1.773632 0.000000 0.000000 0.000000
0.400566 0.001664 1.777836 0.000000 0.000000 0.000000
0.375728 -0.013328 1.793627 0.000000 0.000000 0.000000
0.287704 -0.001220 1.726106 0.000000 0.000000 0.000000
0.306018 0.031517 1.642416 0.000000 0.000000 0.000000
0.398594 0.054200 1.677091 0.000000 0.000000 0.000000
0.319383 -0.011336 1.764724 0.000000 0.000000 0.000000
0.399229 0.018449 1.759761 0.000000 0.000000 0.000000
0.279838 0.016296 1.653403 0.000000 0.000000 0.000000
0.278724 0.017837 1.650590 0.000000 0.000000 0.000000
0.289832 0.026296 1.640681 0.000000 0.000000 0.000000
0.354746 -0.015169 1.801736 0.000000 0.000000 0.000000
0.463343 0.011990 1.764802 0.000000 0.000000 0.000000
0.428027 0.067863 1.675117 0.000000 0.000000 0.000000
0.360451 0.056765 1.642109 0.000000 0.000000 0.000000
0.290837 -0.000603 1.721933 0.000000 0.000000 0.000000
0.419753 -0.008898 1.784214 0.000000 0.000000 0.000000
0.288902 -0.011348 1.751643 0.000000 0.000000 0.000000
0.332323 -0.022067 1.788839 0.000000 0.000000 0.000000
0.427959 -0.018150 1.788281 0.000000 0.000000 0.000000
0.256087 -0.011268 1.723896 0.000000 0.000000 0.000000
0.296470 0.029829 1.638668 0.000000 0.000000 0.000000
0.251703 0.000088 1.675958 0.000000 0.000000 0.000000
0.423907 0.069676 1.665442 0.000000 0.000000 0.000000
0.264237 0.010324 1.656449 0.000000 0.000000 0.000000
0.255141 -0.001814 1.689932 0.000000 0.000000 0.000000
0.461939 0.052329 1.712013 0.000000 0.000000 0.000000
0.255531 -0.001872 1.692205 0.000000 0.000000 0.000000
0.271033 0.008154 1.663440 0.000000 0.000000 0.000000
0.271792 -0.006620 1.727241 0.000000 0.000000 0.000000
0.384132 0.059997 1.659616 0.000000 0.000000 0.000000
0.372411 0.064468 1.636086 0.000000 0.000000 0.000000
0.396733 -0.022109 1.794047 0.000000 0.000000 0.000000
0.299275 0.024130 1.652964 0.000000 0.000000 0.000000
0.369767 0.055772 1.654046 0.000000 0.000000 0.000000
0.391950 0.063254 1.664205 0.000000 0.000000 0.000000
0.276424 -0.017947 1.739255 0.000000 0.000000 0.000000
0.307353 -0.014910 1.770659 0.000000 0.000000 0.000000
0.402891 -0.010388 1.787581 0.000000 0.000000 0.000000
0.389429 -0.004576 1.776318 0.000000 0.000000 0.000000
0.421727 -0.008901 1.784924 0.000000 0.000000 0.000000
0.345032 0.052630 1.635474 0.000000 0.000000 0.000000
0.323034 -0.023740 1.792284 0.000000 0.000000 0.000000
0.391467 0.059808 1.657104 0.000000 0.000000 0.000000
0.430454 0.069024 1.673320 0.000000 0.000000 0.000000
0.405123 0.057607 1.672566 0.000000 0.000000 0.000000
0.398873 0.044241 1.693117 0.000000 0.000000 0.000000
0.383583 0.048118 1.677124 0.000000 0.000000 0.000000
0.400253 0.056340 1.673344 0.000000 0.000000 0.000000
0.353369 -0.018297 1.793252 0.000000 0.000000 0.000000
0.335609 -0.023542 1.792725 0.000000 0.000000 0.000000
0.315434 -0.017024 1.772630 0.000000 0.000000 0.000000
0.398982 0.061911 1.660631 0.000000 0.000000 0.000000
0.392019 0.053176 1.671150 0.000000 0.000000 0.000000
0.341150 -0.019493 1.795121 0.000000 0.000000 0.000000
0.289327 -0.013677 1.755372 0.000000 0.000000 0.000000
0.373525 0.058492 1.648858 0.000000 0.000000 0.000000
0.384110 -0.012494 1.793844 0.000000 0.000000 0.000000
0.395147 0.056577 1.670000 0.000000 0.000000 0.000000
0.381295 0.041444 1.688168 0.000000 0.000000 0.000000
0.393447 0.063792 1.655364 0.000000 0.000000 0.000000
0.342394 -0.014687 1.782279 0.000000 0.000000 0.000000
0.345586 -0.013285 1.781451 0.000000 0.000000 0.000000
0.407427 0.061279 1.670242 0.000000 0.000000 0.000000
0.394320 0.051644 1.676028 0.000000 0.000000 0.000000
0.342197 -0.021713 1.791817 0.000000 0.000000 0.000000
0.267793 -0.011206 1.739777 0.000000 0.000000 0.000000
0.371138 0.060574 1.641416 0.000000 0.000000 0.000000
0.346445 -0.018454 1.786872 0.000000 0.000000 0.000000
0.322972 -0.022949 1.786859 0.000000 0.000000 0.000000
0.303110 -0.018777 1.771088 0.000000 0.000000 0.000000
0.277026 0.015246 1.651860 0.000000 0.000000 0.000000
0.328844 -0.022004 1.787217 0.000000 0.000000 0.000000
0.414214 0.058563 1.680835 0.000000 0.000000 0.000000
0.352603 -0.020534 1.794305 0.000000 0.000000 0.000000
0.348077 -0.014720 1.790354 0.000000 0.000000 0.000000
0.402197 0.064905 1.659575 0.000000 0.000000 0.000000
0.370487 -0.002766 1.780529 0.000000 0.000000 0.000000
0.386386 0.064384 1.646194 0.000000 0.000000 0.000000
0.356173 -0.013144 1.783587 0.000000 0.000000 0.000000
0.288708 0.027177 1.633653 0.000000 0.000000 0.000000
0.478887 0.032991 1.738489 0.000000 0.000000 0.000000
0.336344 -0.021492 1.786314 0.000000 0.000000 0.000000
0.432193 0.068987 1.672152 0.000000 0.000000 0.000000
0.378510 0.063748 1.642857 0.000000 0.000000 0.000000
0.378522 0.063799 1.643028 0.000000 0.000000 0.000000
0.365122 0.055679 1.642680 0.000000 0.000000 0.000000
0.335272 -0.019703 1.779691 0.000000 0.000000 0.000000
0.387728 0.063357 1.652874 0.000000 0.000000 0.000000
0.372181 0.061916 1.640251 0.000000 0.000000 0.000000
0.360505 0.059422 1.636487 0.000000 0.000000 0.000000
0.444473 0.064593 1.686331 0.000000 0.000000 0.000000
0.375135 0.056401 1.647635 0.000000 0.000000 0.000000
0.378829 0.058222 1.658892 0.000000 0.000000 0.000000
0.407137 0.000654 1.778742 0.000000 0.000000 0.000000
0.347791 -0.017017 1.787940 0.000000 0.000000 0.000000
0.267395 0.015084 1.649373 0.000000 0.000000 0.000000
0.296285 0.026274 1.645149 0.000000 0.000000 0.000000
0.461143 0.042351 1.722267 0.000000 0.000000 0.000000
0.400012 0.064954 1.662511 0.000000 0.000000 0.000000
0.267223 -0.010250 1.730970 0.000000 0.000000 0.000000
0.452345 0.055457 1.703271 0.000000 0.000000 0.000000
0.268851 -0.010965 1.732935 0.000000 0.000000 0.000000
0.472875 0.029270 1.741295 0.000000 0.000000 0.000000
0.463784 0.052262 1.727807 0.000000 0.000000 0.000000
0.468918 0.033778 1.735104 0.000000 0.000000 0.000000
0.427324 0.067367 1.668459 0.000000 0.000000 0.000000
0.472437 0.047223 1.728683 0.000000 0.000000 0.000000
0.265757 -0.010925 1.735917 0.000000 0.000000 0.000000
0.461814 0.044142 1.724164 0.000000 0.000000 0.000000
0.396360 0.068051 1.650798 0.000000 0.000000 0.000000
0.463506 0.059912 1.707947 0.000000 0.000000 0.000000
0.385520 0.062916 1.651736 0.000000 0.000000 0.000000
0.324153 0.041094 1.639715 0.000000 0.000000 0.000000
0.293325 0.026189 1.641445 0.000000 0.000000 0.000000
0.279479 0.018965 1.646859 0.000000 0.000000 0.000000
0.391486 0.068977 1.639291 0.000000 0.000000 0.000000
0.443800 0.063199 1.685913 0.000000 0.000000 0.000000
0.423380 0.055878 1.689116 0.000000 0.000000 0.000000
0.350116 -0.016312 1.794485 0.000000 0.000000 0.000000
0.428366 0.069384 1.670078 0.000000 0.000000 0.000000
0.419451 0.065511 1.665154 0.000000 0.000000 0.000000
0.285067 -0.009702 1.744784 0.000000 0.000000 0.000000
0.468868 0.052068 1.716793 0.000000 0.000000 0.000000
0.439697 0.060975 1.689831 0.000000 0.000000 0.000000
0.422830 0.069868 1.667384 0.000000 0.000000 0.000000
0.439169 0.062189 1.687375 0.000000 0.000000 0.000000
0.417103 0.065816 1.668697 0.000000 0.000000 0.000000
0.427415 0.063830 1.670739 0.000000 0.000000 0.000000
0.355193 -0.019877 1.791613 0.000000 0.000000 0.000000
0.444036 0.066226 1.688300 0.000000 0.000000 0.000000
0.436580 0.065592 1.681927 0.000000 0.000000 0.000000
0.467776 0.003681 1.767910 0.000000 0.000000 0.000000
0.262491 -0.012012 1.726422 0.000000 0.000000 0.000000
0.310448 0.033674 1.638158 0.000000 0.000000 0.000000
0.240755 0.000011 1.681930 0.000000 0.000000 0.000000
0.454610 0.059219 1.696720 0.000000 0.000000 0.000000
0.360794 -0.014288 1.794570 0.000000 0.000000 0.000000
0.460296 0.047407 1.717804 0.000000 0.000000 0.000000
0.443383 0.066884 1.682528 0.000000 0.000000 0.000000
0.457583 0.061368 1.700529 0.000000 0.000000 0.000000
0.330469 0.043042 1.646483 0.000000 0.000000 0.000000
0.311558 -0.018643 1.768878 0.000000 0.000000 0.000000
0.394655 0.022109 1.745083 0.000000 0.000000 0.000000
0.345380 -0.019792 1.791307 0.000000 0.000000 0.000000
0.318421 -0.023513 1.787400 0.000000 0.000000 0.000000
0.370513 0.019134 1.745198 0.000000 0.000000 0.000000
0.305717 0.035261 1.634350 0.000000 0.000000 0.000000
0.294564 0.031334 1.635941 0.000000 0.000000 0.000000
0.362851 0.057377 1.644268 0.000000 0.000000 0.000000
0.252709 -0.002213 1.690718 0.000000 0.000000 0.000000
0.419359 0.070469 1.665124 0.000000 0.000000 0.000000
