ply
format ascii 1.0
comment VCGLIB generated
obj_info Generated by SPFormer!
element vertex 868
property float x
property float y
property float z
property float nx
property float ny
property float nz
end_header
0.350408 -0.033014 2.063593 0.000000 0.000000 0.000000
0.346307 -0.035670 2.063528 0.000000 0.000000 0.000000
0.459007 -0.023889 1.995856 0.000000 0.000000 0.000000
0.559339 -0.042481 2.097161 0.000000 0.000000 0.000000
0.346645 -0.037700 2.076801 0.000000 0.000000 0.000000
0.431625 -0.036626 2.084817 0.000000 0.000000 0.000000
0.532112 -0.035340 2.094380 0.000000 0.000000 0.000000
0.447415 -0.026387 1.994309 0.000000 0.000000 0.000000
0.600983 -0.053784 2.036859 0.000000 0.000000 0.000000
0.333299 -0.018077 1.923535 0.000000 0.000000 0.000000
0.305541 -0.025060 1.991085 0.000000 0.000000 0.000000
0.324015 -0.031458 2.003036 0.000000 0.000000 0.000000
0.357070 -0.041291 2.044267 0.000000 0.000000 0.000000
0.317660 -0.013686 1.912407 0.000000 0.000000 0.000000
0.559242 -0.042831 2.089871 0.000000 0.000000 0.000000
0.396868 -0.013255 1.860344 0.000000 0.000000 0.000000
0.330672 -0.015128 1.895968 0.000000 0.000000 0.000000
0.301110 -0.017802 1.961482 0.000000 0.000000 0.000000
0.363651 -0.038814 1.999347 0.000000 0.000000 0.000000
0.422301 -0.018145 1.860953 0.000000 0.000000 0.000000
0.595554 -0.055886 2.049128 0.000000 0.000000 0.000000
0.391443 -0.037801 2.079267 0.000000 0.000000 0.000000
0.547023 -0.025446 1.919916 0.000000 0.000000 0.000000
0.397594 -0.035236 2.103710 0.000000 0.000000 0.000000
0.307725 -0.019462 1.951568 0.000000 0.000000 0.000000
0.342798 -0.037895 2.071624 0.000000 0.000000 0.000000
0.432903 -0.035811 2.091284 0.000000 0.000000 0.000000
0.409730 -0.038453 2.098572 0.000000 0.000000 0.000000
0.448882 -0.033556 2.085589 0.000000 0.000000 0.000000
0.579507 -0.047805 2.058455 0.000000 0.000000 0.000000
0.329147 -0.030212 2.000060 0.000000 0.000000 0.000000
0.335809 -0.013836 1.883864 0.000000 0.000000 0.000000
0.496442 -0.008752 1.862414 0.000000 0.000000 0.000000
0.620268 -0.059339 2.026875 0.000000 0.000000 0.000000
0.558424 -0.042253 2.069188 0.000000 0.000000 0.000000
0.589019 -0.040544 2.010934 0.000000 0.000000 0.000000
0.620113 -0.040676 1.960496 0.000000 0.000000 0.000000
0.338623 -0.019604 1.907732 0.000000 0.000000 0.000000
0.310923 -0.026150 1.995695 0.000000 0.000000 0.000000
0.312632 -0.022470 1.972749 0.000000 0.000000 0.000000
0.590971 -0.056607 2.064958 0.000000 0.000000 0.000000
0.389850 -0.038817 2.090496 0.000000 0.000000 0.000000
0.582595 -0.055671 2.075140 0.000000 0.000000 0.000000
0.386260 -0.038659 2.088633 0.000000 0.000000 0.000000
0.361034 -0.038449 2.089301 0.000000 0.000000 0.000000
0.602267 -0.043668 2.024878 0.000000 0.000000 0.000000
0.300739 -0.017225 1.953928 0.000000 0.000000 0.000000
0.305198 -0.020611 1.959744 0.000000 0.000000 0.000000
0.313184 -0.031068 2.028348 0.000000 0.000000 0.000000
0.375340 -0.020263 1.886377 0.000000 0.000000 0.000000
0.328640 -0.036963 2.037856 0.000000 0.000000 0.000000
0.335639 -0.019558 1.911253 0.000000 0.000000 0.000000
0.306634 -0.021361 1.967611 0.000000 0.000000 0.000000
0.310624 -0.025106 1.990504 0.000000 0.000000 0.000000
0.329957 -0.037713 2.022031 0.000000 0.000000 0.000000
0.417692 -0.037637 2.085528 0.000000 0.000000 0.000000
0.410574 -0.037736 2.089777 0.000000 0.000000 0.000000
0.545938 -0.037876 2.096844 0.000000 0.000000 0.000000
0.351870 -0.038412 2.048945 0.000000 0.000000 0.000000
0.560701 -0.041955 2.074550 0.000000 0.000000 0.000000
0.414174 -0.010669 1.834930 0.000000 0.000000 0.000000
0.313372 -0.017141 1.934891 0.000000 0.000000 0.000000
0.312083 -0.023317 1.979073 0.000000 0.000000 0.000000
0.300892 -0.021658 1.983106 0.000000 0.000000 0.000000
0.343059 -0.018949 1.894258 0.000000 0.000000 0.000000
0.490779 -0.017481 1.945276 0.000000 0.000000 0.000000
0.390116 -0.011596 1.842121 0.000000 0.000000 0.000000
0.380846 -0.037945 2.085718 0.000000 0.000000 0.000000
0.361358 -0.038519 2.074767 0.000000 0.000000 0.000000
0.490177 -0.024630 2.089555 0.000000 0.000000 0.000000
0.405365 -0.037270 2.100391 0.000000 0.000000 0.000000
0.384101 -0.036766 2.083824 0.000000 0.000000 0.000000
0.352682 -0.022232 1.904915 0.000000 0.000000 0.000000
0.353840 -0.015154 1.878005 0.000000 0.000000 0.000000
0.355187 -0.038252 2.019321 0.000000 0.000000 0.000000
0.619046 -0.054816 1.995962 0.000000 0.000000 0.000000
0.616561 -0.058042 2.024860 0.000000 0.000000 0.000000
0.413266 -0.011042 1.841081 0.000000 0.000000 0.000000
0.343656 -0.023776 1.922802 0.000000 0.000000 0.000000
0.304849 -0.017075 1.946392 0.000000 0.000000 0.000000
0.332240 -0.011547 1.878385 0.000000 0.000000 0.000000
0.329998 -0.023030 1.962090 0.000000 0.000000 0.000000
0.316777 -0.029054 2.026724 0.000000 0.000000 0.000000
0.339623 -0.016365 1.883452 0.000000 0.000000 0.000000
0.329263 -0.037790 2.051939 0.000000 0.000000 0.000000
0.328665 -0.036008 2.066949 0.000000 0.000000 0.000000
0.566193 -0.042589 2.051633 0.000000 0.000000 0.000000
0.576150 -0.049153 2.059517 0.000000 0.000000 0.000000
0.300662 -0.022008 1.984535 0.000000 0.000000 0.000000
0.301668 -0.014105 1.934166 0.000000 0.000000 0.000000
0.352155 -0.014708 1.871588 0.000000 0.000000 0.000000
0.613501 -0.056251 2.010253 0.000000 0.000000 0.000000
0.568252 -0.044789 2.082373 0.000000 0.000000 0.000000
0.326241 -0.016479 1.909439 0.000000 0.000000 0.000000
0.314754 -0.021884 1.969722 0.000000 0.000000 0.000000
0.312730 -0.025382 1.994970 0.000000 0.000000 0.000000
0.348462 -0.038332 2.052208 0.000000 0.000000 0.000000
0.623766 -0.056841 2.015613 0.000000 0.000000 0.000000
0.385786 -0.040447 2.051190 0.000000 0.000000 0.000000
0.339260 -0.014255 1.878011 0.000000 0.000000 0.000000
0.323351 -0.024310 1.968205 0.000000 0.000000 0.000000
0.323951 -0.014272 1.907169 0.000000 0.000000 0.000000
0.314134 -0.028410 2.003763 0.000000 0.000000 0.000000
0.362121 -0.038407 2.084183 0.000000 0.000000 0.000000
0.544074 -0.038623 2.099768 0.000000 0.000000 0.000000
0.495129 -0.032744 2.109561 0.000000 0.000000 0.000000
0.360551 -0.037145 2.085064 0.000000 0.000000 0.000000
0.507253 -0.022893 1.991766 0.000000 0.000000 0.000000
0.333293 -0.021002 1.928132 0.000000 0.000000 0.000000
0.349527 -0.039194 2.058643 0.000000 0.000000 0.000000
0.558871 -0.042497 2.077116 0.000000 0.000000 0.000000
0.450910 -0.032555 2.102617 0.000000 0.000000 0.000000
0.552602 -0.040426 2.093619 0.000000 0.000000 0.000000
0.613098 -0.060681 2.027603 0.000000 0.000000 0.000000
0.564549 -0.042982 2.073423 0.000000 0.000000 0.000000
0.398340 -0.015997 1.849279 0.000000 0.000000 0.000000
0.347881 -0.015318 1.875614 0.000000 0.000000 0.000000
0.311183 -0.020362 1.963046 0.000000 0.000000 0.000000
0.321559 -0.020756 1.947865 0.000000 0.000000 0.000000
0.537680 -0.036223 2.100977 0.000000 0.000000 0.000000
0.576140 -0.052783 2.080731 0.000000 0.000000 0.000000
0.556991 -0.040696 2.087751 0.000000 0.000000 0.000000
0.606310 -0.057821 2.042551 0.000000 0.000000 0.000000
0.632897 -0.049648 1.970545 0.000000 0.000000 0.000000
0.307705 -0.020603 1.961708 0.000000 0.000000 0.000000
0.323382 -0.017676 1.929184 0.000000 0.000000 0.000000
0.302210 -0.016314 1.946940 0.000000 0.000000 0.000000
0.314637 -0.019910 1.957244 0.000000 0.000000 0.000000
0.335867 -0.017833 1.919249 0.000000 0.000000 0.000000
0.519542 -0.033088 2.084926 0.000000 0.000000 0.000000
0.573346 -0.047450 2.087043 0.000000 0.000000 0.000000
0.566852 -0.045145 2.057453 0.000000 0.000000 0.000000
0.553897 -0.041680 2.093007 0.000000 0.000000 0.000000
0.576007 -0.048876 2.043988 0.000000 0.000000 0.000000
0.317475 -0.018039 1.949517 0.000000 0.000000 0.000000
0.324356 -0.013675 1.900756 0.000000 0.000000 0.000000
0.321833 -0.027678 2.005532 0.000000 0.000000 0.000000
0.343397 -0.038291 2.075404 0.000000 0.000000 0.000000
0.552666 -0.040196 2.093720 0.000000 0.000000 0.000000
0.348418 -0.040554 2.062467 0.000000 0.000000 0.000000
0.368248 -0.035814 2.079398 0.000000 0.000000 0.000000
0.571205 -0.047837 2.078868 0.000000 0.000000 0.000000
0.311595 -0.028391 1.999384 0.000000 0.000000 0.000000
0.305433 -0.020910 1.990235 0.000000 0.000000 0.000000
0.511782 -0.030941 2.068648 0.000000 0.000000 0.000000
0.361795 -0.035218 2.083198 0.000000 0.000000 0.000000
0.387666 -0.018122 1.858743 0.000000 0.000000 0.000000
0.326695 -0.013264 1.894794 0.000000 0.000000 0.000000
0.308164 -0.014699 1.952399 0.000000 0.000000 0.000000
0.306321 -0.019175 1.951293 0.000000 0.000000 0.000000
0.311679 -0.030094 2.022411 0.000000 0.000000 0.000000
0.345260 -0.014184 1.875774 0.000000 0.000000 0.000000
0.569930 -0.046810 2.074107 0.000000 0.000000 0.000000
0.593013 -0.049679 2.017343 0.000000 0.000000 0.000000
0.476858 -0.031298 2.098151 0.000000 0.000000 0.000000
0.489821 -0.026157 2.032745 0.000000 0.000000 0.000000
0.614609 -0.055427 2.010137 0.000000 0.000000 0.000000
0.350047 -0.022509 1.908636 0.000000 0.000000 0.000000
0.313344 -0.021760 1.982258 0.000000 0.000000 0.000000
0.333735 -0.016776 1.918675 0.000000 0.000000 0.000000
0.365347 -0.023549 1.899946 0.000000 0.000000 0.000000
0.360962 -0.015794 1.876464 0.000000 0.000000 0.000000
0.334118 -0.039634 2.012224 0.000000 0.000000 0.000000
0.474753 -0.030033 2.089728 0.000000 0.000000 0.000000
0.525186 -0.022651 1.914021 0.000000 0.000000 0.000000
0.509973 -0.013832 1.890906 0.000000 0.000000 0.000000
0.448515 -0.017843 1.879085 0.000000 0.000000 0.000000
0.586413 -0.021001 1.895929 0.000000 0.000000 0.000000
0.441932 -0.024852 1.952541 0.000000 0.000000 0.000000
0.573716 -0.038831 1.966530 0.000000 0.000000 0.000000
0.449264 -0.016917 1.882403 0.000000 0.000000 0.000000
0.421099 -0.026142 1.910996 0.000000 0.000000 0.000000
0.423652 -0.018484 1.867274 0.000000 0.000000 0.000000
0.346626 -0.024465 1.923333 0.000000 0.000000 0.000000
0.426347 -0.020064 1.862384 0.000000 0.000000 0.000000
0.406825 -0.012884 1.845779 0.000000 0.000000 0.000000
0.331124 -0.025533 1.955335 0.000000 0.000000 0.000000
0.493321 -0.031359 2.104480 0.000000 0.000000 0.000000
0.440638 -0.009400 1.821919 0.000000 0.000000 0.000000
0.463152 -0.012733 1.835158 0.000000 0.000000 0.000000
0.449915 -0.007507 1.820567 0.000000 0.000000 0.000000
0.366154 -0.010064 1.843345 0.000000 0.000000 0.000000
0.509204 -0.032651 2.099020 0.000000 0.000000 0.000000
0.610175 -0.057622 2.034536 0.000000 0.000000 0.000000
0.337084 -0.023248 1.929283 0.000000 0.000000 0.000000
0.405359 -0.012500 1.833111 0.000000 0.000000 0.000000
0.542859 -0.033199 1.987754 0.000000 0.000000 0.000000
0.488072 -0.016122 1.934504 0.000000 0.000000 0.000000
0.468202 -0.009889 1.852584 0.000000 0.000000 0.000000
0.530870 -0.028229 1.963807 0.000000 0.000000 0.000000
0.396974 -0.030832 1.959122 0.000000 0.000000 0.000000
0.448990 -0.018091 1.863660 0.000000 0.000000 0.000000
0.378346 -0.024484 1.917087 0.000000 0.000000 0.000000
0.571622 -0.029326 1.924231 0.000000 0.000000 0.000000
0.571318 -0.020595 1.891994 0.000000 0.000000 0.000000
0.552692 -0.039970 2.057858 0.000000 0.000000 0.000000
0.347365 -0.020953 1.926917 0.000000 0.000000 0.000000
0.442610 -0.013748 1.846409 0.000000 0.000000 0.000000
0.433457 -0.009838 1.823679 0.000000 0.000000 0.000000
0.484148 -0.030723 2.105766 0.000000 0.000000 0.000000
0.471421 -0.009289 1.835208 0.000000 0.000000 0.000000
0.447316 -0.007153 1.820727 0.000000 0.000000 0.000000
0.314439 -0.021968 1.976978 0.000000 0.000000 0.000000
0.367934 -0.017305 1.878225 0.000000 0.000000 0.000000
0.336316 -0.036299 2.069563 0.000000 0.000000 0.000000
0.401269 -0.011646 1.845559 0.000000 0.000000 0.000000
0.385328 -0.009867 1.832587 0.000000 0.000000 0.000000
0.462001 -0.024191 1.997307 0.000000 0.000000 0.000000
0.359916 -0.037297 2.009503 0.000000 0.000000 0.000000
0.325477 -0.021312 1.948568 0.000000 0.000000 0.000000
0.556378 -0.032920 1.946232 0.000000 0.000000 0.000000
0.319164 -0.019553 1.951944 0.000000 0.000000 0.000000
0.317007 -0.017783 1.958890 0.000000 0.000000 0.000000
0.431182 -0.032749 2.092195 0.000000 0.000000 0.000000
0.389834 -0.020532 1.890724 0.000000 0.000000 0.000000
0.515995 -0.032809 2.094709 0.000000 0.000000 0.000000
0.336277 -0.027185 1.944574 0.000000 0.000000 0.000000
0.364166 -0.029329 1.932124 0.000000 0.000000 0.000000
0.361105 -0.014143 1.879544 0.000000 0.000000 0.000000
0.335422 -0.027230 1.968037 0.000000 0.000000 0.000000
0.440450 -0.015345 1.845436 0.000000 0.000000 0.000000
0.387273 -0.012470 1.849951 0.000000 0.000000 0.000000
0.474797 -0.032064 2.105977 0.000000 0.000000 0.000000
0.336592 -0.018157 1.909886 0.000000 0.000000 0.000000
0.314766 -0.018315 1.940715 0.000000 0.000000 0.000000
0.352436 -0.013056 1.867232 0.000000 0.000000 0.000000
0.348453 -0.013147 1.870698 0.000000 0.000000 0.000000
0.322666 -0.022067 1.969767 0.000000 0.000000 0.000000
0.360984 -0.012000 1.852105 0.000000 0.000000 0.000000
0.345700 -0.029483 1.947964 0.000000 0.000000 0.000000
0.327359 -0.021602 1.953940 0.000000 0.000000 0.000000
0.317056 -0.014168 1.916413 0.000000 0.000000 0.000000
0.322092 -0.015717 1.932330 0.000000 0.000000 0.000000
0.336706 -0.021216 1.933418 0.000000 0.000000 0.000000
0.328395 -0.018645 1.928464 0.000000 0.000000 0.000000
0.399503 -0.037638 2.083011 0.000000 0.000000 0.000000
0.322184 -0.019418 1.942162 0.000000 0.000000 0.000000
0.554071 -0.017254 1.866876 0.000000 0.000000 0.000000
0.427872 -0.038804 2.103509 0.000000 0.000000 0.000000
0.354181 -0.035804 1.992806 0.000000 0.000000 0.000000
0.394252 -0.035762 1.997043 0.000000 0.000000 0.000000
0.347555 -0.025245 1.931993 0.000000 0.000000 0.000000
0.322657 -0.016642 1.916569 0.000000 0.000000 0.000000
0.335927 -0.020900 1.925305 0.000000 0.000000 0.000000
0.318232 -0.015800 1.924909 0.000000 0.000000 0.000000
0.323646 -0.020812 1.952405 0.000000 0.000000 0.000000
0.447337 -0.020920 1.923292 0.000000 0.000000 0.000000
0.421343 -0.027598 1.951506 0.000000 0.000000 0.000000
0.317606 -0.015450 1.920598 0.000000 0.000000 0.000000
0.307175 -0.014260 1.933381 0.000000 0.000000 0.000000
0.350465 -0.041546 2.052279 0.000000 0.000000 0.000000
0.327543 -0.013214 1.891914 0.000000 0.000000 0.000000
0.313456 -0.019160 1.943857 0.000000 0.000000 0.000000
0.353413 -0.011507 1.858124 0.000000 0.000000 0.000000
0.393350 -0.017701 1.884038 0.000000 0.000000 0.000000
0.462040 -0.005289 1.811542 0.000000 0.000000 0.000000
0.359926 -0.021235 1.885304 0.000000 0.000000 0.000000
0.367354 -0.012695 1.856082 0.000000 0.000000 0.000000
0.438996 -0.011289 1.834027 0.000000 0.000000 0.000000
0.313289 -0.031561 2.040108 0.000000 0.000000 0.000000
0.469506 -0.005892 1.803595 0.000000 0.000000 0.000000
0.351127 -0.013737 1.872812 0.000000 0.000000 0.000000
0.370610 -0.020051 1.888766 0.000000 0.000000 0.000000
0.428001 -0.011546 1.815384 0.000000 0.000000 0.000000
0.614916 -0.058435 2.025821 0.000000 0.000000 0.000000
0.357002 -0.025168 1.911487 0.000000 0.000000 0.000000
0.311085 -0.026128 2.010686 0.000000 0.000000 0.000000
0.312569 -0.013180 1.920026 0.000000 0.000000 0.000000
0.328009 -0.014338 1.895912 0.000000 0.000000 0.000000
0.325618 -0.015179 1.905830 0.000000 0.000000 0.000000
0.571140 -0.030459 1.917619 0.000000 0.000000 0.000000
0.338765 -0.014475 1.882383 0.000000 0.000000 0.000000
0.338884 -0.018102 1.901020 0.000000 0.000000 0.000000
0.364622 -0.024351 1.896784 0.000000 0.000000 0.000000
0.587790 -0.055475 2.061456 0.000000 0.000000 0.000000
0.554730 -0.019276 1.890737 0.000000 0.000000 0.000000
0.593152 -0.032002 1.920508 0.000000 0.000000 0.000000
0.331366 -0.017323 1.903108 0.000000 0.000000 0.000000
0.340377 -0.022167 1.917188 0.000000 0.000000 0.000000
0.341845 -0.013038 1.901476 0.000000 0.000000 0.000000
0.604219 -0.032314 1.976705 0.000000 0.000000 0.000000
0.611643 -0.042822 1.945075 0.000000 0.000000 0.000000
0.627082 -0.048655 1.968857 0.000000 0.000000 0.000000
0.614030 -0.046115 1.959288 0.000000 0.000000 0.000000
0.480298 -0.008032 1.854226 0.000000 0.000000 0.000000
0.343502 -0.015708 1.889564 0.000000 0.000000 0.000000
0.631579 -0.049453 1.983120 0.000000 0.000000 0.000000
0.448855 -0.009721 1.805263 0.000000 0.000000 0.000000
0.604066 -0.048546 1.994573 0.000000 0.000000 0.000000
0.516240 -0.011042 1.858725 0.000000 0.000000 0.000000
0.545441 -0.014857 1.847420 0.000000 0.000000 0.000000
0.624405 -0.057640 2.020806 0.000000 0.000000 0.000000
0.347955 -0.015752 1.887079 0.000000 0.000000 0.000000
0.352075 -0.015791 1.882743 0.000000 0.000000 0.000000
0.618529 -0.046950 1.970765 0.000000 0.000000 0.000000
0.485597 -0.007475 1.858006 0.000000 0.000000 0.000000
0.619787 -0.049106 1.985453 0.000000 0.000000 0.000000
0.343005 -0.013056 1.874987 0.000000 0.000000 0.000000
0.614786 -0.050195 1.976502 0.000000 0.000000 0.000000
0.610210 -0.050354 2.004590 0.000000 0.000000 0.000000
0.632021 -0.044199 1.961813 0.000000 0.000000 0.000000
0.470129 -0.013238 1.897445 0.000000 0.000000 0.000000
0.380107 -0.013326 1.864693 0.000000 0.000000 0.000000
0.553041 -0.017949 1.877286 0.000000 0.000000 0.000000
0.382961 -0.028623 1.918751 0.000000 0.000000 0.000000
0.577699 -0.011860 1.885487 0.000000 0.000000 0.000000
0.343993 -0.015836 1.893184 0.000000 0.000000 0.000000
0.354486 -0.018158 1.889490 0.000000 0.000000 0.000000
0.302068 -0.025269 1.999277 0.000000 0.000000 0.000000
0.335371 -0.039044 2.033110 0.000000 0.000000 0.000000
0.489057 -0.005611 1.819745 0.000000 0.000000 0.000000
0.321224 -0.034700 2.046351 0.000000 0.000000 0.000000
0.489513 -0.019513 1.970577 0.000000 0.000000 0.000000
0.337097 -0.040748 2.016182 0.000000 0.000000 0.000000
0.495645 -0.024359 1.999324 0.000000 0.000000 0.000000
0.315617 -0.032493 2.025232 0.000000 0.000000 0.000000
0.332787 -0.017018 1.902843 0.000000 0.000000 0.000000
0.333074 -0.035764 2.009254 0.000000 0.000000 0.000000
0.489480 -0.005127 1.829068 0.000000 0.000000 0.000000
0.310718 -0.022699 1.963649 0.000000 0.000000 0.000000
0.305543 -0.019038 1.960083 0.000000 0.000000 0.000000
0.412247 -0.038696 2.077261 0.000000 0.000000 0.000000
0.392747 -0.039881 2.065573 0.000000 0.000000 0.000000
0.390590 -0.037864 2.100950 0.000000 0.000000 0.000000
0.623316 -0.047023 1.982574 0.000000 0.000000 0.000000
0.340502 -0.021056 1.916398 0.000000 0.000000 0.000000
0.312508 -0.028141 2.004068 0.000000 0.000000 0.000000
0.392479 -0.040771 2.065065 0.000000 0.000000 0.000000
0.370073 -0.039230 2.091736 0.000000 0.000000 0.000000
0.438359 -0.036052 2.107932 0.000000 0.000000 0.000000
0.328859 -0.017657 1.910394 0.000000 0.000000 0.000000
0.324153 -0.015710 1.912926 0.000000 0.000000 0.000000
0.315385 -0.032667 2.039793 0.000000 0.000000 0.000000
0.397938 -0.008475 1.822189 0.000000 0.000000 0.000000
0.373325 -0.016317 1.847877 0.000000 0.000000 0.000000
0.362873 -0.013811 1.860584 0.000000 0.000000 0.000000
0.395697 -0.009287 1.831855 0.000000 0.000000 0.000000
0.353706 -0.013573 1.863636 0.000000 0.000000 0.000000
0.368144 -0.014265 1.850101 0.000000 0.000000 0.000000
0.401248 -0.037464 2.098314 0.000000 0.000000 0.000000
0.377187 -0.017321 1.854003 0.000000 0.000000 0.000000
0.398779 -0.012446 1.828384 0.000000 0.000000 0.000000
0.364674 -0.010581 1.848609 0.000000 0.000000 0.000000
0.341870 -0.011576 1.866529 0.000000 0.000000 0.000000
0.328638 -0.016158 1.924157 0.000000 0.000000 0.000000
0.307376 -0.015895 1.936470 0.000000 0.000000 0.000000
0.322638 -0.034333 2.029718 0.000000 0.000000 0.000000
0.341734 -0.027646 1.956544 0.000000 0.000000 0.000000
0.314489 -0.030507 2.010326 0.000000 0.000000 0.000000
0.340248 -0.039067 2.082242 0.000000 0.000000 0.000000
0.364172 -0.036067 1.979508 0.000000 0.000000 0.000000
0.337470 -0.035322 2.041884 0.000000 0.000000 0.000000
0.338167 -0.037484 2.059481 0.000000 0.000000 0.000000
0.431703 -0.037039 2.108537 0.000000 0.000000 0.000000
0.635340 -0.048656 1.970470 0.000000 0.000000 0.000000
0.472589 -0.018316 1.939830 0.000000 0.000000 0.000000
0.571934 -0.049457 2.084340 0.000000 0.000000 0.000000
0.500357 -0.007709 1.818872 0.000000 0.000000 0.000000
0.386857 -0.025148 1.894834 0.000000 0.000000 0.000000
0.424356 -0.032981 2.104084 0.000000 0.000000 0.000000
0.368680 -0.011750 1.843783 0.000000 0.000000 0.000000
0.312693 -0.017556 1.948361 0.000000 0.000000 0.000000
0.478463 -0.002380 1.802395 0.000000 0.000000 0.000000
0.453245 -0.007016 1.816307 0.000000 0.000000 0.000000
0.318678 -0.030340 2.025914 0.000000 0.000000 0.000000
0.345257 -0.021380 1.909495 0.000000 0.000000 0.000000
0.374351 -0.030909 1.931303 0.000000 0.000000 0.000000
0.318208 -0.017474 1.931993 0.000000 0.000000 0.000000
0.457899 -0.030120 2.081959 0.000000 0.000000 0.000000
0.478293 -0.032921 2.113692 0.000000 0.000000 0.000000
0.597781 -0.055925 2.032438 0.000000 0.000000 0.000000
0.470603 -0.010031 1.801438 0.000000 0.000000 0.000000
0.608111 -0.057948 2.033679 0.000000 0.000000 0.000000
0.464638 -0.033128 2.106188 0.000000 0.000000 0.000000
0.601196 -0.053434 2.026836 0.000000 0.000000 0.000000
0.470676 -0.030203 2.108854 0.000000 0.000000 0.000000
0.360479 -0.037723 2.089648 0.000000 0.000000 0.000000
0.597837 -0.055402 2.043508 0.000000 0.000000 0.000000
0.328869 -0.034470 2.046820 0.000000 0.000000 0.000000
0.465381 -0.034902 2.110415 0.000000 0.000000 0.000000
0.468868 -0.034437 2.109797 0.000000 0.000000 0.000000
0.304637 -0.020715 1.988003 0.000000 0.000000 0.000000
0.617184 -0.056091 2.008541 0.000000 0.000000 0.000000
0.492872 -0.029583 2.088014 0.000000 0.000000 0.000000
0.305560 -0.014952 1.937583 0.000000 0.000000 0.000000
0.469751 -0.034089 2.112283 0.000000 0.000000 0.000000
0.610103 -0.059182 2.037866 0.000000 0.000000 0.000000
0.612481 -0.049945 2.010849 0.000000 0.000000 0.000000
0.422988 -0.037261 2.100565 0.000000 0.000000 0.000000
0.365687 -0.013145 1.851419 0.000000 0.000000 0.000000
0.438949 -0.036504 2.110695 0.000000 0.000000 0.000000
0.623226 -0.053089 1.988673 0.000000 0.000000 0.000000
0.299558 -0.018770 1.969150 0.000000 0.000000 0.000000
0.631265 -0.055322 1.997223 0.000000 0.000000 0.000000
0.450335 -0.034744 2.106902 0.000000 0.000000 0.000000
0.373829 -0.012636 1.850668 0.000000 0.000000 0.000000
0.448003 -0.036097 2.107863 0.000000 0.000000 0.000000
0.632843 -0.055532 2.001363 0.000000 0.000000 0.000000
0.601913 -0.057529 2.042638 0.000000 0.000000 0.000000
0.333912 -0.036414 2.032676 0.000000 0.000000 0.000000
0.335505 -0.010922 1.870162 0.000000 0.000000 0.000000
0.339965 -0.038664 2.026544 0.000000 0.000000 0.000000
0.346841 -0.036705 2.006486 0.000000 0.000000 0.000000
0.346987 -0.038647 2.033624 0.000000 0.000000 0.000000
0.326337 -0.035419 2.031298 0.000000 0.000000 0.000000
0.434319 -0.034950 2.071410 0.000000 0.000000 0.000000
0.627741 -0.043466 1.953440 0.000000 0.000000 0.000000
0.348780 -0.038441 2.058587 0.000000 0.000000 0.000000
0.330361 -0.036084 2.062981 0.000000 0.000000 0.000000
0.400834 -0.039554 2.096855 0.000000 0.000000 0.000000
0.314982 -0.015074 1.928359 0.000000 0.000000 0.000000
0.316084 -0.012514 1.903077 0.000000 0.000000 0.000000
0.602859 -0.057972 2.044557 0.000000 0.000000 0.000000
0.586840 -0.052442 2.050199 0.000000 0.000000 0.000000
0.364201 -0.035671 1.946566 0.000000 0.000000 0.000000
0.585641 -0.052381 2.055730 0.000000 0.000000 0.000000
0.351057 -0.012302 1.862361 0.000000 0.000000 0.000000
0.325163 -0.015586 1.916180 0.000000 0.000000 0.000000
0.347312 -0.015162 1.882702 0.000000 0.000000 0.000000
0.414484 -0.007694 1.832904 0.000000 0.000000 0.000000
0.621654 -0.043944 1.952089 0.000000 0.000000 0.000000
0.317504 -0.032327 2.043739 0.000000 0.000000 0.000000
0.317317 -0.033035 2.026884 0.000000 0.000000 0.000000
0.310311 -0.015320 1.931961 0.000000 0.000000 0.000000
0.627178 -0.052941 1.990862 0.000000 0.000000 0.000000
0.310453 -0.030339 2.032358 0.000000 0.000000 0.000000
0.404492 -0.010054 1.833126 0.000000 0.000000 0.000000
0.609234 -0.054928 2.033737 0.000000 0.000000 0.000000
0.451378 -0.009525 1.827664 0.000000 0.000000 0.000000
0.616456 -0.053621 1.991701 0.000000 0.000000 0.000000
0.334273 -0.036725 2.027094 0.000000 0.000000 0.000000
0.420042 -0.008721 1.822875 0.000000 0.000000 0.000000
0.398547 -0.016765 1.861680 0.000000 0.000000 0.000000
0.475156 -0.017716 1.942609 0.000000 0.000000 0.000000
0.609140 -0.055457 2.019590 0.000000 0.000000 0.000000
0.344769 -0.036323 2.056745 0.000000 0.000000 0.000000
0.481059 -0.005876 1.797711 0.000000 0.000000 0.000000
0.620933 -0.046677 1.959494 0.000000 0.000000 0.000000
0.612584 -0.054881 2.007971 0.000000 0.000000 0.000000
0.628679 -0.051355 1.993414 0.000000 0.000000 0.000000
0.449076 -0.018008 1.893452 0.000000 0.000000 0.000000
0.474070 -0.012450 1.876378 0.000000 0.000000 0.000000
0.451239 -0.019328 1.918029 0.000000 0.000000 0.000000
0.407178 -0.008963 1.835518 0.000000 0.000000 0.000000
0.452890 -0.016245 1.871277 0.000000 0.000000 0.000000
0.477081 -0.006903 1.809305 0.000000 0.000000 0.000000
0.489081 -0.001864 1.784061 0.000000 0.000000 0.000000
0.602156 -0.053036 2.006348 0.000000 0.000000 0.000000
0.626533 -0.052205 1.998901 0.000000 0.000000 0.000000
0.492095 -0.012132 1.795523 0.000000 0.000000 0.000000
0.431350 -0.011723 1.812435 0.000000 0.000000 0.000000
0.606510 -0.050999 2.002975 0.000000 0.000000 0.000000
0.623745 -0.050219 1.976652 0.000000 0.000000 0.000000
0.428279 -0.028087 1.963797 0.000000 0.000000 0.000000
0.445135 -0.022345 1.958042 0.000000 0.000000 0.000000
0.447323 -0.021147 1.921428 0.000000 0.000000 0.000000
0.400370 -0.011943 1.840620 0.000000 0.000000 0.000000
0.445303 -0.021285 1.939663 0.000000 0.000000 0.000000
0.483158 -0.001940 1.799138 0.000000 0.000000 0.000000
0.466730 -0.023020 2.001101 0.000000 0.000000 0.000000
0.616046 -0.047243 1.993745 0.000000 0.000000 0.000000
0.420222 -0.012718 1.837446 0.000000 0.000000 0.000000
0.462912 -0.012397 1.816512 0.000000 0.000000 0.000000
0.407662 -0.038616 2.091801 0.000000 0.000000 0.000000
0.416683 -0.032907 2.097213 0.000000 0.000000 0.000000
0.426080 -0.036800 2.109800 0.000000 0.000000 0.000000
0.425877 -0.012243 1.842942 0.000000 0.000000 0.000000
0.445986 -0.034929 2.109174 0.000000 0.000000 0.000000
0.404498 -0.037409 2.105021 0.000000 0.000000 0.000000
0.435862 -0.034294 2.103495 0.000000 0.000000 0.000000
0.316371 -0.032266 2.016710 0.000000 0.000000 0.000000
0.617746 -0.057590 2.023757 0.000000 0.000000 0.000000
0.414960 -0.009765 1.826954 0.000000 0.000000 0.000000
0.454506 -0.022627 1.963758 0.000000 0.000000 0.000000
0.442814 -0.012428 1.806830 0.000000 0.000000 0.000000
0.390146 -0.037499 2.096114 0.000000 0.000000 0.000000
0.599005 -0.054596 2.013471 0.000000 0.000000 0.000000
0.376483 -0.040281 2.071498 0.000000 0.000000 0.000000
0.390732 -0.040234 2.101591 0.000000 0.000000 0.000000
0.432986 -0.010592 1.818984 0.000000 0.000000 0.000000
0.598482 -0.058432 2.050264 0.000000 0.000000 0.000000
0.313803 -0.031224 2.026154 0.000000 0.000000 0.000000
0.336999 -0.012410 1.877919 0.000000 0.000000 0.000000
0.599991 -0.055728 2.033174 0.000000 0.000000 0.000000
0.335565 -0.015490 1.896587 0.000000 0.000000 0.000000
0.603516 -0.059245 2.044562 0.000000 0.000000 0.000000
0.585598 -0.053487 2.062679 0.000000 0.000000 0.000000
0.601385 -0.056429 2.036139 0.000000 0.000000 0.000000
0.589664 -0.052536 2.035435 0.000000 0.000000 0.000000
0.611579 -0.052022 2.026255 0.000000 0.000000 0.000000
0.593368 -0.053795 2.049709 0.000000 0.000000 0.000000
0.594135 -0.052423 2.038156 0.000000 0.000000 0.000000
0.391570 -0.038849 2.091789 0.000000 0.000000 0.000000
0.383198 -0.040734 2.097779 0.000000 0.000000 0.000000
0.608495 -0.058370 2.043912 0.000000 0.000000 0.000000
0.315816 -0.032883 2.036256 0.000000 0.000000 0.000000
0.578098 -0.046824 2.039314 0.000000 0.000000 0.000000
0.334301 -0.014963 1.902041 0.000000 0.000000 0.000000
0.606703 -0.056209 2.034709 0.000000 0.000000 0.000000
0.592765 -0.053981 2.042274 0.000000 0.000000 0.000000
0.453368 -0.026027 1.980672 0.000000 0.000000 0.000000
0.604484 -0.055764 2.042262 0.000000 0.000000 0.000000
0.595244 -0.056987 2.056867 0.000000 0.000000 0.000000
0.335006 -0.014377 1.882070 0.000000 0.000000 0.000000
0.343300 -0.037986 2.077199 0.000000 0.000000 0.000000
0.353910 -0.039790 2.077717 0.000000 0.000000 0.000000
0.581493 -0.050846 2.050847 0.000000 0.000000 0.000000
0.299068 -0.020145 1.982724 0.000000 0.000000 0.000000
0.299326 -0.021369 1.980044 0.000000 0.000000 0.000000
0.567834 -0.047208 2.094026 0.000000 0.000000 0.000000
0.613201 -0.058588 2.026000 0.000000 0.000000 0.000000
0.590783 -0.054711 2.054838 0.000000 0.000000 0.000000
0.585430 -0.055407 2.066614 0.000000 0.000000 0.000000
0.487768 -0.034877 2.117444 0.000000 0.000000 0.000000
0.584142 -0.053715 2.069513 0.000000 0.000000 0.000000
0.615710 -0.050128 2.007017 0.000000 0.000000 0.000000
0.308639 -0.013344 1.924853 0.000000 0.000000 0.000000
0.388389 -0.012485 1.836703 0.000000 0.000000 0.000000
0.331725 -0.035899 2.062396 0.000000 0.000000 0.000000
0.429983 -0.037515 2.105927 0.000000 0.000000 0.000000
0.589835 -0.055791 2.059259 0.000000 0.000000 0.000000
0.529472 -0.034798 2.089657 0.000000 0.000000 0.000000
0.581790 -0.052876 2.066809 0.000000 0.000000 0.000000
0.477780 -0.032944 2.108065 0.000000 0.000000 0.000000
0.326435 -0.038326 2.040457 0.000000 0.000000 0.000000
0.604027 -0.057944 2.048382 0.000000 0.000000 0.000000
0.391035 -0.010555 1.841518 0.000000 0.000000 0.000000
0.312292 -0.034822 2.046851 0.000000 0.000000 0.000000
0.336537 -0.036163 2.057857 0.000000 0.000000 0.000000
0.330033 -0.013711 1.889266 0.000000 0.000000 0.000000
0.324315 -0.036250 2.037064 0.000000 0.000000 0.000000
0.403736 -0.010307 1.825952 0.000000 0.000000 0.000000
0.536902 -0.015033 1.832194 0.000000 0.000000 0.000000
0.551611 -0.040781 2.095780 0.000000 0.000000 0.000000
0.566828 -0.046897 2.079225 0.000000 0.000000 0.000000
0.559047 -0.043498 2.090582 0.000000 0.000000 0.000000
0.555951 -0.040270 2.099173 0.000000 0.000000 0.000000
0.635637 -0.053869 1.994828 0.000000 0.000000 0.000000
0.305201 -0.017788 1.965531 0.000000 0.000000 0.000000
0.614870 -0.059154 2.037254 0.000000 0.000000 0.000000
0.336582 -0.038219 2.053966 0.000000 0.000000 0.000000
0.500875 -0.006697 1.827780 0.000000 0.000000 0.000000
0.559069 -0.014592 1.847756 0.000000 0.000000 0.000000
0.403559 -0.019014 1.871709 0.000000 0.000000 0.000000
0.311134 -0.030235 2.016452 0.000000 0.000000 0.000000
0.626957 -0.056293 2.012122 0.000000 0.000000 0.000000
0.523846 -0.011898 1.840590 0.000000 0.000000 0.000000
0.442239 -0.008431 1.838197 0.000000 0.000000 0.000000
0.360569 -0.032683 2.073524 0.000000 0.000000 0.000000
0.311482 -0.014921 1.926973 0.000000 0.000000 0.000000
0.301585 -0.019218 1.962365 0.000000 0.000000 0.000000
0.327694 -0.014232 1.912167 0.000000 0.000000 0.000000
0.557229 -0.045175 2.098732 0.000000 0.000000 0.000000
0.322729 -0.015385 1.923934 0.000000 0.000000 0.000000
0.563478 -0.044289 2.097288 0.000000 0.000000 0.000000
0.426016 -0.013976 1.849780 0.000000 0.000000 0.000000
0.600846 -0.049910 2.025910 0.000000 0.000000 0.000000
0.590595 -0.053078 2.041142 0.000000 0.000000 0.000000
0.409786 -0.018304 1.868549 0.000000 0.000000 0.000000
0.300900 -0.023747 1.993539 0.000000 0.000000 0.000000
0.363078 -0.012800 1.853282 0.000000 0.000000 0.000000
0.395488 -0.034919 2.092249 0.000000 0.000000 0.000000
0.406383 -0.038077 2.106498 0.000000 0.000000 0.000000
0.424073 -0.040410 2.106628 0.000000 0.000000 0.000000
0.331483 -0.012980 1.885197 0.000000 0.000000 0.000000
0.320965 -0.014888 1.921480 0.000000 0.000000 0.000000
0.545775 -0.030912 1.821696 0.000000 0.000000 0.000000
0.528421 -0.032591 2.091807 0.000000 0.000000 0.000000
0.356841 -0.036136 2.083080 0.000000 0.000000 0.000000
0.492871 -0.034124 2.114897 0.000000 0.000000 0.000000
0.611880 -0.060000 2.040141 0.000000 0.000000 0.000000
0.520085 -0.034891 2.107139 0.000000 0.000000 0.000000
0.507393 -0.033406 2.108406 0.000000 0.000000 0.000000
0.374597 -0.026756 1.916281 0.000000 0.000000 0.000000
0.506218 -0.011862 1.823933 0.000000 0.000000 0.000000
0.588167 -0.052930 2.061835 0.000000 0.000000 0.000000
0.355866 -0.037986 2.081327 0.000000 0.000000 0.000000
0.358074 -0.039230 2.082065 0.000000 0.000000 0.000000
0.537269 -0.016925 1.824845 0.000000 0.000000 0.000000
0.355611 -0.038039 2.086767 0.000000 0.000000 0.000000
0.360420 -0.037248 2.085624 0.000000 0.000000 0.000000
0.513474 -0.032407 2.111291 0.000000 0.000000 0.000000
0.517317 -0.033028 2.103283 0.000000 0.000000 0.000000
0.612796 -0.058045 2.040250 0.000000 0.000000 0.000000
0.520313 -0.033401 2.093133 0.000000 0.000000 0.000000
0.368850 -0.025459 1.911522 0.000000 0.000000 0.000000
0.495290 -0.005694 1.807163 0.000000 0.000000 0.000000
0.336321 -0.012635 1.876753 0.000000 0.000000 0.000000
0.317768 -0.012501 1.909021 0.000000 0.000000 0.000000
0.293096 -0.021552 1.989594 0.000000 0.000000 0.000000
0.347702 -0.013485 1.869046 0.000000 0.000000 0.000000
0.314819 -0.031967 2.035304 0.000000 0.000000 0.000000
0.606325 -0.058530 2.044826 0.000000 0.000000 0.000000
0.561738 -0.044352 2.097751 0.000000 0.000000 0.000000
0.346112 -0.034382 2.065836 0.000000 0.000000 0.000000
0.590212 -0.054465 2.064454 0.000000 0.000000 0.000000
0.325278 -0.034658 2.049377 0.000000 0.000000 0.000000
0.319557 -0.033985 2.040556 0.000000 0.000000 0.000000
0.311570 -0.029471 2.029694 0.000000 0.000000 0.000000
0.298071 -0.017591 1.962393 0.000000 0.000000 0.000000
0.343020 -0.013792 1.879288 0.000000 0.000000 0.000000
0.448664 -0.026518 2.007842 0.000000 0.000000 0.000000
0.307052 -0.021898 1.990646 0.000000 0.000000 0.000000
0.300936 -0.022917 1.989264 0.000000 0.000000 0.000000
0.312382 -0.031612 2.032428 0.000000 0.000000 0.000000
0.303060 -0.019825 1.966005 0.000000 0.000000 0.000000
0.305050 -0.023095 1.985785 0.000000 0.000000 0.000000
0.303001 -0.025444 2.000746 0.000000 0.000000 0.000000
0.314137 -0.023002 1.973397 0.000000 0.000000 0.000000
0.299887 -0.021743 1.989945 0.000000 0.000000 0.000000
0.308707 -0.022177 1.981050 0.000000 0.000000 0.000000
0.315586 -0.025995 1.986936 0.000000 0.000000 0.000000
0.298552 -0.022762 1.988813 0.000000 0.000000 0.000000
0.300573 -0.018387 1.962157 0.000000 0.000000 0.000000
0.297726 -0.019974 1.978576 0.000000 0.000000 0.000000
0.308884 -0.018579 1.955354 0.000000 0.000000 0.000000
0.305934 -0.022769 1.980210 0.000000 0.000000 0.000000
0.306346 -0.026485 1.993767 0.000000 0.000000 0.000000
0.300522 -0.018476 1.962296 0.000000 0.000000 0.000000
0.414768 -0.008886 1.813004 0.000000 0.000000 0.000000
0.460934 -0.016975 1.900163 0.000000 0.000000 0.000000
0.303647 -0.025254 1.998907 0.000000 0.000000 0.000000
0.510327 -0.009057 1.820137 0.000000 0.000000 0.000000
0.311316 -0.018524 1.967656 0.000000 0.000000 0.000000
0.312779 -0.020469 1.962448 0.000000 0.000000 0.000000
0.309042 -0.020854 1.977818 0.000000 0.000000 0.000000
0.308727 -0.023141 1.987528 0.000000 0.000000 0.000000
0.304025 -0.021373 1.976281 0.000000 0.000000 0.000000
0.412543 -0.009695 1.820613 0.000000 0.000000 0.000000
0.298958 -0.019976 1.974191 0.000000 0.000000 0.000000
0.299224 -0.018928 1.964153 0.000000 0.000000 0.000000
0.300383 -0.017496 1.957451 0.000000 0.000000 0.000000
0.295056 -0.018225 1.968015 0.000000 0.000000 0.000000
0.297995 -0.021148 1.983506 0.000000 0.000000 0.000000
0.300562 -0.020211 1.973377 0.000000 0.000000 0.000000
0.304227 -0.019979 1.964061 0.000000 0.000000 0.000000
0.308126 -0.023978 1.980238 0.000000 0.000000 0.000000
0.438001 -0.008113 1.816370 0.000000 0.000000 0.000000
0.298447 -0.020426 1.976575 0.000000 0.000000 0.000000
0.503511 -0.009841 1.807993 0.000000 0.000000 0.000000
0.395988 -0.009464 1.829443 0.000000 0.000000 0.000000
0.482687 -0.034647 2.114793 0.000000 0.000000 0.000000
0.354323 -0.013111 1.858277 0.000000 0.000000 0.000000
0.341588 -0.037519 2.075644 0.000000 0.000000 0.000000
0.492709 -0.033266 2.111074 0.000000 0.000000 0.000000
0.394822 -0.028791 1.906668 0.000000 0.000000 0.000000
0.485867 -0.034282 2.116708 0.000000 0.000000 0.000000
0.383979 -0.009379 1.832672 0.000000 0.000000 0.000000
0.485204 -0.033153 2.105243 0.000000 0.000000 0.000000
0.343742 -0.014095 1.884446 0.000000 0.000000 0.000000
0.370367 -0.013353 1.860550 0.000000 0.000000 0.000000
0.379375 -0.027061 1.892591 0.000000 0.000000 0.000000
0.353145 -0.018959 1.884300 0.000000 0.000000 0.000000
0.483013 -0.033048 2.112568 0.000000 0.000000 0.000000
0.533322 -0.031947 2.098155 0.000000 0.000000 0.000000
0.379422 -0.014929 1.862924 0.000000 0.000000 0.000000
0.565504 -0.045426 2.095354 0.000000 0.000000 0.000000
0.303828 -0.021255 1.985522 0.000000 0.000000 0.000000
0.552436 -0.040628 2.082793 0.000000 0.000000 0.000000
0.517682 -0.032439 2.117027 0.000000 0.000000 0.000000
0.565116 -0.043771 2.089429 0.000000 0.000000 0.000000
0.568388 -0.045213 2.056402 0.000000 0.000000 0.000000
0.303361 -0.020070 1.977973 0.000000 0.000000 0.000000
0.568849 -0.047895 2.083152 0.000000 0.000000 0.000000
0.352795 -0.012508 1.861567 0.000000 0.000000 0.000000
0.292807 -0.023211 1.989839 0.000000 0.000000 0.000000
0.543758 -0.035883 2.016868 0.000000 0.000000 0.000000
0.531813 -0.028862 1.974462 0.000000 0.000000 0.000000
0.554977 -0.035954 1.985151 0.000000 0.000000 0.000000
0.583205 -0.051606 2.067641 0.000000 0.000000 0.000000
0.557959 -0.042420 2.091559 0.000000 0.000000 0.000000
0.545744 -0.032373 1.960855 0.000000 0.000000 0.000000
0.539350 -0.032552 1.999445 0.000000 0.000000 0.000000
0.566039 -0.041381 2.011004 0.000000 0.000000 0.000000
0.563813 -0.043704 2.062747 0.000000 0.000000 0.000000
0.568089 -0.049485 2.080752 0.000000 0.000000 0.000000
0.565722 -0.045760 2.087930 0.000000 0.000000 0.000000
0.574899 -0.049724 2.082846 0.000000 0.000000 0.000000
0.568390 -0.047499 2.085759 0.000000 0.000000 0.000000
0.304687 -0.020071 1.963602 0.000000 0.000000 0.000000
0.549838 -0.039976 2.100815 0.000000 0.000000 0.000000
0.300562 -0.024242 1.993748 0.000000 0.000000 0.000000
0.543888 -0.037718 2.105519 0.000000 0.000000 0.000000
0.546386 -0.037866 2.070857 0.000000 0.000000 0.000000
0.559647 -0.042982 2.099559 0.000000 0.000000 0.000000
0.481500 -0.031768 2.107612 0.000000 0.000000 0.000000
0.308818 -0.023114 1.985900 0.000000 0.000000 0.000000
0.557035 -0.042242 2.095261 0.000000 0.000000 0.000000
0.542566 -0.037900 2.110270 0.000000 0.000000 0.000000
0.297667 -0.019135 1.959186 0.000000 0.000000 0.000000
0.532916 -0.013249 1.838486 0.000000 0.000000 0.000000
0.378442 -0.012135 1.848421 0.000000 0.000000 0.000000
0.299950 -0.019302 1.969441 0.000000 0.000000 0.000000
0.518634 -0.014369 1.818735 0.000000 0.000000 0.000000
0.524526 -0.014175 1.827205 0.000000 0.000000 0.000000
0.554852 -0.040916 2.102732 0.000000 0.000000 0.000000
0.517401 -0.013982 1.831721 0.000000 0.000000 0.000000
0.359654 -0.013648 1.855721 0.000000 0.000000 0.000000
0.541808 -0.012506 1.836556 0.000000 0.000000 0.000000
0.299686 -0.018484 1.961673 0.000000 0.000000 0.000000
0.510880 -0.010414 1.825343 0.000000 0.000000 0.000000
0.546264 -0.038564 2.098435 0.000000 0.000000 0.000000
0.481701 -0.010445 1.854742 0.000000 0.000000 0.000000
0.493074 -0.009940 1.882852 0.000000 0.000000 0.000000
0.379009 -0.009035 1.832767 0.000000 0.000000 0.000000
0.597550 -0.056711 2.052495 0.000000 0.000000 0.000000
0.494809 -0.033598 2.112097 0.000000 0.000000 0.000000
0.495921 -0.034661 2.116490 0.000000 0.000000 0.000000
0.431182 -0.009461 1.808628 0.000000 0.000000 0.000000
0.457217 -0.006245 1.801091 0.000000 0.000000 0.000000
0.497874 -0.030761 2.086456 0.000000 0.000000 0.000000
0.429257 -0.010083 1.808572 0.000000 0.000000 0.000000
0.434838 -0.010859 1.811519 0.000000 0.000000 0.000000
0.455179 -0.008853 1.800491 0.000000 0.000000 0.000000
0.463220 -0.006334 1.797780 0.000000 0.000000 0.000000
0.480412 -0.033118 2.110352 0.000000 0.000000 0.000000
0.320187 -0.014868 1.914932 0.000000 0.000000 0.000000
0.372384 -0.011351 1.842273 0.000000 0.000000 0.000000
0.595394 -0.057788 2.061134 0.000000 0.000000 0.000000
0.390812 -0.016232 1.842948 0.000000 0.000000 0.000000
0.416667 -0.012637 1.813640 0.000000 0.000000 0.000000
0.477289 -0.006073 1.847612 0.000000 0.000000 0.000000
0.585925 -0.056318 2.073861 0.000000 0.000000 0.000000
0.351643 -0.038002 2.083011 0.000000 0.000000 0.000000
0.481083 0.002641 1.804564 0.000000 0.000000 0.000000
0.476006 -0.011698 1.878852 0.000000 0.000000 0.000000
0.578487 -0.053385 2.074820 0.000000 0.000000 0.000000
0.350032 -0.040088 2.082026 0.000000 0.000000 0.000000
0.468595 -0.018711 1.986269 0.000000 0.000000 0.000000
0.440053 -0.010818 1.812729 0.000000 0.000000 0.000000
0.372549 -0.038342 2.083972 0.000000 0.000000 0.000000
0.499252 -0.020988 1.969344 0.000000 0.000000 0.000000
0.547428 -0.022986 1.903695 0.000000 0.000000 0.000000
0.448803 -0.037603 2.080023 0.000000 0.000000 0.000000
0.312897 -0.030644 2.030542 0.000000 0.000000 0.000000
0.296338 -0.021893 2.006695 0.000000 0.000000 0.000000
0.564361 -0.042462 2.103222 0.000000 0.000000 0.000000
0.506416 -0.019768 1.956556 0.000000 0.000000 0.000000
0.552293 -0.025704 1.914511 0.000000 0.000000 0.000000
0.432016 -0.037709 2.054995 0.000000 0.000000 0.000000
0.324264 -0.034924 2.032545 0.000000 0.000000 0.000000
0.295581 -0.024617 2.000344 0.000000 0.000000 0.000000
0.371280 -0.030639 1.918529 0.000000 0.000000 0.000000
0.557547 -0.043442 2.104866 0.000000 0.000000 0.000000
0.555416 -0.012519 1.838316 0.000000 0.000000 0.000000
0.324989 -0.013183 1.895918 0.000000 0.000000 0.000000
0.461636 -0.035282 2.109134 0.000000 0.000000 0.000000
0.321058 -0.012795 1.902308 0.000000 0.000000 0.000000
0.299716 -0.017950 1.963323 0.000000 0.000000 0.000000
0.329688 -0.018408 1.921913 0.000000 0.000000 0.000000
0.632498 -0.057676 2.016234 0.000000 0.000000 0.000000
0.614727 -0.053664 2.024784 0.000000 0.000000 0.000000
0.510848 -0.011436 1.818160 0.000000 0.000000 0.000000
0.332995 -0.017245 1.914744 0.000000 0.000000 0.000000
0.629510 -0.060438 2.026218 0.000000 0.000000 0.000000
0.626339 -0.051759 2.003176 0.000000 0.000000 0.000000
0.609390 -0.050074 2.016649 0.000000 0.000000 0.000000
0.507192 -0.012334 1.807631 0.000000 0.000000 0.000000
0.304431 -0.026874 2.006091 0.000000 0.000000 0.000000
0.314309 -0.013682 1.918351 0.000000 0.000000 0.000000
0.311276 -0.016106 1.934319 0.000000 0.000000 0.000000
0.457000 -0.035898 2.107894 0.000000 0.000000 0.000000
0.427798 -0.034898 2.109646 0.000000 0.000000 0.000000
0.538594 -0.036928 2.114373 0.000000 0.000000 0.000000
0.599140 -0.058341 2.056217 0.000000 0.000000 0.000000
0.538189 -0.035589 2.105631 0.000000 0.000000 0.000000
0.508751 -0.031090 2.102272 0.000000 0.000000 0.000000
0.542987 -0.037952 2.104258 0.000000 0.000000 0.000000
0.444172 -0.036762 2.105067 0.000000 0.000000 0.000000
0.308170 -0.029878 2.026875 0.000000 0.000000 0.000000
0.540150 -0.036242 2.107613 0.000000 0.000000 0.000000
0.346512 -0.037216 2.079633 0.000000 0.000000 0.000000
0.507997 -0.031270 2.105840 0.000000 0.000000 0.000000
0.545284 -0.037838 2.105473 0.000000 0.000000 0.000000
0.510855 -0.033763 2.112567 0.000000 0.000000 0.000000
0.438016 -0.034280 2.103519 0.000000 0.000000 0.000000
0.301637 -0.030087 2.020433 0.000000 0.000000 0.000000
0.346584 -0.038212 2.077852 0.000000 0.000000 0.000000
0.542300 -0.009255 1.839532 0.000000 0.000000 0.000000
0.321409 -0.014130 1.906453 0.000000 0.000000 0.000000
0.322488 -0.014020 1.909296 0.000000 0.000000 0.000000
0.333990 -0.013335 1.906068 0.000000 0.000000 0.000000
0.310852 -0.017238 1.931173 0.000000 0.000000 0.000000
0.520510 -0.034427 2.114981 0.000000 0.000000 0.000000
0.305710 -0.020313 1.970403 0.000000 0.000000 0.000000
0.595138 -0.038628 1.974735 0.000000 0.000000 0.000000
0.590021 -0.049261 1.992115 0.000000 0.000000 0.000000
0.345681 -0.034264 2.066095 0.000000 0.000000 0.000000
0.328711 -0.013476 1.900734 0.000000 0.000000 0.000000
0.516722 -0.033242 2.112469 0.000000 0.000000 0.000000
0.579426 -0.036249 1.953209 0.000000 0.000000 0.000000
0.538641 -0.018954 1.889627 0.000000 0.000000 0.000000
0.317942 -0.014215 1.918465 0.000000 0.000000 0.000000
0.330113 -0.014240 1.891029 0.000000 0.000000 0.000000
0.320913 -0.014047 1.911973 0.000000 0.000000 0.000000
0.352495 -0.015510 1.869999 0.000000 0.000000 0.000000
0.523227 -0.034007 2.109464 0.000000 0.000000 0.000000
0.533073 -0.035437 2.109737 0.000000 0.000000 0.000000
0.331870 -0.014426 1.893174 0.000000 0.000000 0.000000
0.376746 -0.011804 1.842310 0.000000 0.000000 0.000000
0.347114 -0.011837 1.864968 0.000000 0.000000 0.000000
0.599345 -0.058136 2.060917 0.000000 0.000000 0.000000
0.369501 -0.011367 1.837795 0.000000 0.000000 0.000000
0.374767 -0.010336 1.839339 0.000000 0.000000 0.000000
0.399806 -0.004767 1.822788 0.000000 0.000000 0.000000
0.353306 -0.034262 1.959314 0.000000 0.000000 0.000000
0.408348 -0.008399 1.819384 0.000000 0.000000 0.000000
0.442663 -0.009616 1.802390 0.000000 0.000000 0.000000
0.331124 -0.015000 1.893322 0.000000 0.000000 0.000000
0.367060 -0.011449 1.850544 0.000000 0.000000 0.000000
0.396439 -0.011037 1.827113 0.000000 0.000000 0.000000
0.377263 -0.012251 1.841898 0.000000 0.000000 0.000000
0.341564 -0.037245 1.983179 0.000000 0.000000 0.000000
0.418813 -0.038331 2.106895 0.000000 0.000000 0.000000
0.426955 -0.008932 1.811297 0.000000 0.000000 0.000000
0.455139 -0.009710 1.796570 0.000000 0.000000 0.000000
0.319929 -0.015197 1.911162 0.000000 0.000000 0.000000
0.330225 -0.015128 1.903158 0.000000 0.000000 0.000000
0.555317 -0.040999 2.081631 0.000000 0.000000 0.000000
0.561382 -0.045086 2.088439 0.000000 0.000000 0.000000
0.549751 -0.039438 2.105436 0.000000 0.000000 0.000000
0.556925 -0.041437 2.097801 0.000000 0.000000 0.000000
0.623341 -0.058433 2.023796 0.000000 0.000000 0.000000
0.617770 -0.058377 2.032102 0.000000 0.000000 0.000000
0.616367 -0.059231 2.030093 0.000000 0.000000 0.000000
0.615045 -0.061156 2.041281 0.000000 0.000000 0.000000
0.613199 -0.058513 2.037129 0.000000 0.000000 0.000000
0.566039 -0.047688 2.094091 0.000000 0.000000 0.000000
0.625784 -0.055535 2.004711 0.000000 0.000000 0.000000
0.490431 -0.002450 1.808033 0.000000 0.000000 0.000000
0.564408 -0.045229 2.091322 0.000000 0.000000 0.000000
0.554421 -0.040406 2.100416 0.000000 0.000000 0.000000
0.604931 -0.059841 2.040428 0.000000 0.000000 0.000000
0.610045 -0.056778 2.030777 0.000000 0.000000 0.000000
0.615176 -0.058262 2.046096 0.000000 0.000000 0.000000
0.622333 -0.062230 2.036025 0.000000 0.000000 0.000000
0.616112 -0.059113 2.036280 0.000000 0.000000 0.000000
0.489264 -0.000807 1.799443 0.000000 0.000000 0.000000
0.551928 -0.040278 2.095189 0.000000 0.000000 0.000000
0.529093 -0.034968 2.101017 0.000000 0.000000 0.000000
0.376774 -0.011623 1.839274 0.000000 0.000000 0.000000
0.621469 -0.052963 2.016376 0.000000 0.000000 0.000000
0.323540 -0.034946 2.058886 0.000000 0.000000 0.000000
0.522896 -0.015279 1.821587 0.000000 0.000000 0.000000
0.339792 -0.035863 2.069095 0.000000 0.000000 0.000000
0.530706 -0.014106 1.825460 0.000000 0.000000 0.000000
0.523651 -0.017852 1.816793 0.000000 0.000000 0.000000
0.531321 -0.014559 1.822761 0.000000 0.000000 0.000000
0.522564 -0.015930 1.817716 0.000000 0.000000 0.000000
0.329160 -0.034570 2.059258 0.000000 0.000000 0.000000
0.536273 -0.021733 1.823310 0.000000 0.000000 0.000000
0.513255 -0.011995 1.815577 0.000000 0.000000 0.000000
0.513599 -0.013380 1.812580 0.000000 0.000000 0.000000
0.549082 -0.012685 1.836805 0.000000 0.000000 0.000000
0.345576 -0.013244 1.871729 0.000000 0.000000 0.000000
0.301785 -0.018051 1.956179 0.000000 0.000000 0.000000
0.365921 -0.038875 2.091569 0.000000 0.000000 0.000000
0.479594 -0.032151 2.105524 0.000000 0.000000 0.000000
0.376027 -0.039898 2.093417 0.000000 0.000000 0.000000
0.630587 -0.055534 2.010841 0.000000 0.000000 0.000000
0.365637 -0.038312 2.090969 0.000000 0.000000 0.000000
0.366652 -0.036789 2.080851 0.000000 0.000000 0.000000
0.389101 -0.040007 2.084107 0.000000 0.000000 0.000000
0.390206 -0.037109 2.101132 0.000000 0.000000 0.000000
0.372931 -0.037366 2.094297 0.000000 0.000000 0.000000
0.368719 -0.036252 2.085628 0.000000 0.000000 0.000000
0.383112 -0.039664 2.094097 0.000000 0.000000 0.000000
0.406811 -0.009404 1.817582 0.000000 0.000000 0.000000
