ply
format ascii 1.0
comment VCGLIB generated
obj_info Generated by SPFormer!
element vertex 879
property float x
property float y
property float z
property float nx
property float ny
property float nz
end_header
-0.062447 0.755631 0.879552 0.000000 0.000000 0.000000
0.045412 0.583545 0.910916 0.000000 0.000000 0.000000
0.045076 0.579367 0.915791 0.000000 0.000000 0.000000
0.153994 0.529327 0.806705 0.000000 0.000000 0.000000
-0.064842 0.771229 0.839901 0.000000 0.000000 0.000000
-0.056854 0.746501 0.845191 0.000000 0.000000 0.000000
0.199478 0.582092 0.701667 0.000000 0.000000 0.000000
0.194902 0.610551 0.682371 0.000000 0.000000 0.000000
-0.044277 0.737643 0.867816 0.000000 0.000000 0.000000
0.033525 0.685724 0.814278 0.000000 0.000000 0.000000
-0.056562 0.750825 0.846736 0.000000 0.000000 0.000000
0.143829 0.543524 0.826632 0.000000 0.000000 0.000000
0.042209 0.582414 0.915816 0.000000 0.000000 0.000000
0.151434 0.538714 0.814145 0.000000 0.000000 0.000000
0.021260 0.595778 0.932386 0.000000 0.000000 0.000000
0.187290 0.578550 0.716975 0.000000 0.000000 0.000000
0.152627 0.544468 0.792727 0.000000 0.000000 0.000000
0.038134 0.763185 0.695666 0.000000 0.000000 0.000000
0.126803 0.739861 0.631609 0.000000 0.000000 0.000000
0.198033 0.651125 0.649398 0.000000 0.000000 0.000000
0.019117 0.602172 0.928861 0.000000 0.000000 0.000000
0.018128 0.602981 0.924567 0.000000 0.000000 0.000000
0.178577 0.541855 0.759049 0.000000 0.000000 0.000000
0.030237 0.595426 0.918099 0.000000 0.000000 0.000000
0.028486 0.591169 0.924428 0.000000 0.000000 0.000000
-0.060130 0.753833 0.867014 0.000000 0.000000 0.000000
0.147754 0.553493 0.805317 0.000000 0.000000 0.000000
0.123113 0.535594 0.850822 0.000000 0.000000 0.000000
-0.011315 0.777115 0.736329 0.000000 0.000000 0.000000
0.180530 0.557483 0.743175 0.000000 0.000000 0.000000
0.028757 0.593303 0.926626 0.000000 0.000000 0.000000
0.016940 0.609119 0.924448 0.000000 0.000000 0.000000
0.164901 0.534027 0.800005 0.000000 0.000000 0.000000
-0.033003 0.740462 0.802983 0.000000 0.000000 0.000000
0.150360 0.541098 0.801490 0.000000 0.000000 0.000000
-0.020737 0.780786 0.744741 0.000000 0.000000 0.000000
-0.036395 0.778046 0.761902 0.000000 0.000000 0.000000
0.154492 0.553056 0.791529 0.000000 0.000000 0.000000
-0.057367 0.779430 0.799419 0.000000 0.000000 0.000000
0.191630 0.671009 0.641113 0.000000 0.000000 0.000000
0.185099 0.697065 0.627100 0.000000 0.000000 0.000000
-0.042521 0.752501 0.811474 0.000000 0.000000 0.000000
0.145599 0.554701 0.792398 0.000000 0.000000 0.000000
-0.038369 0.771710 0.800514 0.000000 0.000000 0.000000
-0.000639 0.772403 0.733355 0.000000 0.000000 0.000000
0.156499 0.530819 0.809211 0.000000 0.000000 0.000000
-0.022104 0.765007 0.752801 0.000000 0.000000 0.000000
0.166364 0.539199 0.792484 0.000000 0.000000 0.000000
0.050935 0.580212 0.896276 0.000000 0.000000 0.000000
0.150742 0.548376 0.797491 0.000000 0.000000 0.000000
-0.016731 0.627403 0.944687 0.000000 0.000000 0.000000
-0.052445 0.777705 0.792054 0.000000 0.000000 0.000000
0.132978 0.547098 0.830398 0.000000 0.000000 0.000000
0.140060 0.614596 0.740390 0.000000 0.000000 0.000000
0.178706 0.563612 0.747884 0.000000 0.000000 0.000000
0.008931 0.779249 0.714309 0.000000 0.000000 0.000000
0.173331 0.716175 0.636268 0.000000 0.000000 0.000000
0.145916 0.535457 0.812683 0.000000 0.000000 0.000000
0.174107 0.537563 0.772393 0.000000 0.000000 0.000000
-0.061664 0.740039 0.944221 0.000000 0.000000 0.000000
-0.061402 0.743568 0.919328 0.000000 0.000000 0.000000
0.103443 0.758403 0.631278 0.000000 0.000000 0.000000
0.047419 0.587660 0.907834 0.000000 0.000000 0.000000
0.139129 0.741850 0.622019 0.000000 0.000000 0.000000
0.133221 0.535046 0.839218 0.000000 0.000000 0.000000
-0.059666 0.747055 0.910883 0.000000 0.000000 0.000000
-0.067432 0.726842 0.941929 0.000000 0.000000 0.000000
-0.068090 0.750156 0.940019 0.000000 0.000000 0.000000
0.071993 0.568652 0.894207 0.000000 0.000000 0.000000
0.142027 0.531696 0.835438 0.000000 0.000000 0.000000
0.056652 0.576249 0.905847 0.000000 0.000000 0.000000
0.028152 0.601660 0.923737 0.000000 0.000000 0.000000
0.027733 0.594204 0.926322 0.000000 0.000000 0.000000
-0.062116 0.770424 0.825203 0.000000 0.000000 0.000000
0.021428 0.591091 0.933374 0.000000 0.000000 0.000000
0.040610 0.707175 0.768824 0.000000 0.000000 0.000000
0.007624 0.743444 0.766233 0.000000 0.000000 0.000000
0.061383 0.570410 0.891709 0.000000 0.000000 0.000000
-0.060848 0.764035 0.836116 0.000000 0.000000 0.000000
0.066945 0.570005 0.889444 0.000000 0.000000 0.000000
0.070762 0.561235 0.897263 0.000000 0.000000 0.000000
0.109375 0.540787 0.863555 0.000000 0.000000 0.000000
0.009877 0.734170 0.760397 0.000000 0.000000 0.000000
-0.061440 0.772855 0.820360 0.000000 0.000000 0.000000
0.185201 0.576006 0.717085 0.000000 0.000000 0.000000
-0.003568 0.618201 0.944869 0.000000 0.000000 0.000000
0.147648 0.745056 0.648410 0.000000 0.000000 0.000000
-0.063971 0.733228 0.928219 0.000000 0.000000 0.000000
-0.063466 0.743679 0.926612 0.000000 0.000000 0.000000
0.193809 0.676539 0.637969 0.000000 0.000000 0.000000
0.040302 0.586400 0.917066 0.000000 0.000000 0.000000
0.184073 0.697243 0.631767 0.000000 0.000000 0.000000
-0.052936 0.665585 0.966890 0.000000 0.000000 0.000000
-0.054624 0.688323 0.938662 0.000000 0.000000 0.000000
0.190137 0.682666 0.629807 0.000000 0.000000 0.000000
-0.066202 0.698886 0.960439 0.000000 0.000000 0.000000
-0.056967 0.740528 0.906973 0.000000 0.000000 0.000000
-0.070389 0.734120 0.956567 0.000000 0.000000 0.000000
0.037849 0.607679 0.873413 0.000000 0.000000 0.000000
0.126592 0.580325 0.800961 0.000000 0.000000 0.000000
-0.041758 0.666725 0.948544 0.000000 0.000000 0.000000
0.133859 0.545707 0.819458 0.000000 0.000000 0.000000
-0.019296 0.781473 0.741752 0.000000 0.000000 0.000000
0.197847 0.654200 0.662301 0.000000 0.000000 0.000000
0.026138 0.639780 0.867662 0.000000 0.000000 0.000000
-0.033513 0.714711 0.840947 0.000000 0.000000 0.000000
0.065887 0.724558 0.720691 0.000000 0.000000 0.000000
0.122932 0.726006 0.661096 0.000000 0.000000 0.000000
0.168956 0.700442 0.653132 0.000000 0.000000 0.000000
0.171281 0.657097 0.670496 0.000000 0.000000 0.000000
0.090427 0.564487 0.853674 0.000000 0.000000 0.000000
0.070131 0.733515 0.696554 0.000000 0.000000 0.000000
0.116141 0.576115 0.816101 0.000000 0.000000 0.000000
0.149568 0.555463 0.781096 0.000000 0.000000 0.000000
0.074961 0.766000 0.656360 0.000000 0.000000 0.000000
0.042878 0.667815 0.795874 0.000000 0.000000 0.000000
0.149118 0.706832 0.664354 0.000000 0.000000 0.000000
0.057576 0.624031 0.819000 0.000000 0.000000 0.000000
0.045731 0.656405 0.800561 0.000000 0.000000 0.000000
0.095976 0.745024 0.645426 0.000000 0.000000 0.000000
0.004111 0.644963 0.874609 0.000000 0.000000 0.000000
-0.015989 0.658404 0.884688 0.000000 0.000000 0.000000
0.032465 0.715962 0.767336 0.000000 0.000000 0.000000
0.143328 0.662318 0.683845 0.000000 0.000000 0.000000
0.123216 0.636984 0.739875 0.000000 0.000000 0.000000
0.122384 0.623440 0.744779 0.000000 0.000000 0.000000
0.115964 0.584960 0.801045 0.000000 0.000000 0.000000
0.142192 0.581998 0.768276 0.000000 0.000000 0.000000
0.008278 0.651290 0.850600 0.000000 0.000000 0.000000
-0.025403 0.739104 0.790704 0.000000 0.000000 0.000000
0.097716 0.561022 0.856824 0.000000 0.000000 0.000000
-0.052837 0.666916 0.959138 0.000000 0.000000 0.000000
0.110221 0.663737 0.719261 0.000000 0.000000 0.000000
0.143642 0.737671 0.626406 0.000000 0.000000 0.000000
0.150313 0.697335 0.678905 0.000000 0.000000 0.000000
0.116210 0.545236 0.853288 0.000000 0.000000 0.000000
0.113514 0.546383 0.853773 0.000000 0.000000 0.000000
0.193700 0.624586 0.670612 0.000000 0.000000 0.000000
-0.024121 0.778922 0.754626 0.000000 0.000000 0.000000
0.114623 0.759293 0.633473 0.000000 0.000000 0.000000
0.142874 0.663291 0.699996 0.000000 0.000000 0.000000
-0.029053 0.646348 0.951560 0.000000 0.000000 0.000000
-0.024417 0.644213 0.942183 0.000000 0.000000 0.000000
0.187527 0.710592 0.630349 0.000000 0.000000 0.000000
0.191609 0.668670 0.644443 0.000000 0.000000 0.000000
0.047335 0.695482 0.768291 0.000000 0.000000 0.000000
-0.047798 0.733939 0.845208 0.000000 0.000000 0.000000
0.074829 0.721631 0.697740 0.000000 0.000000 0.000000
0.173344 0.687546 0.669288 0.000000 0.000000 0.000000
0.177099 0.646566 0.673044 0.000000 0.000000 0.000000
0.127751 0.554590 0.828318 0.000000 0.000000 0.000000
0.140394 0.579922 0.776029 0.000000 0.000000 0.000000
0.045344 0.718952 0.720718 0.000000 0.000000 0.000000
0.173786 0.673804 0.663037 0.000000 0.000000 0.000000
0.106117 0.701756 0.706470 0.000000 0.000000 0.000000
0.108925 0.752693 0.644950 0.000000 0.000000 0.000000
0.023717 0.654752 0.829504 0.000000 0.000000 0.000000
0.039514 0.653539 0.816534 0.000000 0.000000 0.000000
0.043044 0.640732 0.818800 0.000000 0.000000 0.000000
0.186013 0.689564 0.641620 0.000000 0.000000 0.000000
0.103920 0.761580 0.646628 0.000000 0.000000 0.000000
0.135897 0.711447 0.663665 0.000000 0.000000 0.000000
-0.002133 0.643417 0.883293 0.000000 0.000000 0.000000
0.170422 0.567030 0.742732 0.000000 0.000000 0.000000
-0.019755 0.665427 0.890811 0.000000 0.000000 0.000000
0.123158 0.609539 0.755560 0.000000 0.000000 0.000000
0.055044 0.725582 0.736025 0.000000 0.000000 0.000000
0.151484 0.640823 0.706576 0.000000 0.000000 0.000000
0.069724 0.663190 0.787849 0.000000 0.000000 0.000000
0.091342 0.607565 0.808090 0.000000 0.000000 0.000000
-0.013804 0.744968 0.787847 0.000000 0.000000 0.000000
0.187514 0.620245 0.683368 0.000000 0.000000 0.000000
-0.063448 0.692097 0.967562 0.000000 0.000000 0.000000
0.048772 0.575620 0.911386 0.000000 0.000000 0.000000
0.127354 0.698747 0.694641 0.000000 0.000000 0.000000
0.119563 0.549413 0.844011 0.000000 0.000000 0.000000
0.186480 0.628931 0.674699 0.000000 0.000000 0.000000
0.105771 0.750006 0.653495 0.000000 0.000000 0.000000
0.157409 0.625223 0.709533 0.000000 0.000000 0.000000
-0.040124 0.654706 0.952826 0.000000 0.000000 0.000000
-0.034568 0.666191 0.941396 0.000000 0.000000 0.000000
0.192993 0.717971 0.628714 0.000000 0.000000 0.000000
0.197757 0.718063 0.629503 0.000000 0.000000 0.000000
0.183738 0.663254 0.654400 0.000000 0.000000 0.000000
0.174800 0.688324 0.652556 0.000000 0.000000 0.000000
-0.046636 0.778784 0.775355 0.000000 0.000000 0.000000
-0.042384 0.770849 0.781703 0.000000 0.000000 0.000000
-0.035764 0.774155 0.762512 0.000000 0.000000 0.000000
0.190294 0.583490 0.727075 0.000000 0.000000 0.000000
-0.054363 0.765685 0.799404 0.000000 0.000000 0.000000
0.180388 0.694753 0.655989 0.000000 0.000000 0.000000
0.059707 0.570739 0.900614 0.000000 0.000000 0.000000
0.116098 0.542376 0.861656 0.000000 0.000000 0.000000
0.017531 0.642413 0.892404 0.000000 0.000000 0.000000
-0.026562 0.654123 0.943306 0.000000 0.000000 0.000000
-0.016992 0.755944 0.762622 0.000000 0.000000 0.000000
0.037839 0.660588 0.816134 0.000000 0.000000 0.000000
-0.020998 0.777263 0.748335 0.000000 0.000000 0.000000
0.124119 0.536149 0.852647 0.000000 0.000000 0.000000
0.101376 0.546168 0.870396 0.000000 0.000000 0.000000
0.152164 0.672052 0.672141 0.000000 0.000000 0.000000
0.111661 0.541055 0.860509 0.000000 0.000000 0.000000
-0.033900 0.639149 0.952693 0.000000 0.000000 0.000000
0.190454 0.696098 0.634460 0.000000 0.000000 0.000000
0.099851 0.622606 0.767253 0.000000 0.000000 0.000000
0.139892 0.551075 0.813965 0.000000 0.000000 0.000000
-0.019024 0.767349 0.763578 0.000000 0.000000 0.000000
0.155187 0.638273 0.694769 0.000000 0.000000 0.000000
0.189484 0.690045 0.638376 0.000000 0.000000 0.000000
0.096496 0.714532 0.683366 0.000000 0.000000 0.000000
0.092334 0.707504 0.698535 0.000000 0.000000 0.000000
0.192920 0.673776 0.644126 0.000000 0.000000 0.000000
0.183907 0.687812 0.647787 0.000000 0.000000 0.000000
0.190311 0.657464 0.650507 0.000000 0.000000 0.000000
0.034972 0.667270 0.819467 0.000000 0.000000 0.000000
-0.046838 0.767215 0.781902 0.000000 0.000000 0.000000
0.165591 0.661808 0.686460 0.000000 0.000000 0.000000
0.163959 0.696782 0.658305 0.000000 0.000000 0.000000
0.096564 0.757545 0.635154 0.000000 0.000000 0.000000
0.175935 0.683950 0.651030 0.000000 0.000000 0.000000
0.172785 0.694553 0.654605 0.000000 0.000000 0.000000
0.050793 0.658046 0.825141 0.000000 0.000000 0.000000
0.007138 0.637915 0.915062 0.000000 0.000000 0.000000
-0.037445 0.660645 0.949919 0.000000 0.000000 0.000000
-0.022007 0.745573 0.802056 0.000000 0.000000 0.000000
-0.012714 0.646231 0.901770 0.000000 0.000000 0.000000
0.178918 0.676489 0.653802 0.000000 0.000000 0.000000
-0.028207 0.782783 0.752942 0.000000 0.000000 0.000000
0.160955 0.676002 0.665858 0.000000 0.000000 0.000000
0.120612 0.535881 0.855005 0.000000 0.000000 0.000000
0.143078 0.680961 0.680267 0.000000 0.000000 0.000000
0.046263 0.609080 0.852116 0.000000 0.000000 0.000000
0.188161 0.676586 0.644056 0.000000 0.000000 0.000000
0.127049 0.533260 0.849768 0.000000 0.000000 0.000000
-0.029753 0.783088 0.757678 0.000000 0.000000 0.000000
0.005181 0.718948 0.791120 0.000000 0.000000 0.000000
0.168666 0.655139 0.669498 0.000000 0.000000 0.000000
0.000483 0.717582 0.775744 0.000000 0.000000 0.000000
0.096755 0.553251 0.877246 0.000000 0.000000 0.000000
0.051779 0.742153 0.705348 0.000000 0.000000 0.000000
0.158887 0.531233 0.809864 0.000000 0.000000 0.000000
0.184224 0.675644 0.649667 0.000000 0.000000 0.000000
0.035525 0.678353 0.808537 0.000000 0.000000 0.000000
0.173652 0.679727 0.659815 0.000000 0.000000 0.000000
0.070998 0.777154 0.652974 0.000000 0.000000 0.000000
0.116317 0.752374 0.630418 0.000000 0.000000 0.000000
0.154984 0.692932 0.666828 0.000000 0.000000 0.000000
0.103979 0.583511 0.819998 0.000000 0.000000 0.000000
-0.066402 0.761766 0.847106 0.000000 0.000000 0.000000
0.190904 0.693865 0.634912 0.000000 0.000000 0.000000
0.117074 0.536365 0.856668 0.000000 0.000000 0.000000
-0.010433 0.784477 0.728406 0.000000 0.000000 0.000000
0.034895 0.584503 0.924748 0.000000 0.000000 0.000000
0.180774 0.695826 0.645885 0.000000 0.000000 0.000000
0.185569 0.687432 0.642398 0.000000 0.000000 0.000000
0.194528 0.698657 0.632129 0.000000 0.000000 0.000000
0.190734 0.693318 0.635717 0.000000 0.000000 0.000000
0.012243 0.770661 0.708430 0.000000 0.000000 0.000000
-0.063461 0.702213 0.953795 0.000000 0.000000 0.000000
-0.066789 0.723234 0.938982 0.000000 0.000000 0.000000
-0.066038 0.713812 0.958609 0.000000 0.000000 0.000000
-0.026692 0.713623 0.834252 0.000000 0.000000 0.000000
0.188133 0.559816 0.731597 0.000000 0.000000 0.000000
-0.059361 0.755747 0.852424 0.000000 0.000000 0.000000
0.181454 0.583957 0.717310 0.000000 0.000000 0.000000
0.004131 0.613749 0.941518 0.000000 0.000000 0.000000
-0.061466 0.694636 0.948102 0.000000 0.000000 0.000000
-0.067663 0.751469 0.934161 0.000000 0.000000 0.000000
-0.060044 0.683814 0.969236 0.000000 0.000000 0.000000
-0.062622 0.699843 0.944587 0.000000 0.000000 0.000000
-0.060795 0.687683 0.946338 0.000000 0.000000 0.000000
-0.065345 0.696852 0.950326 0.000000 0.000000 0.000000
-0.002806 0.635664 0.913392 0.000000 0.000000 0.000000
-0.028800 0.713566 0.831672 0.000000 0.000000 0.000000
0.192174 0.580561 0.708436 0.000000 0.000000 0.000000
-0.019044 0.631049 0.946654 0.000000 0.000000 0.000000
-0.054226 0.674967 0.965879 0.000000 0.000000 0.000000
-0.064909 0.747064 0.925493 0.000000 0.000000 0.000000
-0.067252 0.706030 0.952769 0.000000 0.000000 0.000000
-0.067386 0.737729 0.937034 0.000000 0.000000 0.000000
0.174469 0.543264 0.765866 0.000000 0.000000 0.000000
0.128056 0.543863 0.834800 0.000000 0.000000 0.000000
-0.064068 0.765441 0.835106 0.000000 0.000000 0.000000
-0.051260 0.783324 0.786607 0.000000 0.000000 0.000000
-0.064020 0.757252 0.926852 0.000000 0.000000 0.000000
0.187664 0.585384 0.715961 0.000000 0.000000 0.000000
-0.063099 0.761874 0.921610 0.000000 0.000000 0.000000
-0.015623 0.627864 0.948936 0.000000 0.000000 0.000000
-0.061338 0.760211 0.896621 0.000000 0.000000 0.000000
0.130790 0.752093 0.620011 0.000000 0.000000 0.000000
0.196148 0.586942 0.697501 0.000000 0.000000 0.000000
-0.062789 0.760003 0.868479 0.000000 0.000000 0.000000
-0.006173 0.621621 0.944315 0.000000 0.000000 0.000000
-0.068530 0.769408 0.841399 0.000000 0.000000 0.000000
-0.023187 0.770467 0.772912 0.000000 0.000000 0.000000
0.186747 0.667324 0.651038 0.000000 0.000000 0.000000
0.160919 0.605151 0.728034 0.000000 0.000000 0.000000
-0.070829 0.756831 0.947314 0.000000 0.000000 0.000000
-0.063769 0.762812 0.921795 0.000000 0.000000 0.000000
-0.014908 0.629328 0.949066 0.000000 0.000000 0.000000
0.133909 0.737989 0.625664 0.000000 0.000000 0.000000
0.082653 0.683778 0.737824 0.000000 0.000000 0.000000
0.191470 0.602431 0.692820 0.000000 0.000000 0.000000
-0.043294 0.663196 0.957915 0.000000 0.000000 0.000000
-0.022819 0.637553 0.945199 0.000000 0.000000 0.000000
0.116736 0.759773 0.628502 0.000000 0.000000 0.000000
0.125766 0.750161 0.626719 0.000000 0.000000 0.000000
0.113796 0.543722 0.858444 0.000000 0.000000 0.000000
0.191833 0.659632 0.647239 0.000000 0.000000 0.000000
0.181181 0.544718 0.753742 0.000000 0.000000 0.000000
-0.005374 0.623170 0.935281 0.000000 0.000000 0.000000
0.128259 0.752050 0.628006 0.000000 0.000000 0.000000
0.115431 0.541698 0.857169 0.000000 0.000000 0.000000
-0.004466 0.623804 0.943009 0.000000 0.000000 0.000000
0.197443 0.626235 0.664419 0.000000 0.000000 0.000000
0.194961 0.585997 0.697908 0.000000 0.000000 0.000000
-0.000041 0.612730 0.937413 0.000000 0.000000 0.000000
-0.010815 0.632554 0.936072 0.000000 0.000000 0.000000
0.001799 0.618379 0.930776 0.000000 0.000000 0.000000
-0.046226 0.768772 0.787373 0.000000 0.000000 0.000000
0.000182 0.617754 0.944125 0.000000 0.000000 0.000000
0.198876 0.644442 0.651079 0.000000 0.000000 0.000000
0.168855 0.629448 0.698995 0.000000 0.000000 0.000000
0.193865 0.632916 0.663776 0.000000 0.000000 0.000000
0.195181 0.571336 0.714169 0.000000 0.000000 0.000000
-0.004220 0.626090 0.936215 0.000000 0.000000 0.000000
-0.002480 0.626405 0.937819 0.000000 0.000000 0.000000
-0.031561 0.779032 0.759356 0.000000 0.000000 0.000000
0.197320 0.590802 0.692414 0.000000 0.000000 0.000000
0.005774 0.610037 0.942824 0.000000 0.000000 0.000000
0.189262 0.664610 0.648148 0.000000 0.000000 0.000000
0.172090 0.642784 0.680302 0.000000 0.000000 0.000000
0.056095 0.577161 0.902904 0.000000 0.000000 0.000000
0.038539 0.586342 0.918197 0.000000 0.000000 0.000000
0.022380 0.596266 0.931126 0.000000 0.000000 0.000000
0.194721 0.588513 0.696194 0.000000 0.000000 0.000000
-0.063183 0.765608 0.881004 0.000000 0.000000 0.000000
0.032384 0.592250 0.920902 0.000000 0.000000 0.000000
0.117683 0.536697 0.855502 0.000000 0.000000 0.000000
0.196783 0.602016 0.685124 0.000000 0.000000 0.000000
0.186981 0.595270 0.699643 0.000000 0.000000 0.000000
-0.061731 0.750001 0.940046 0.000000 0.000000 0.000000
0.021551 0.654027 0.870106 0.000000 0.000000 0.000000
0.116644 0.575037 0.826125 0.000000 0.000000 0.000000
-0.061559 0.750892 0.884663 0.000000 0.000000 0.000000
0.055325 0.583010 0.903773 0.000000 0.000000 0.000000
0.067443 0.565161 0.897244 0.000000 0.000000 0.000000
0.053366 0.571609 0.897335 0.000000 0.000000 0.000000
0.167951 0.547583 0.768564 0.000000 0.000000 0.000000
-0.061840 0.759117 0.938284 0.000000 0.000000 0.000000
0.125790 0.724886 0.650130 0.000000 0.000000 0.000000
-0.057382 0.760675 0.898261 0.000000 0.000000 0.000000
0.192962 0.612747 0.683711 0.000000 0.000000 0.000000
0.053705 0.574940 0.907550 0.000000 0.000000 0.000000
0.195038 0.662706 0.641620 0.000000 0.000000 0.000000
0.058676 0.575680 0.896398 0.000000 0.000000 0.000000
0.125833 0.648904 0.715145 0.000000 0.000000 0.000000
0.193692 0.663075 0.641521 0.000000 0.000000 0.000000
0.195171 0.578713 0.699356 0.000000 0.000000 0.000000
0.050616 0.602099 0.884227 0.000000 0.000000 0.000000
0.064344 0.585470 0.870853 0.000000 0.000000 0.000000
0.049418 0.613485 0.868555 0.000000 0.000000 0.000000
0.054490 0.588446 0.899051 0.000000 0.000000 0.000000
0.047881 0.586024 0.897748 0.000000 0.000000 0.000000
0.170607 0.562155 0.748118 0.000000 0.000000 0.000000
0.198964 0.614145 0.679100 0.000000 0.000000 0.000000
0.121094 0.729538 0.651354 0.000000 0.000000 0.000000
0.055499 0.575589 0.905889 0.000000 0.000000 0.000000
0.064915 0.572728 0.888844 0.000000 0.000000 0.000000
0.062409 0.570327 0.885726 0.000000 0.000000 0.000000
-0.064402 0.760028 0.876637 0.000000 0.000000 0.000000
0.072260 0.573115 0.889822 0.000000 0.000000 0.000000
0.187530 0.693692 0.638433 0.000000 0.000000 0.000000
0.119315 0.550652 0.850796 0.000000 0.000000 0.000000
0.044332 0.579503 0.915758 0.000000 0.000000 0.000000
0.195253 0.567527 0.715206 0.000000 0.000000 0.000000
0.177492 0.538339 0.766062 0.000000 0.000000 0.000000
0.192117 0.690951 0.632101 0.000000 0.000000 0.000000
0.191012 0.605779 0.687205 0.000000 0.000000 0.000000
0.193110 0.621629 0.678462 0.000000 0.000000 0.000000
0.203048 0.645483 0.642462 0.000000 0.000000 0.000000
0.194673 0.718879 0.625713 0.000000 0.000000 0.000000
0.197281 0.628381 0.661914 0.000000 0.000000 0.000000
-0.063963 0.757822 0.868776 0.000000 0.000000 0.000000
0.083821 0.557465 0.880914 0.000000 0.000000 0.000000
0.200580 0.643896 0.645979 0.000000 0.000000 0.000000
0.183816 0.617155 0.687515 0.000000 0.000000 0.000000
0.187738 0.714066 0.634603 0.000000 0.000000 0.000000
0.146134 0.735880 0.622148 0.000000 0.000000 0.000000
-0.068290 0.773479 0.872472 0.000000 0.000000 0.000000
0.198966 0.648573 0.650222 0.000000 0.000000 0.000000
0.186854 0.585869 0.703156 0.000000 0.000000 0.000000
0.195062 0.622280 0.667569 0.000000 0.000000 0.000000
0.195798 0.608006 0.681453 0.000000 0.000000 0.000000
0.163739 0.553930 0.765997 0.000000 0.000000 0.000000
0.123263 0.541619 0.843188 0.000000 0.000000 0.000000
0.107825 0.759725 0.636445 0.000000 0.000000 0.000000
0.105002 0.761657 0.640836 0.000000 0.000000 0.000000
-0.008586 0.621508 0.946546 0.000000 0.000000 0.000000
0.120003 0.759570 0.624003 0.000000 0.000000 0.000000
0.193270 0.594609 0.697029 0.000000 0.000000 0.000000
-0.006010 0.621897 0.944632 0.000000 0.000000 0.000000
-0.063334 0.760028 0.917993 0.000000 0.000000 0.000000
0.094799 0.767334 0.643331 0.000000 0.000000 0.000000
0.000376 0.770356 0.725359 0.000000 0.000000 0.000000
0.019878 0.785221 0.700917 0.000000 0.000000 0.000000
0.195831 0.594051 0.691250 0.000000 0.000000 0.000000
-0.060329 0.765517 0.914235 0.000000 0.000000 0.000000
-0.008265 0.785056 0.729006 0.000000 0.000000 0.000000
0.012629 0.785039 0.704131 0.000000 0.000000 0.000000
-0.061585 0.753808 0.919367 0.000000 0.000000 0.000000
0.113328 0.751808 0.632339 0.000000 0.000000 0.000000
0.087962 0.757113 0.653759 0.000000 0.000000 0.000000
0.014599 0.759784 0.712814 0.000000 0.000000 0.000000
-0.009827 0.779835 0.733446 0.000000 0.000000 0.000000
-0.017628 0.784376 0.742189 0.000000 0.000000 0.000000
0.015256 0.784256 0.706792 0.000000 0.000000 0.000000
-0.012872 0.782299 0.735135 0.000000 0.000000 0.000000
0.078792 0.764513 0.644227 0.000000 0.000000 0.000000
0.091155 0.773226 0.641904 0.000000 0.000000 0.000000
-0.065793 0.753009 0.929532 0.000000 0.000000 0.000000
-0.072443 0.746586 0.946908 0.000000 0.000000 0.000000
-0.005706 0.785165 0.724183 0.000000 0.000000 0.000000
0.003057 0.771457 0.718337 0.000000 0.000000 0.000000
0.192106 0.647375 0.656560 0.000000 0.000000 0.000000
-0.067408 0.758666 0.936763 0.000000 0.000000 0.000000
0.069224 0.776417 0.647039 0.000000 0.000000 0.000000
0.117218 0.755009 0.628928 0.000000 0.000000 0.000000
0.097165 0.546845 0.880237 0.000000 0.000000 0.000000
0.128462 0.533944 0.844946 0.000000 0.000000 0.000000
-0.070594 0.734478 0.949885 0.000000 0.000000 0.000000
-0.069645 0.752126 0.943983 0.000000 0.000000 0.000000
-0.064824 0.748001 0.923248 0.000000 0.000000 0.000000
-0.068531 0.748683 0.937173 0.000000 0.000000 0.000000
-0.067647 0.751653 0.939476 0.000000 0.000000 0.000000
0.156852 0.531026 0.805577 0.000000 0.000000 0.000000
0.158816 0.732562 0.618642 0.000000 0.000000 0.000000
-0.068023 0.758774 0.931951 0.000000 0.000000 0.000000
0.159273 0.535694 0.805588 0.000000 0.000000 0.000000
-0.063964 0.741618 0.930652 0.000000 0.000000 0.000000
0.040472 0.590140 0.914848 0.000000 0.000000 0.000000
0.159260 0.538595 0.798083 0.000000 0.000000 0.000000
0.145009 0.525769 0.829550 0.000000 0.000000 0.000000
0.044795 0.578322 0.915317 0.000000 0.000000 0.000000
-0.039534 0.718569 0.875113 0.000000 0.000000 0.000000
0.178018 0.711417 0.640112 0.000000 0.000000 0.000000
0.148728 0.545642 0.809278 0.000000 0.000000 0.000000
0.145670 0.546839 0.798652 0.000000 0.000000 0.000000
0.183384 0.544115 0.754808 0.000000 0.000000 0.000000
0.140984 0.537736 0.825691 0.000000 0.000000 0.000000
0.187540 0.554721 0.737376 0.000000 0.000000 0.000000
-0.061179 0.688691 0.959352 0.000000 0.000000 0.000000
0.022223 0.746387 0.722747 0.000000 0.000000 0.000000
-0.037168 0.721799 0.896462 0.000000 0.000000 0.000000
0.030509 0.586017 0.928285 0.000000 0.000000 0.000000
-0.056985 0.753534 0.850133 0.000000 0.000000 0.000000
-0.045458 0.731715 0.886277 0.000000 0.000000 0.000000
0.158643 0.533467 0.799848 0.000000 0.000000 0.000000
0.145072 0.560773 0.793441 0.000000 0.000000 0.000000
0.193040 0.597354 0.687508 0.000000 0.000000 0.000000
0.140542 0.532273 0.829781 0.000000 0.000000 0.000000
-0.057318 0.675703 0.959492 0.000000 0.000000 0.000000
0.183753 0.570430 0.724339 0.000000 0.000000 0.000000
0.157936 0.533560 0.802444 0.000000 0.000000 0.000000
-0.052598 0.740857 0.882615 0.000000 0.000000 0.000000
0.004563 0.614969 0.937955 0.000000 0.000000 0.000000
0.149182 0.527364 0.821877 0.000000 0.000000 0.000000
-0.027998 0.632330 0.950213 0.000000 0.000000 0.000000
0.195480 0.571097 0.712394 0.000000 0.000000 0.000000
0.148938 0.528335 0.819349 0.000000 0.000000 0.000000
0.127463 0.534112 0.845541 0.000000 0.000000 0.000000
0.188216 0.713230 0.630180 0.000000 0.000000 0.000000
0.168509 0.540202 0.782506 0.000000 0.000000 0.000000
-0.066947 0.760564 0.932413 0.000000 0.000000 0.000000
0.102511 0.549976 0.866965 0.000000 0.000000 0.000000
0.179089 0.544585 0.748814 0.000000 0.000000 0.000000
0.190858 0.637065 0.660902 0.000000 0.000000 0.000000
-0.037345 0.641408 0.947174 0.000000 0.000000 0.000000
0.148592 0.532044 0.819524 0.000000 0.000000 0.000000
0.119490 0.540768 0.854339 0.000000 0.000000 0.000000
-0.045149 0.664239 0.957354 0.000000 0.000000 0.000000
-0.032479 0.639815 0.950778 0.000000 0.000000 0.000000
-0.043801 0.656085 0.954386 0.000000 0.000000 0.000000
0.151567 0.549033 0.806687 0.000000 0.000000 0.000000
0.070880 0.559424 0.899082 0.000000 0.000000 0.000000
0.118595 0.537171 0.862506 0.000000 0.000000 0.000000
0.178299 0.541326 0.757124 0.000000 0.000000 0.000000
0.192578 0.651039 0.656632 0.000000 0.000000 0.000000
0.135564 0.635462 0.712838 0.000000 0.000000 0.000000
0.143946 0.528152 0.832563 0.000000 0.000000 0.000000
-0.054201 0.667908 0.965658 0.000000 0.000000 0.000000
-0.040268 0.649775 0.931917 0.000000 0.000000 0.000000
0.195088 0.614121 0.680070 0.000000 0.000000 0.000000
-0.035815 0.657282 0.946546 0.000000 0.000000 0.000000
0.134226 0.535635 0.827718 0.000000 0.000000 0.000000
-0.033817 0.644618 0.942643 0.000000 0.000000 0.000000
-0.042422 0.665805 0.954868 0.000000 0.000000 0.000000
0.084942 0.561504 0.882638 0.000000 0.000000 0.000000
-0.032191 0.643625 0.954755 0.000000 0.000000 0.000000
-0.040544 0.652426 0.947133 0.000000 0.000000 0.000000
-0.050635 0.666138 0.969602 0.000000 0.000000 0.000000
0.197611 0.652276 0.643088 0.000000 0.000000 0.000000
0.137400 0.531056 0.830683 0.000000 0.000000 0.000000
-0.031699 0.641460 0.947485 0.000000 0.000000 0.000000
-0.052101 0.780258 0.791335 0.000000 0.000000 0.000000
-0.044954 0.655532 0.958110 0.000000 0.000000 0.000000
0.086799 0.565095 0.883861 0.000000 0.000000 0.000000
-0.056492 0.666730 0.962292 0.000000 0.000000 0.000000
0.187044 0.554340 0.739296 0.000000 0.000000 0.000000
-0.046851 0.662027 0.963101 0.000000 0.000000 0.000000
-0.041905 0.652332 0.956166 0.000000 0.000000 0.000000
-0.037886 0.646280 0.953284 0.000000 0.000000 0.000000
0.199677 0.630893 0.661961 0.000000 0.000000 0.000000
-0.039139 0.650307 0.948232 0.000000 0.000000 0.000000
-0.057157 0.682408 0.958705 0.000000 0.000000 0.000000
-0.036081 0.645097 0.953382 0.000000 0.000000 0.000000
-0.057182 0.772358 0.798592 0.000000 0.000000 0.000000
-0.046934 0.656980 0.958450 0.000000 0.000000 0.000000
0.078691 0.563526 0.885543 0.000000 0.000000 0.000000
-0.050347 0.664678 0.955071 0.000000 0.000000 0.000000
-0.052584 0.671598 0.963499 0.000000 0.000000 0.000000
0.175654 0.561963 0.742615 0.000000 0.000000 0.000000
-0.046954 0.654887 0.962762 0.000000 0.000000 0.000000
-0.053128 0.770157 0.790185 0.000000 0.000000 0.000000
0.197258 0.658149 0.641172 0.000000 0.000000 0.000000
-0.052778 0.664341 0.964029 0.000000 0.000000 0.000000
-0.069119 0.739631 0.961362 0.000000 0.000000 0.000000
0.006278 0.783674 0.711853 0.000000 0.000000 0.000000
-0.022612 0.637270 0.940095 0.000000 0.000000 0.000000
0.122538 0.537564 0.852134 0.000000 0.000000 0.000000
-0.063804 0.685812 0.970860 0.000000 0.000000 0.000000
-0.003541 0.618358 0.948163 0.000000 0.000000 0.000000
0.009930 0.774376 0.714365 0.000000 0.000000 0.000000
0.129338 0.534138 0.842542 0.000000 0.000000 0.000000
0.196036 0.676717 0.638371 0.000000 0.000000 0.000000
-0.002756 0.616398 0.942951 0.000000 0.000000 0.000000
0.196756 0.647802 0.648496 0.000000 0.000000 0.000000
-0.066438 0.769142 0.842494 0.000000 0.000000 0.000000
0.195557 0.679096 0.634156 0.000000 0.000000 0.000000
0.193608 0.668558 0.638757 0.000000 0.000000 0.000000
0.198569 0.668095 0.636820 0.000000 0.000000 0.000000
0.195694 0.669734 0.641420 0.000000 0.000000 0.000000
0.198057 0.664353 0.637447 0.000000 0.000000 0.000000
0.011058 0.690747 0.824908 0.000000 0.000000 0.000000
0.037324 0.744589 0.709983 0.000000 0.000000 0.000000
0.057350 0.570801 0.906476 0.000000 0.000000 0.000000
0.179145 0.536365 0.766282 0.000000 0.000000 0.000000
0.196261 0.676459 0.634837 0.000000 0.000000 0.000000
-0.021964 0.634519 0.950690 0.000000 0.000000 0.000000
0.206838 0.627113 0.659964 0.000000 0.000000 0.000000
0.017027 0.599771 0.936454 0.000000 0.000000 0.000000
-0.007463 0.619598 0.945359 0.000000 0.000000 0.000000
0.195340 0.656347 0.645258 0.000000 0.000000 0.000000
0.195092 0.676382 0.635346 0.000000 0.000000 0.000000
-0.051538 0.657599 0.965808 0.000000 0.000000 0.000000
0.198894 0.717278 0.626444 0.000000 0.000000 0.000000
0.026791 0.590527 0.928077 0.000000 0.000000 0.000000
-0.064481 0.766572 0.842440 0.000000 0.000000 0.000000
0.179185 0.537325 0.765299 0.000000 0.000000 0.000000
0.190065 0.657065 0.652732 0.000000 0.000000 0.000000
0.189021 0.676105 0.642558 0.000000 0.000000 0.000000
0.120162 0.535583 0.853786 0.000000 0.000000 0.000000
-0.024303 0.638016 0.944712 0.000000 0.000000 0.000000
0.183822 0.546135 0.752323 0.000000 0.000000 0.000000
0.193475 0.600254 0.694387 0.000000 0.000000 0.000000
-0.069309 0.769917 0.860536 0.000000 0.000000 0.000000
0.189093 0.617456 0.683284 0.000000 0.000000 0.000000
0.192851 0.596460 0.693936 0.000000 0.000000 0.000000
0.198539 0.606607 0.678370 0.000000 0.000000 0.000000
0.178426 0.550416 0.757957 0.000000 0.000000 0.000000
0.082355 0.556821 0.882550 0.000000 0.000000 0.000000
0.088819 0.560194 0.873000 0.000000 0.000000 0.000000
0.071578 0.585341 0.883926 0.000000 0.000000 0.000000
-0.034929 0.644475 0.949718 0.000000 0.000000 0.000000
0.156619 0.532532 0.806187 0.000000 0.000000 0.000000
0.068344 0.566521 0.890116 0.000000 0.000000 0.000000
-0.031623 0.636446 0.954529 0.000000 0.000000 0.000000
0.186100 0.703496 0.628866 0.000000 0.000000 0.000000
0.123709 0.759159 0.624235 0.000000 0.000000 0.000000
0.074136 0.567613 0.876902 0.000000 0.000000 0.000000
0.136042 0.693565 0.675456 0.000000 0.000000 0.000000
0.074065 0.572238 0.872623 0.000000 0.000000 0.000000
0.178538 0.597998 0.729680 0.000000 0.000000 0.000000
-0.067739 0.770268 0.844639 0.000000 0.000000 0.000000
-0.055758 0.678390 0.965708 0.000000 0.000000 0.000000
0.091175 0.557580 0.869838 0.000000 0.000000 0.000000
0.154349 0.693224 0.664574 0.000000 0.000000 0.000000
0.121893 0.757953 0.622842 0.000000 0.000000 0.000000
0.086817 0.560544 0.869409 0.000000 0.000000 0.000000
0.140666 0.696990 0.671681 0.000000 0.000000 0.000000
0.170000 0.536514 0.786613 0.000000 0.000000 0.000000
0.083423 0.576062 0.874129 0.000000 0.000000 0.000000
0.087397 0.556055 0.875277 0.000000 0.000000 0.000000
0.168813 0.710117 0.648443 0.000000 0.000000 0.000000
0.088016 0.549790 0.889390 0.000000 0.000000 0.000000
0.132117 0.747802 0.621243 0.000000 0.000000 0.000000
0.090428 0.569300 0.873205 0.000000 0.000000 0.000000
0.154679 0.685181 0.664392 0.000000 0.000000 0.000000
0.126665 0.758366 0.621403 0.000000 0.000000 0.000000
0.136034 0.743739 0.623467 0.000000 0.000000 0.000000
0.113706 0.758350 0.629571 0.000000 0.000000 0.000000
-0.060531 0.775502 0.807805 0.000000 0.000000 0.000000
-0.024259 0.769857 0.762922 0.000000 0.000000 0.000000
-0.057049 0.775708 0.802633 0.000000 0.000000 0.000000
-0.017838 0.786192 0.738373 0.000000 0.000000 0.000000
-0.047663 0.773485 0.787015 0.000000 0.000000 0.000000
-0.035251 0.646272 0.954528 0.000000 0.000000 0.000000
-0.044117 0.665329 0.955505 0.000000 0.000000 0.000000
-0.068720 0.748182 0.955593 0.000000 0.000000 0.000000
0.195844 0.577423 0.704451 0.000000 0.000000 0.000000
0.198742 0.639817 0.648770 0.000000 0.000000 0.000000
-0.067771 0.743820 0.942769 0.000000 0.000000 0.000000
-0.069113 0.747884 0.944371 0.000000 0.000000 0.000000
-0.053297 0.667723 0.966343 0.000000 0.000000 0.000000
-0.041474 0.656603 0.950760 0.000000 0.000000 0.000000
0.201656 0.619964 0.663670 0.000000 0.000000 0.000000
-0.021892 0.768787 0.757214 0.000000 0.000000 0.000000
-0.067324 0.743590 0.932585 0.000000 0.000000 0.000000
-0.010868 0.770348 0.741893 0.000000 0.000000 0.000000
-0.069931 0.732298 0.942761 0.000000 0.000000 0.000000
0.196515 0.668367 0.640311 0.000000 0.000000 0.000000
-0.066688 0.757457 0.930267 0.000000 0.000000 0.000000
-0.050894 0.772485 0.788798 0.000000 0.000000 0.000000
-0.063805 0.763193 0.922667 0.000000 0.000000 0.000000
0.135713 0.742803 0.621773 0.000000 0.000000 0.000000
-0.061327 0.682352 0.968228 0.000000 0.000000 0.000000
-0.056895 0.686696 0.965304 0.000000 0.000000 0.000000
-0.055561 0.770511 0.800087 0.000000 0.000000 0.000000
-0.067182 0.756532 0.927627 0.000000 0.000000 0.000000
-0.018390 0.777928 0.765336 0.000000 0.000000 0.000000
-0.069686 0.736952 0.942387 0.000000 0.000000 0.000000
-0.026069 0.781062 0.750910 0.000000 0.000000 0.000000
-0.070063 0.726834 0.945141 0.000000 0.000000 0.000000
0.194596 0.672345 0.639612 0.000000 0.000000 0.000000
0.196616 0.580648 0.702242 0.000000 0.000000 0.000000
-0.065412 0.753956 0.924123 0.000000 0.000000 0.000000
0.150766 0.740742 0.622218 0.000000 0.000000 0.000000
-0.057906 0.676521 0.968850 0.000000 0.000000 0.000000
-0.067262 0.748680 0.942869 0.000000 0.000000 0.000000
0.117281 0.533988 0.864556 0.000000 0.000000 0.000000
-0.032438 0.642292 0.954244 0.000000 0.000000 0.000000
0.076180 0.560736 0.883024 0.000000 0.000000 0.000000
-0.053314 0.680992 0.968145 0.000000 0.000000 0.000000
0.196507 0.572030 0.707874 0.000000 0.000000 0.000000
-0.034177 0.778886 0.760031 0.000000 0.000000 0.000000
-0.032474 0.771442 0.763616 0.000000 0.000000 0.000000
-0.041251 0.778178 0.769172 0.000000 0.000000 0.000000
0.196054 0.714418 0.627388 0.000000 0.000000 0.000000
0.196923 0.662355 0.644271 0.000000 0.000000 0.000000
-0.039013 0.780024 0.768551 0.000000 0.000000 0.000000
0.152405 0.740378 0.614551 0.000000 0.000000 0.000000
0.201677 0.611996 0.667369 0.000000 0.000000 0.000000
-0.067196 0.768820 0.837806 0.000000 0.000000 0.000000
0.038437 0.717933 0.758988 0.000000 0.000000 0.000000
0.147854 0.732757 0.623559 0.000000 0.000000 0.000000
0.144153 0.726619 0.640951 0.000000 0.000000 0.000000
0.020517 0.704699 0.749140 0.000000 0.000000 0.000000
-0.041582 0.781274 0.769282 0.000000 0.000000 0.000000
0.134487 0.626996 0.716703 0.000000 0.000000 0.000000
-0.019070 0.784214 0.741440 0.000000 0.000000 0.000000
0.133983 0.569240 0.814552 0.000000 0.000000 0.000000
0.143176 0.530101 0.829606 0.000000 0.000000 0.000000
0.159037 0.728670 0.626680 0.000000 0.000000 0.000000
0.150014 0.731586 0.635787 0.000000 0.000000 0.000000
0.130045 0.633521 0.712330 0.000000 0.000000 0.000000
-0.067543 0.763365 0.855195 0.000000 0.000000 0.000000
-0.033806 0.640388 0.955020 0.000000 0.000000 0.000000
0.196210 0.714893 0.628848 0.000000 0.000000 0.000000
-0.069474 0.721204 0.952308 0.000000 0.000000 0.000000
0.053735 0.777982 0.666115 0.000000 0.000000 0.000000
-0.069378 0.744428 0.942788 0.000000 0.000000 0.000000
0.041858 0.775879 0.689031 0.000000 0.000000 0.000000
0.081644 0.772140 0.645545 0.000000 0.000000 0.000000
0.043078 0.781811 0.680626 0.000000 0.000000 0.000000
0.021625 0.777315 0.699821 0.000000 0.000000 0.000000
-0.068593 0.729371 0.956418 0.000000 0.000000 0.000000
-0.069278 0.732079 0.952328 0.000000 0.000000 0.000000
0.059738 0.781311 0.659387 0.000000 0.000000 0.000000
0.195397 0.587898 0.698977 0.000000 0.000000 0.000000
0.082660 0.774234 0.640346 0.000000 0.000000 0.000000
0.082155 0.778136 0.642696 0.000000 0.000000 0.000000
-0.060434 0.772719 0.814692 0.000000 0.000000 0.000000
0.060566 0.775546 0.661625 0.000000 0.000000 0.000000
-0.069665 0.725416 0.954996 0.000000 0.000000 0.000000
-0.067539 0.746193 0.937333 0.000000 0.000000 0.000000
0.059677 0.767883 0.667513 0.000000 0.000000 0.000000
0.045818 0.778660 0.666726 0.000000 0.000000 0.000000
-0.063001 0.693337 0.966331 0.000000 0.000000 0.000000
-0.067481 0.729741 0.943052 0.000000 0.000000 0.000000
0.068834 0.780159 0.650545 0.000000 0.000000 0.000000
0.049305 0.775282 0.675139 0.000000 0.000000 0.000000
0.182599 0.574850 0.732424 0.000000 0.000000 0.000000
0.079437 0.772228 0.669795 0.000000 0.000000 0.000000
0.043497 0.786024 0.665162 0.000000 0.000000 0.000000
-0.062847 0.776275 0.820619 0.000000 0.000000 0.000000
0.195572 0.579697 0.698262 0.000000 0.000000 0.000000
0.190078 0.591441 0.701553 0.000000 0.000000 0.000000
0.180059 0.561354 0.736868 0.000000 0.000000 0.000000
-0.064848 0.772910 0.830803 0.000000 0.000000 0.000000
0.177685 0.594268 0.701797 0.000000 0.000000 0.000000
0.054710 0.597318 0.889486 0.000000 0.000000 0.000000
0.104068 0.553705 0.863123 0.000000 0.000000 0.000000
0.059869 0.605033 0.876394 0.000000 0.000000 0.000000
0.196437 0.563981 0.724325 0.000000 0.000000 0.000000
0.118721 0.555430 0.855273 0.000000 0.000000 0.000000
0.150262 0.549541 0.812780 0.000000 0.000000 0.000000
0.015681 0.679974 0.846364 0.000000 0.000000 0.000000
0.068579 0.629166 0.822615 0.000000 0.000000 0.000000
0.038841 0.608323 0.892264 0.000000 0.000000 0.000000
-0.065335 0.770737 0.832259 0.000000 0.000000 0.000000
0.047011 0.742285 0.711769 0.000000 0.000000 0.000000
0.115154 0.569805 0.838513 0.000000 0.000000 0.000000
0.044433 0.600949 0.865636 0.000000 0.000000 0.000000
0.120877 0.559227 0.852282 0.000000 0.000000 0.000000
-0.064690 0.772611 0.829608 0.000000 0.000000 0.000000
0.129363 0.546084 0.843178 0.000000 0.000000 0.000000
0.056255 0.604955 0.875909 0.000000 0.000000 0.000000
0.012184 0.661295 0.864725 0.000000 0.000000 0.000000
-0.057262 0.779812 0.825468 0.000000 0.000000 0.000000
0.189439 0.706474 0.631957 0.000000 0.000000 0.000000
0.187447 0.701475 0.634526 0.000000 0.000000 0.000000
-0.062768 0.743571 0.916545 0.000000 0.000000 0.000000
0.196179 0.710176 0.628504 0.000000 0.000000 0.000000
0.161694 0.529930 0.802766 0.000000 0.000000 0.000000
-0.054669 0.679339 0.951777 0.000000 0.000000 0.000000
-0.050726 0.692659 0.922816 0.000000 0.000000 0.000000
-0.065082 0.736792 0.926273 0.000000 0.000000 0.000000
0.161059 0.549083 0.772592 0.000000 0.000000 0.000000
-0.063775 0.745456 0.924998 0.000000 0.000000 0.000000
0.046634 0.581996 0.915767 0.000000 0.000000 0.000000
0.166719 0.534176 0.782206 0.000000 0.000000 0.000000
0.165461 0.548782 0.776473 0.000000 0.000000 0.000000
0.153177 0.733048 0.621005 0.000000 0.000000 0.000000
-0.062221 0.752899 0.912895 0.000000 0.000000 0.000000
-0.062156 0.695081 0.954233 0.000000 0.000000 0.000000
-0.062100 0.763378 0.918783 0.000000 0.000000 0.000000
-0.060130 0.762579 0.903986 0.000000 0.000000 0.000000
-0.061644 0.735033 0.918668 0.000000 0.000000 0.000000
-0.062260 0.770679 0.900416 0.000000 0.000000 0.000000
-0.056119 0.677411 0.954955 0.000000 0.000000 0.000000
-0.066521 0.751484 0.931252 0.000000 0.000000 0.000000
0.157090 0.546652 0.784165 0.000000 0.000000 0.000000
-0.060176 0.721951 0.923166 0.000000 0.000000 0.000000
0.045201 0.578403 0.917953 0.000000 0.000000 0.000000
-0.054314 0.740476 0.894200 0.000000 0.000000 0.000000
-0.061824 0.752665 0.914819 0.000000 0.000000 0.000000
-0.061178 0.757789 0.906523 0.000000 0.000000 0.000000
-0.060004 0.754380 0.903950 0.000000 0.000000 0.000000
0.159715 0.534970 0.797312 0.000000 0.000000 0.000000
-0.061951 0.760830 0.912837 0.000000 0.000000 0.000000
0.160564 0.550705 0.783999 0.000000 0.000000 0.000000
-0.063490 0.700276 0.956991 0.000000 0.000000 0.000000
0.197026 0.617547 0.669248 0.000000 0.000000 0.000000
-0.055809 0.747338 0.899157 0.000000 0.000000 0.000000
-0.059997 0.769560 0.907126 0.000000 0.000000 0.000000
-0.043578 0.748284 0.903165 0.000000 0.000000 0.000000
0.197904 0.604829 0.680089 0.000000 0.000000 0.000000
-0.067424 0.774700 0.847472 0.000000 0.000000 0.000000
0.199131 0.655905 0.636388 0.000000 0.000000 0.000000
0.198860 0.717199 0.627342 0.000000 0.000000 0.000000
0.196734 0.713998 0.628079 0.000000 0.000000 0.000000
0.195347 0.710292 0.627891 0.000000 0.000000 0.000000
0.034418 0.786095 0.688987 0.000000 0.000000 0.000000
0.189312 0.551541 0.741277 0.000000 0.000000 0.000000
0.150951 0.529293 0.819111 0.000000 0.000000 0.000000
0.192171 0.574579 0.708377 0.000000 0.000000 0.000000
0.169376 0.535568 0.785362 0.000000 0.000000 0.000000
0.199306 0.709597 0.625492 0.000000 0.000000 0.000000
0.145015 0.740595 0.617135 0.000000 0.000000 0.000000
-0.004205 0.617024 0.948094 0.000000 0.000000 0.000000
0.191414 0.681245 0.636925 0.000000 0.000000 0.000000
0.008063 0.610896 0.941611 0.000000 0.000000 0.000000
0.091889 0.622110 0.794409 0.000000 0.000000 0.000000
0.129721 0.750476 0.618941 0.000000 0.000000 0.000000
0.115073 0.551965 0.857532 0.000000 0.000000 0.000000
-0.066736 0.771092 0.846537 0.000000 0.000000 0.000000
0.000038 0.616121 0.945715 0.000000 0.000000 0.000000
0.199136 0.676194 0.636397 0.000000 0.000000 0.000000
0.193974 0.630109 0.671355 0.000000 0.000000 0.000000
0.148713 0.528721 0.822961 0.000000 0.000000 0.000000
0.153518 0.528543 0.817023 0.000000 0.000000 0.000000
0.190359 0.628764 0.672258 0.000000 0.000000 0.000000
0.100378 0.544089 0.877585 0.000000 0.000000 0.000000
0.150324 0.532077 0.811997 0.000000 0.000000 0.000000
0.141131 0.531878 0.827410 0.000000 0.000000 0.000000
0.085569 0.555620 0.887900 0.000000 0.000000 0.000000
0.026796 0.628730 0.861466 0.000000 0.000000 0.000000
0.050152 0.630095 0.819483 0.000000 0.000000 0.000000
0.021633 0.785990 0.691361 0.000000 0.000000 0.000000
0.047747 0.633322 0.820969 0.000000 0.000000 0.000000
0.062914 0.619147 0.826984 0.000000 0.000000 0.000000
0.056883 0.575308 0.891735 0.000000 0.000000 0.000000
0.022217 0.623817 0.889780 0.000000 0.000000 0.000000
0.020804 0.778011 0.697189 0.000000 0.000000 0.000000
0.016751 0.653475 0.851101 0.000000 0.000000 0.000000
0.044338 0.579467 0.906914 0.000000 0.000000 0.000000
0.042834 0.604366 0.875204 0.000000 0.000000 0.000000
0.042621 0.628376 0.840507 0.000000 0.000000 0.000000
0.076685 0.586632 0.842445 0.000000 0.000000 0.000000
-0.072278 0.762893 0.928134 0.000000 0.000000 0.000000
0.056771 0.612079 0.843749 0.000000 0.000000 0.000000
0.058250 0.616675 0.844452 0.000000 0.000000 0.000000
0.091539 0.554123 0.881859 0.000000 0.000000 0.000000
0.137717 0.534713 0.828961 0.000000 0.000000 0.000000
0.077837 0.559240 0.892404 0.000000 0.000000 0.000000
0.059015 0.656396 0.777898 0.000000 0.000000 0.000000
0.057192 0.639719 0.789721 0.000000 0.000000 0.000000
0.041007 0.587455 0.903944 0.000000 0.000000 0.000000
0.056469 0.592381 0.866800 0.000000 0.000000 0.000000
0.037418 0.621406 0.859036 0.000000 0.000000 0.000000
-0.004357 0.638642 0.908701 0.000000 0.000000 0.000000
0.018014 0.674385 0.813056 0.000000 0.000000 0.000000
0.053275 0.616228 0.831741 0.000000 0.000000 0.000000
0.082421 0.626274 0.780277 0.000000 0.000000 0.000000
0.046748 0.619318 0.842959 0.000000 0.000000 0.000000
0.047872 0.610761 0.848485 0.000000 0.000000 0.000000
0.063490 0.612567 0.835158 0.000000 0.000000 0.000000
0.095502 0.551399 0.879083 0.000000 0.000000 0.000000
0.101138 0.550308 0.872099 0.000000 0.000000 0.000000
0.194279 0.645965 0.659266 0.000000 0.000000 0.000000
0.142736 0.524664 0.839947 0.000000 0.000000 0.000000
0.181086 0.539289 0.759273 0.000000 0.000000 0.000000
0.201842 0.597046 0.680688 0.000000 0.000000 0.000000
0.160567 0.542059 0.788548 0.000000 0.000000 0.000000
0.125050 0.536112 0.857478 0.000000 0.000000 0.000000
0.109420 0.547351 0.861770 0.000000 0.000000 0.000000
0.198081 0.602856 0.681683 0.000000 0.000000 0.000000
0.126511 0.535846 0.846379 0.000000 0.000000 0.000000
0.103472 0.546150 0.871427 0.000000 0.000000 0.000000
0.110944 0.548174 0.863701 0.000000 0.000000 0.000000
0.199192 0.607157 0.677832 0.000000 0.000000 0.000000
-0.061445 0.680430 0.969376 0.000000 0.000000 0.000000
0.126103 0.536695 0.847477 0.000000 0.000000 0.000000
0.098761 0.544819 0.876700 0.000000 0.000000 0.000000
0.199649 0.609203 0.667935 0.000000 0.000000 0.000000
0.126311 0.535613 0.852825 0.000000 0.000000 0.000000
0.115537 0.546055 0.858483 0.000000 0.000000 0.000000
0.112911 0.546582 0.860755 0.000000 0.000000 0.000000
0.194457 0.599444 0.692020 0.000000 0.000000 0.000000
-0.060532 0.672671 0.969220 0.000000 0.000000 0.000000
0.193795 0.582432 0.701471 0.000000 0.000000 0.000000
0.198148 0.599200 0.686338 0.000000 0.000000 0.000000
-0.069691 0.715722 0.968740 0.000000 0.000000 0.000000
-0.065678 0.760955 0.928042 0.000000 0.000000 0.000000
0.054231 0.778344 0.659886 0.000000 0.000000 0.000000
0.075414 0.772420 0.661536 0.000000 0.000000 0.000000
-0.065794 0.762236 0.929058 0.000000 0.000000 0.000000
0.061300 0.766107 0.660176 0.000000 0.000000 0.000000
0.047316 0.771210 0.667106 0.000000 0.000000 0.000000
0.136805 0.728484 0.634071 0.000000 0.000000 0.000000
0.010741 0.608951 0.934581 0.000000 0.000000 0.000000
0.198408 0.595810 0.692429 0.000000 0.000000 0.000000
0.173419 0.535127 0.780092 0.000000 0.000000 0.000000
0.200474 0.622165 0.665540 0.000000 0.000000 0.000000
0.082965 0.775580 0.644094 0.000000 0.000000 0.000000
0.050525 0.781460 0.663221 0.000000 0.000000 0.000000
0.048714 0.783371 0.670389 0.000000 0.000000 0.000000
0.068954 0.752822 0.694173 0.000000 0.000000 0.000000
0.060311 0.759821 0.661858 0.000000 0.000000 0.000000
0.054737 0.779853 0.670200 0.000000 0.000000 0.000000
0.062901 0.780744 0.653765 0.000000 0.000000 0.000000
0.073653 0.783317 0.656471 0.000000 0.000000 0.000000
0.073858 0.770232 0.649536 0.000000 0.000000 0.000000
0.054687 0.780556 0.676495 0.000000 0.000000 0.000000
0.140738 0.532368 0.831285 0.000000 0.000000 0.000000
-0.050239 0.782129 0.781497 0.000000 0.000000 0.000000
-0.013891 0.641630 0.936536 0.000000 0.000000 0.000000
0.030992 0.584410 0.926321 0.000000 0.000000 0.000000
0.180828 0.551111 0.750861 0.000000 0.000000 0.000000
0.185428 0.548454 0.746983 0.000000 0.000000 0.000000
0.185930 0.553045 0.742417 0.000000 0.000000 0.000000
0.139991 0.542568 0.815987 0.000000 0.000000 0.000000
0.170916 0.697279 0.655198 0.000000 0.000000 0.000000
0.144440 0.530626 0.828253 0.000000 0.000000 0.000000
-0.065630 0.773104 0.844947 0.000000 0.000000 0.000000
0.177745 0.698578 0.645778 0.000000 0.000000 0.000000
0.127157 0.534550 0.848851 0.000000 0.000000 0.000000
0.166610 0.669987 0.659159 0.000000 0.000000 0.000000
0.030948 0.780485 0.686572 0.000000 0.000000 0.000000
