ply
format ascii 1.0
comment VCGLIB generated
obj_info Generated by SPFormer!
element vertex 884
property float x
property float y
property float z
property float nx
property float ny
property float nz
end_header
0.845382 1.264105 0.400149 0.000000 0.000000 0.000000
0.907280 1.230082 0.392400 0.000000 0.000000 0.000000
0.937638 1.248772 0.414970 0.000000 0.000000 0.000000
0.975733 1.315111 0.487839 0.000000 0.000000 0.000000
0.908505 1.211875 0.389837 0.000000 0.000000 0.000000
0.891241 1.178479 0.384950 0.000000 0.000000 0.000000
0.915370 1.228040 0.402276 0.000000 0.000000 0.000000
0.941461 1.310902 0.467519 0.000000 0.000000 0.000000
0.974141 1.313038 0.484002 0.000000 0.000000 0.000000
0.853055 1.162741 0.372310 0.000000 0.000000 0.000000
0.892545 1.265674 0.400376 0.000000 0.000000 0.000000
0.973294 1.275586 0.446253 0.000000 0.000000 0.000000
0.883343 1.233508 0.385254 0.000000 0.000000 0.000000
0.983574 1.303851 0.477772 0.000000 0.000000 0.000000
0.931976 1.210744 0.398717 0.000000 0.000000 0.000000
0.956708 1.323608 0.477978 0.000000 0.000000 0.000000
0.886763 1.197449 0.383935 0.000000 0.000000 0.000000
0.890109 1.304116 0.418134 0.000000 0.000000 0.000000
0.989574 1.295924 0.475953 0.000000 0.000000 0.000000
0.948796 1.280749 0.436883 0.000000 0.000000 0.000000
0.899837 1.267511 0.404180 0.000000 0.000000 0.000000
0.980830 1.301072 0.470954 0.000000 0.000000 0.000000
0.882628 1.291956 0.411242 0.000000 0.000000 0.000000
0.891180 1.237357 0.388391 0.000000 0.000000 0.000000
0.974044 1.309118 0.477189 0.000000 0.000000 0.000000
0.957835 1.318448 0.462823 0.000000 0.000000 0.000000
0.961793 1.316987 0.474468 0.000000 0.000000 0.000000
0.992875 1.299412 0.488713 0.000000 0.000000 0.000000
0.875500 1.290361 0.415641 0.000000 0.000000 0.000000
0.889401 1.295591 0.416322 0.000000 0.000000 0.000000
0.880241 1.293133 0.413121 0.000000 0.000000 0.000000
0.983988 1.308008 0.480061 0.000000 0.000000 0.000000
0.996956 1.296010 0.490026 0.000000 0.000000 0.000000
0.919973 1.224387 0.397045 0.000000 0.000000 0.000000
1.002508 1.310512 0.504632 0.000000 0.000000 0.000000
0.908447 1.290411 0.421892 0.000000 0.000000 0.000000
0.989642 1.311063 0.504323 0.000000 0.000000 0.000000
0.951069 1.315666 0.470942 0.000000 0.000000 0.000000
0.949933 1.212183 0.405445 0.000000 0.000000 0.000000
0.881415 1.291145 0.416702 0.000000 0.000000 0.000000
0.976461 1.305247 0.473048 0.000000 0.000000 0.000000
0.967370 1.309873 0.466112 0.000000 0.000000 0.000000
0.969371 1.310911 0.476202 0.000000 0.000000 0.000000
0.991170 1.294718 0.470324 0.000000 0.000000 0.000000
0.973493 1.300692 0.464581 0.000000 0.000000 0.000000
0.982734 1.291540 0.469080 0.000000 0.000000 0.000000
0.937645 1.287340 0.431315 0.000000 0.000000 0.000000
0.910366 1.280887 0.417694 0.000000 0.000000 0.000000
0.973175 1.310151 0.479451 0.000000 0.000000 0.000000
0.898366 1.261326 0.401719 0.000000 0.000000 0.000000
0.984444 1.271761 0.440078 0.000000 0.000000 0.000000
0.933629 1.300717 0.430379 0.000000 0.000000 0.000000
0.906691 1.288849 0.419824 0.000000 0.000000 0.000000
0.913773 1.179724 0.393539 0.000000 0.000000 0.000000
0.879969 1.261415 0.394277 0.000000 0.000000 0.000000
0.949018 1.322650 0.467409 0.000000 0.000000 0.000000
0.953332 1.319818 0.474583 0.000000 0.000000 0.000000
0.946621 1.320141 0.476386 0.000000 0.000000 0.000000
0.910814 1.289923 0.420718 0.000000 0.000000 0.000000
1.009100 1.298353 0.495278 0.000000 0.000000 0.000000
0.906992 1.288367 0.419395 0.000000 0.000000 0.000000
0.895315 1.218789 0.384417 0.000000 0.000000 0.000000
0.994246 1.309409 0.489197 0.000000 0.000000 0.000000
0.862533 1.279429 0.406030 0.000000 0.000000 0.000000
0.896648 1.251807 0.394180 0.000000 0.000000 0.000000
0.865801 1.271958 0.398246 0.000000 0.000000 0.000000
0.902643 1.306830 0.425799 0.000000 0.000000 0.000000
0.943698 1.252085 0.430889 0.000000 0.000000 0.000000
0.840654 1.169661 0.362029 0.000000 0.000000 0.000000
0.861180 1.163747 0.362888 0.000000 0.000000 0.000000
0.840942 1.219251 0.368261 0.000000 0.000000 0.000000
0.930819 1.207345 0.401233 0.000000 0.000000 0.000000
0.954496 1.314680 0.469312 0.000000 0.000000 0.000000
0.930471 1.296456 0.435892 0.000000 0.000000 0.000000
0.919401 1.213315 0.389937 0.000000 0.000000 0.000000
0.988125 1.310664 0.498018 0.000000 0.000000 0.000000
0.995469 1.292589 0.487494 0.000000 0.000000 0.000000
0.900898 1.289293 0.416309 0.000000 0.000000 0.000000
0.940455 1.292616 0.441289 0.000000 0.000000 0.000000
0.975461 1.295351 0.464556 0.000000 0.000000 0.000000
0.989424 1.285161 0.471916 0.000000 0.000000 0.000000
0.995365 1.295921 0.490235 0.000000 0.000000 0.000000
0.856805 1.188771 0.366964 0.000000 0.000000 0.000000
0.999495 1.297747 0.490968 0.000000 0.000000 0.000000
0.958637 1.327806 0.481654 0.000000 0.000000 0.000000
0.951929 1.314688 0.484425 0.000000 0.000000 0.000000
0.925823 1.233018 0.401814 0.000000 0.000000 0.000000
0.980328 1.294069 0.467153 0.000000 0.000000 0.000000
1.000500 1.292901 0.492484 0.000000 0.000000 0.000000
0.929245 1.201718 0.399610 0.000000 0.000000 0.000000
0.999287 1.288973 0.487352 0.000000 0.000000 0.000000
0.888517 1.175732 0.374803 0.000000 0.000000 0.000000
0.899632 1.197082 0.386770 0.000000 0.000000 0.000000
0.968039 1.315657 0.487245 0.000000 0.000000 0.000000
0.981195 1.300607 0.488908 0.000000 0.000000 0.000000
0.933193 1.245750 0.414198 0.000000 0.000000 0.000000
0.967925 1.307896 0.489474 0.000000 0.000000 0.000000
0.993870 1.269293 0.464555 0.000000 0.000000 0.000000
0.990223 1.317508 0.497929 0.000000 0.000000 0.000000
0.986811 1.260959 0.453494 0.000000 0.000000 0.000000
0.983745 1.308095 0.494198 0.000000 0.000000 0.000000
0.991791 1.273495 0.468461 0.000000 0.000000 0.000000
0.913834 1.219817 0.395161 0.000000 0.000000 0.000000
0.911155 1.168537 0.377817 0.000000 0.000000 0.000000
0.926322 1.291050 0.430713 0.000000 0.000000 0.000000
0.898776 1.198749 0.390563 0.000000 0.000000 0.000000
0.944816 1.210043 0.406654 0.000000 0.000000 0.000000
0.998452 1.291028 0.489660 0.000000 0.000000 0.000000
0.914164 1.215413 0.389973 0.000000 0.000000 0.000000
0.947804 1.273088 0.425419 0.000000 0.000000 0.000000
1.001246 1.296729 0.489652 0.000000 0.000000 0.000000
0.882763 1.302744 0.425072 0.000000 0.000000 0.000000
0.929651 1.288314 0.427538 0.000000 0.000000 0.000000
0.986535 1.311911 0.494465 0.000000 0.000000 0.000000
0.969655 1.305813 0.469411 0.000000 0.000000 0.000000
0.900750 1.295270 0.419396 0.000000 0.000000 0.000000
0.914775 1.288937 0.422812 0.000000 0.000000 0.000000
0.973459 1.239039 0.427058 0.000000 0.000000 0.000000
0.936032 1.294059 0.440923 0.000000 0.000000 0.000000
0.884734 1.297970 0.411690 0.000000 0.000000 0.000000
0.938368 1.307487 0.464714 0.000000 0.000000 0.000000
0.942380 1.204593 0.405173 0.000000 0.000000 0.000000
0.946565 1.324188 0.476566 0.000000 0.000000 0.000000
0.993011 1.307564 0.492257 0.000000 0.000000 0.000000
0.915302 1.207806 0.384242 0.000000 0.000000 0.000000
0.925877 1.208683 0.396692 0.000000 0.000000 0.000000
0.986716 1.304206 0.484474 0.000000 0.000000 0.000000
0.911887 1.232544 0.397738 0.000000 0.000000 0.000000
0.944360 1.222584 0.409076 0.000000 0.000000 0.000000
0.959797 1.298575 0.453705 0.000000 0.000000 0.000000
0.866777 1.198312 0.375304 0.000000 0.000000 0.000000
0.926681 1.204269 0.392698 0.000000 0.000000 0.000000
0.981220 1.309659 0.485510 0.000000 0.000000 0.000000
0.962289 1.233152 0.415844 0.000000 0.000000 0.000000
0.922722 1.301450 0.434096 0.000000 0.000000 0.000000
0.950822 1.236082 0.420104 0.000000 0.000000 0.000000
0.993490 1.313432 0.494886 0.000000 0.000000 0.000000
0.992397 1.299673 0.493630 0.000000 0.000000 0.000000
0.886450 1.186653 0.405348 0.000000 0.000000 0.000000
0.954654 1.257513 0.428024 0.000000 0.000000 0.000000
0.876625 1.196187 0.374860 0.000000 0.000000 0.000000
0.978472 1.310959 0.482890 0.000000 0.000000 0.000000
0.990637 1.288524 0.471347 0.000000 0.000000 0.000000
0.997188 1.311251 0.496404 0.000000 0.000000 0.000000
0.850714 1.184290 0.367166 0.000000 0.000000 0.000000
0.850942 1.203609 0.371062 0.000000 0.000000 0.000000
0.853396 1.281335 0.405146 0.000000 0.000000 0.000000
0.845041 1.180027 0.367622 0.000000 0.000000 0.000000
1.001976 1.299354 0.492159 0.000000 0.000000 0.000000
0.927406 1.261553 0.414022 0.000000 0.000000 0.000000
0.912734 1.299246 0.423649 0.000000 0.000000 0.000000
0.855206 1.191099 0.368622 0.000000 0.000000 0.000000
0.983608 1.310476 0.486973 0.000000 0.000000 0.000000
0.946613 1.247774 0.419768 0.000000 0.000000 0.000000
0.955098 1.251441 0.424936 0.000000 0.000000 0.000000
0.857695 1.215359 0.373808 0.000000 0.000000 0.000000
0.945440 1.314814 0.466222 0.000000 0.000000 0.000000
0.916582 1.178956 0.387500 0.000000 0.000000 0.000000
0.997256 1.318154 0.498770 0.000000 0.000000 0.000000
0.913296 1.178785 0.385448 0.000000 0.000000 0.000000
0.962392 1.323269 0.486778 0.000000 0.000000 0.000000
0.968734 1.297520 0.460886 0.000000 0.000000 0.000000
0.851521 1.276323 0.408487 0.000000 0.000000 0.000000
0.927935 1.266261 0.427044 0.000000 0.000000 0.000000
0.992286 1.308676 0.499229 0.000000 0.000000 0.000000
0.967349 1.318833 0.491487 0.000000 0.000000 0.000000
0.948452 1.314954 0.469920 0.000000 0.000000 0.000000
0.962784 1.316364 0.482430 0.000000 0.000000 0.000000
0.975245 1.242328 0.428818 0.000000 0.000000 0.000000
0.926255 1.300940 0.428294 0.000000 0.000000 0.000000
0.915399 1.180150 0.387399 0.000000 0.000000 0.000000
0.896154 1.297626 0.427418 0.000000 0.000000 0.000000
0.960515 1.275737 0.439731 0.000000 0.000000 0.000000
0.907921 1.187160 0.384381 0.000000 0.000000 0.000000
0.963308 1.287757 0.449996 0.000000 0.000000 0.000000
0.922349 1.196102 0.395191 0.000000 0.000000 0.000000
0.914505 1.309685 0.426242 0.000000 0.000000 0.000000
0.890788 1.174163 0.369794 0.000000 0.000000 0.000000
0.970357 1.296293 0.462790 0.000000 0.000000 0.000000
0.917038 1.192935 0.388815 0.000000 0.000000 0.000000
0.950366 1.323032 0.476798 0.000000 0.000000 0.000000
0.942354 1.316414 0.468388 0.000000 0.000000 0.000000
0.974108 1.314455 0.491949 0.000000 0.000000 0.000000
0.974689 1.313796 0.498174 0.000000 0.000000 0.000000
0.879100 1.166345 0.368458 0.000000 0.000000 0.000000
0.965032 1.323208 0.490273 0.000000 0.000000 0.000000
0.890364 1.173921 0.369757 0.000000 0.000000 0.000000
0.979504 1.316289 0.491661 0.000000 0.000000 0.000000
0.970843 1.314709 0.487256 0.000000 0.000000 0.000000
0.866500 1.162411 0.374544 0.000000 0.000000 0.000000
0.996454 1.289372 0.490274 0.000000 0.000000 0.000000
0.995764 1.277619 0.475327 0.000000 0.000000 0.000000
0.971511 1.298821 0.490567 0.000000 0.000000 0.000000
0.881618 1.226290 0.377447 0.000000 0.000000 0.000000
0.910475 1.176842 0.370936 0.000000 0.000000 0.000000
0.900008 1.185073 0.381527 0.000000 0.000000 0.000000
0.858959 1.273585 0.399176 0.000000 0.000000 0.000000
0.867963 1.276348 0.402639 0.000000 0.000000 0.000000
0.859972 1.169406 0.382693 0.000000 0.000000 0.000000
0.919315 1.306042 0.428264 0.000000 0.000000 0.000000
0.895461 1.301295 0.432714 0.000000 0.000000 0.000000
0.995001 1.301073 0.499147 0.000000 0.000000 0.000000
0.888537 1.169990 0.373803 0.000000 0.000000 0.000000
0.903114 1.178251 0.384077 0.000000 0.000000 0.000000
0.979117 1.303070 0.493973 0.000000 0.000000 0.000000
0.983523 1.295772 0.474015 0.000000 0.000000 0.000000
0.881047 1.162212 0.372125 0.000000 0.000000 0.000000
0.851047 1.277760 0.403400 0.000000 0.000000 0.000000
0.864060 1.278800 0.403915 0.000000 0.000000 0.000000
0.873260 1.291549 0.407950 0.000000 0.000000 0.000000
0.863174 1.278331 0.404137 0.000000 0.000000 0.000000
0.858117 1.190427 0.391283 0.000000 0.000000 0.000000
0.886582 1.173272 0.369491 0.000000 0.000000 0.000000
0.900054 1.178814 0.382560 0.000000 0.000000 0.000000
0.945255 1.308230 0.462555 0.000000 0.000000 0.000000
1.000985 1.305315 0.496396 0.000000 0.000000 0.000000
0.972783 1.305164 0.490645 0.000000 0.000000 0.000000
0.976404 1.315647 0.487316 0.000000 0.000000 0.000000
0.864542 1.281415 0.413444 0.000000 0.000000 0.000000
0.901544 1.179843 0.376524 0.000000 0.000000 0.000000
0.944069 1.311544 0.456699 0.000000 0.000000 0.000000
0.909544 1.179600 0.380523 0.000000 0.000000 0.000000
0.889896 1.186905 0.377483 0.000000 0.000000 0.000000
0.906914 1.266429 0.406771 0.000000 0.000000 0.000000
0.888730 1.175436 0.378012 0.000000 0.000000 0.000000
0.871973 1.284610 0.409226 0.000000 0.000000 0.000000
1.003219 1.308728 0.499827 0.000000 0.000000 0.000000
0.977609 1.318055 0.493129 0.000000 0.000000 0.000000
0.958188 1.226888 0.420071 0.000000 0.000000 0.000000
0.910988 1.199280 0.389041 0.000000 0.000000 0.000000
0.918488 1.190295 0.382475 0.000000 0.000000 0.000000
0.929860 1.198352 0.394534 0.000000 0.000000 0.000000
0.979091 1.243330 0.438105 0.000000 0.000000 0.000000
0.910884 1.301555 0.429655 0.000000 0.000000 0.000000
0.986679 1.314851 0.498557 0.000000 0.000000 0.000000
0.975246 1.322958 0.499784 0.000000 0.000000 0.000000
0.913885 1.304093 0.436854 0.000000 0.000000 0.000000
0.919244 1.309042 0.438801 0.000000 0.000000 0.000000
0.895344 1.244631 0.392167 0.000000 0.000000 0.000000
0.915198 1.211051 0.390553 0.000000 0.000000 0.000000
0.946022 1.208229 0.400792 0.000000 0.000000 0.000000
0.950323 1.213634 0.406196 0.000000 0.000000 0.000000
0.938600 1.298518 0.469855 0.000000 0.000000 0.000000
0.994547 1.278693 0.467768 0.000000 0.000000 0.000000
0.990702 1.274292 0.460129 0.000000 0.000000 0.000000
0.974136 1.276848 0.451284 0.000000 0.000000 0.000000
0.989791 1.309266 0.492916 0.000000 0.000000 0.000000
1.001711 1.308776 0.499088 0.000000 0.000000 0.000000
0.844967 1.193062 0.375818 0.000000 0.000000 0.000000
0.940948 1.302402 0.459955 0.000000 0.000000 0.000000
0.954652 1.326980 0.477131 0.000000 0.000000 0.000000
0.952731 1.321963 0.481172 0.000000 0.000000 0.000000
0.909566 1.302053 0.422580 0.000000 0.000000 0.000000
0.917836 1.286581 0.421579 0.000000 0.000000 0.000000
0.974092 1.251856 0.436321 0.000000 0.000000 0.000000
0.918450 1.303818 0.433985 0.000000 0.000000 0.000000
0.899348 1.197650 0.376000 0.000000 0.000000 0.000000
0.978752 1.241282 0.436023 0.000000 0.000000 0.000000
0.966012 1.240795 0.427927 0.000000 0.000000 0.000000
0.945302 1.313954 0.468864 0.000000 0.000000 0.000000
0.903356 1.177097 0.372366 0.000000 0.000000 0.000000
0.916436 1.301859 0.433869 0.000000 0.000000 0.000000
0.912640 1.301078 0.428075 0.000000 0.000000 0.000000
0.921184 1.294430 0.427123 0.000000 0.000000 0.000000
0.979195 1.294592 0.468957 0.000000 0.000000 0.000000
0.909192 1.185753 0.381386 0.000000 0.000000 0.000000
0.907174 1.284888 0.421574 0.000000 0.000000 0.000000
0.917551 1.297208 0.428093 0.000000 0.000000 0.000000
0.926113 1.308883 0.441104 0.000000 0.000000 0.000000
0.991947 1.304625 0.483776 0.000000 0.000000 0.000000
0.897316 1.300419 0.423794 0.000000 0.000000 0.000000
0.972535 1.234798 0.429002 0.000000 0.000000 0.000000
0.912635 1.309717 0.436369 0.000000 0.000000 0.000000
0.982777 1.253735 0.441730 0.000000 0.000000 0.000000
0.988740 1.269722 0.455951 0.000000 0.000000 0.000000
0.978964 1.248146 0.444986 0.000000 0.000000 0.000000
0.947531 1.208744 0.403330 0.000000 0.000000 0.000000
0.853763 1.277607 0.391822 0.000000 0.000000 0.000000
0.953380 1.213883 0.411595 0.000000 0.000000 0.000000
0.942447 1.205471 0.399278 0.000000 0.000000 0.000000
0.952055 1.211701 0.406031 0.000000 0.000000 0.000000
0.956839 1.221052 0.411538 0.000000 0.000000 0.000000
0.950163 1.211444 0.405349 0.000000 0.000000 0.000000
0.951605 1.230146 0.415519 0.000000 0.000000 0.000000
0.962941 1.219712 0.417408 0.000000 0.000000 0.000000
0.905509 1.299042 0.422139 0.000000 0.000000 0.000000
0.989323 1.309986 0.492474 0.000000 0.000000 0.000000
0.920721 1.299084 0.437059 0.000000 0.000000 0.000000
0.925320 1.298510 0.436516 0.000000 0.000000 0.000000
0.906949 1.193342 0.389070 0.000000 0.000000 0.000000
0.996506 1.282269 0.473462 0.000000 0.000000 0.000000
0.941483 1.253546 0.420500 0.000000 0.000000 0.000000
0.958582 1.238997 0.430554 0.000000 0.000000 0.000000
0.914245 1.175489 0.385602 0.000000 0.000000 0.000000
0.902612 1.169651 0.379705 0.000000 0.000000 0.000000
0.922613 1.240311 0.412449 0.000000 0.000000 0.000000
0.935475 1.240320 0.410396 0.000000 0.000000 0.000000
0.964951 1.236845 0.422601 0.000000 0.000000 0.000000
0.891909 1.167000 0.372418 0.000000 0.000000 0.000000
0.993332 1.272003 0.462593 0.000000 0.000000 0.000000
0.945294 1.243567 0.418951 0.000000 0.000000 0.000000
0.968069 1.263114 0.438015 0.000000 0.000000 0.000000
0.945862 1.218894 0.405022 0.000000 0.000000 0.000000
0.904530 1.304193 0.423412 0.000000 0.000000 0.000000
0.966930 1.230748 0.424061 0.000000 0.000000 0.000000
0.962238 1.250697 0.428941 0.000000 0.000000 0.000000
0.962258 1.228927 0.420306 0.000000 0.000000 0.000000
0.943133 1.308743 0.463300 0.000000 0.000000 0.000000
0.973302 1.266622 0.445511 0.000000 0.000000 0.000000
0.941318 1.317012 0.471550 0.000000 0.000000 0.000000
0.985681 1.279179 0.462457 0.000000 0.000000 0.000000
0.994886 1.280772 0.478871 0.000000 0.000000 0.000000
0.948256 1.211480 0.405038 0.000000 0.000000 0.000000
0.990728 1.264757 0.453583 0.000000 0.000000 0.000000
0.975827 1.243314 0.431530 0.000000 0.000000 0.000000
0.849656 1.309136 0.405872 0.000000 0.000000 0.000000
0.991656 1.286410 0.471919 0.000000 0.000000 0.000000
0.842807 1.283126 0.401243 0.000000 0.000000 0.000000
0.981863 1.272703 0.456942 0.000000 0.000000 0.000000
0.982694 1.260222 0.450527 0.000000 0.000000 0.000000
0.945679 1.282549 0.436969 0.000000 0.000000 0.000000
0.984408 1.318359 0.494934 0.000000 0.000000 0.000000
0.982545 1.312733 0.491935 0.000000 0.000000 0.000000
0.842020 1.276527 0.394503 0.000000 0.000000 0.000000
0.932745 1.188971 0.381848 0.000000 0.000000 0.000000
0.900105 1.306963 0.428586 0.000000 0.000000 0.000000
0.925872 1.306484 0.440216 0.000000 0.000000 0.000000
1.000744 1.289226 0.487453 0.000000 0.000000 0.000000
0.908572 1.302528 0.422130 0.000000 0.000000 0.000000
0.894579 1.301097 0.424808 0.000000 0.000000 0.000000
0.902324 1.171788 0.376731 0.000000 0.000000 0.000000
0.915322 1.181483 0.380566 0.000000 0.000000 0.000000
0.903531 1.172511 0.380367 0.000000 0.000000 0.000000
0.906803 1.178609 0.375943 0.000000 0.000000 0.000000
0.906670 1.167937 0.384300 0.000000 0.000000 0.000000
0.993080 1.282402 0.459969 0.000000 0.000000 0.000000
0.881685 1.178357 0.375465 0.000000 0.000000 0.000000
0.993158 1.274971 0.469158 0.000000 0.000000 0.000000
0.971392 1.315899 0.488799 0.000000 0.000000 0.000000
0.881066 1.295395 0.417212 0.000000 0.000000 0.000000
0.961685 1.321061 0.482506 0.000000 0.000000 0.000000
0.980868 1.236436 0.447786 0.000000 0.000000 0.000000
0.955946 1.322142 0.473536 0.000000 0.000000 0.000000
0.944701 1.306145 0.459689 0.000000 0.000000 0.000000
0.882278 1.299466 0.417138 0.000000 0.000000 0.000000
0.984979 1.308311 0.493925 0.000000 0.000000 0.000000
0.840805 1.273271 0.391787 0.000000 0.000000 0.000000
0.896072 1.191452 0.376267 0.000000 0.000000 0.000000
0.900898 1.176098 0.374780 0.000000 0.000000 0.000000
0.886619 1.196233 0.377086 0.000000 0.000000 0.000000
0.903651 1.179626 0.376657 0.000000 0.000000 0.000000
0.943602 1.308630 0.479015 0.000000 0.000000 0.000000
0.884547 1.294629 0.411640 0.000000 0.000000 0.000000
0.881950 1.264775 0.397827 0.000000 0.000000 0.000000
0.910946 1.173699 0.384631 0.000000 0.000000 0.000000
0.968787 1.321774 0.492255 0.000000 0.000000 0.000000
0.905523 1.169663 0.385983 0.000000 0.000000 0.000000
0.992748 1.308487 0.493692 0.000000 0.000000 0.000000
0.913140 1.173564 0.377615 0.000000 0.000000 0.000000
0.915726 1.169255 0.378911 0.000000 0.000000 0.000000
0.920259 1.187140 0.384240 0.000000 0.000000 0.000000
0.949123 1.310384 0.464174 0.000000 0.000000 0.000000
0.885554 1.297854 0.413201 0.000000 0.000000 0.000000
0.951311 1.324783 0.479319 0.000000 0.000000 0.000000
0.963890 1.324350 0.488690 0.000000 0.000000 0.000000
0.976633 1.317511 0.490621 0.000000 0.000000 0.000000
0.970822 1.320662 0.490398 0.000000 0.000000 0.000000
0.978892 1.313861 0.483063 0.000000 0.000000 0.000000
0.916636 1.300054 0.434252 0.000000 0.000000 0.000000
0.880919 1.293932 0.409160 0.000000 0.000000 0.000000
0.964820 1.319707 0.487769 0.000000 0.000000 0.000000
0.923795 1.187116 0.389708 0.000000 0.000000 0.000000
0.965008 1.225012 0.420062 0.000000 0.000000 0.000000
0.971533 1.230256 0.424691 0.000000 0.000000 0.000000
0.899404 1.296651 0.421382 0.000000 0.000000 0.000000
0.895245 1.306690 0.426503 0.000000 0.000000 0.000000
0.998181 1.306831 0.495165 0.000000 0.000000 0.000000
0.841758 1.304670 0.402400 0.000000 0.000000 0.000000
0.998790 1.287727 0.479062 0.000000 0.000000 0.000000
0.914123 1.297099 0.423294 0.000000 0.000000 0.000000
0.847299 1.166510 0.365170 0.000000 0.000000 0.000000
0.999196 1.286845 0.480752 0.000000 0.000000 0.000000
0.999783 1.289212 0.481977 0.000000 0.000000 0.000000
0.961531 1.220177 0.413222 0.000000 0.000000 0.000000
0.964677 1.219573 0.419955 0.000000 0.000000 0.000000
0.964829 1.290124 0.450425 0.000000 0.000000 0.000000
0.936766 1.197407 0.391157 0.000000 0.000000 0.000000
0.927043 1.199545 0.393383 0.000000 0.000000 0.000000
0.963268 1.244245 0.425526 0.000000 0.000000 0.000000
0.993430 1.293522 0.483601 0.000000 0.000000 0.000000
0.943715 1.305644 0.458027 0.000000 0.000000 0.000000
0.991166 1.295393 0.493439 0.000000 0.000000 0.000000
0.942670 1.327129 0.477940 0.000000 0.000000 0.000000
0.975905 1.307743 0.476904 0.000000 0.000000 0.000000
0.963413 1.301080 0.459804 0.000000 0.000000 0.000000
0.961844 1.319429 0.477781 0.000000 0.000000 0.000000
0.885914 1.229514 0.383571 0.000000 0.000000 0.000000
0.914607 1.244158 0.404910 0.000000 0.000000 0.000000
0.878891 1.269640 0.396733 0.000000 0.000000 0.000000
0.907063 1.205708 0.380871 0.000000 0.000000 0.000000
0.902623 1.217243 0.391016 0.000000 0.000000 0.000000
0.964598 1.302933 0.459909 0.000000 0.000000 0.000000
0.881788 1.250801 0.387325 0.000000 0.000000 0.000000
0.976914 1.293692 0.457612 0.000000 0.000000 0.000000
0.965514 1.252297 0.433889 0.000000 0.000000 0.000000
0.932028 1.223870 0.404620 0.000000 0.000000 0.000000
0.890266 1.269699 0.401572 0.000000 0.000000 0.000000
0.921357 1.279102 0.421676 0.000000 0.000000 0.000000
0.927901 1.219215 0.404683 0.000000 0.000000 0.000000
0.912269 1.255695 0.408512 0.000000 0.000000 0.000000
0.909788 1.182342 0.400990 0.000000 0.000000 0.000000
0.883328 1.211243 0.383563 0.000000 0.000000 0.000000
0.957120 1.317320 0.474170 0.000000 0.000000 0.000000
0.958893 1.318125 0.472601 0.000000 0.000000 0.000000
0.947418 1.317334 0.473105 0.000000 0.000000 0.000000
0.973880 1.269028 0.444653 0.000000 0.000000 0.000000
0.870876 1.170430 0.368768 0.000000 0.000000 0.000000
0.847250 1.184298 0.377956 0.000000 0.000000 0.000000
0.850510 1.248556 0.386669 0.000000 0.000000 0.000000
0.953570 1.315568 0.461101 0.000000 0.000000 0.000000
0.992047 1.239349 0.437915 0.000000 0.000000 0.000000
0.984414 1.300115 0.480639 0.000000 0.000000 0.000000
0.965302 1.314355 0.467008 0.000000 0.000000 0.000000
0.964022 1.312075 0.463168 0.000000 0.000000 0.000000
0.903440 1.207923 0.389329 0.000000 0.000000 0.000000
0.870015 1.279962 0.399992 0.000000 0.000000 0.000000
0.863106 1.200570 0.367297 0.000000 0.000000 0.000000
0.912390 1.212518 0.389595 0.000000 0.000000 0.000000
0.964500 1.310273 0.460224 0.000000 0.000000 0.000000
0.886169 1.257733 0.394310 0.000000 0.000000 0.000000
0.980704 1.251938 0.442070 0.000000 0.000000 0.000000
0.883862 1.262033 0.396260 0.000000 0.000000 0.000000
0.925221 1.205207 0.392038 0.000000 0.000000 0.000000
0.907640 1.254437 0.404386 0.000000 0.000000 0.000000
0.906296 1.271608 0.409393 0.000000 0.000000 0.000000
0.953683 1.297238 0.453011 0.000000 0.000000 0.000000
0.936770 1.201724 0.397284 0.000000 0.000000 0.000000
0.857089 1.216390 0.379559 0.000000 0.000000 0.000000
0.930647 1.270017 0.422174 0.000000 0.000000 0.000000
0.928405 1.261758 0.415631 0.000000 0.000000 0.000000
0.858885 1.210819 0.370461 0.000000 0.000000 0.000000
0.920243 1.216248 0.394775 0.000000 0.000000 0.000000
0.910314 1.239812 0.396190 0.000000 0.000000 0.000000
0.907656 1.188546 0.409153 0.000000 0.000000 0.000000
0.957941 1.309055 0.465324 0.000000 0.000000 0.000000
0.960492 1.316020 0.480190 0.000000 0.000000 0.000000
0.941267 1.316272 0.471697 0.000000 0.000000 0.000000
0.979843 1.279271 0.456637 0.000000 0.000000 0.000000
0.868616 1.166384 0.372371 0.000000 0.000000 0.000000
0.868431 1.170597 0.370387 0.000000 0.000000 0.000000
0.914799 1.211789 0.391844 0.000000 0.000000 0.000000
0.978553 1.279174 0.454613 0.000000 0.000000 0.000000
0.984282 1.267289 0.454703 0.000000 0.000000 0.000000
0.946274 1.296339 0.451285 0.000000 0.000000 0.000000
0.986233 1.242891 0.442519 0.000000 0.000000 0.000000
0.993629 1.289337 0.476493 0.000000 0.000000 0.000000
0.972178 1.239471 0.436550 0.000000 0.000000 0.000000
0.881890 1.181390 0.374208 0.000000 0.000000 0.000000
0.940561 1.310148 0.460630 0.000000 0.000000 0.000000
0.873341 1.258230 0.394318 0.000000 0.000000 0.000000
0.880687 1.203695 0.374266 0.000000 0.000000 0.000000
0.885108 1.194765 0.381310 0.000000 0.000000 0.000000
0.849086 1.225205 0.371004 0.000000 0.000000 0.000000
0.985754 1.260604 0.452566 0.000000 0.000000 0.000000
0.849902 1.264204 0.392317 0.000000 0.000000 0.000000
0.976993 1.239325 0.432648 0.000000 0.000000 0.000000
0.872658 1.276322 0.395991 0.000000 0.000000 0.000000
0.901395 1.237581 0.390623 0.000000 0.000000 0.000000
0.871912 1.218079 0.377994 0.000000 0.000000 0.000000
0.848393 1.168770 0.361164 0.000000 0.000000 0.000000
0.887669 1.212600 0.378633 0.000000 0.000000 0.000000
0.877942 1.286272 0.408459 0.000000 0.000000 0.000000
0.866098 1.208548 0.373350 0.000000 0.000000 0.000000
0.877948 1.261484 0.391335 0.000000 0.000000 0.000000
0.891232 1.186114 0.379533 0.000000 0.000000 0.000000
0.843013 1.220730 0.374980 0.000000 0.000000 0.000000
0.889602 1.244999 0.388905 0.000000 0.000000 0.000000
0.870410 1.234165 0.384403 0.000000 0.000000 0.000000
0.891287 1.208782 0.390465 0.000000 0.000000 0.000000
0.846855 1.237092 0.381157 0.000000 0.000000 0.000000
0.987945 1.262206 0.457370 0.000000 0.000000 0.000000
0.914631 1.304678 0.431931 0.000000 0.000000 0.000000
0.976753 1.250256 0.442210 0.000000 0.000000 0.000000
0.940214 1.217561 0.401396 0.000000 0.000000 0.000000
0.856922 1.267011 0.396496 0.000000 0.000000 0.000000
0.884467 1.181263 0.379790 0.000000 0.000000 0.000000
0.896821 1.302078 0.423324 0.000000 0.000000 0.000000
0.862784 1.223672 0.373697 0.000000 0.000000 0.000000
0.862833 1.194046 0.369871 0.000000 0.000000 0.000000
0.854315 1.261680 0.387602 0.000000 0.000000 0.000000
0.898941 1.260873 0.402234 0.000000 0.000000 0.000000
0.867008 1.190951 0.375055 0.000000 0.000000 0.000000
0.858582 1.238636 0.378504 0.000000 0.000000 0.000000
0.867614 1.218673 0.372541 0.000000 0.000000 0.000000
0.869188 1.251723 0.388615 0.000000 0.000000 0.000000
0.843281 1.201314 0.364719 0.000000 0.000000 0.000000
0.850668 1.161157 0.369886 0.000000 0.000000 0.000000
0.947274 1.303752 0.460198 0.000000 0.000000 0.000000
0.913424 1.308699 0.429829 0.000000 0.000000 0.000000
0.951389 1.326680 0.476933 0.000000 0.000000 0.000000
0.890493 1.301504 0.422026 0.000000 0.000000 0.000000
0.851495 1.274426 0.398613 0.000000 0.000000 0.000000
0.899670 1.290751 0.418129 0.000000 0.000000 0.000000
0.993871 1.263079 0.457279 0.000000 0.000000 0.000000
0.952211 1.303150 0.460065 0.000000 0.000000 0.000000
0.936718 1.299074 0.454483 0.000000 0.000000 0.000000
0.927838 1.203999 0.395972 0.000000 0.000000 0.000000
0.976012 1.239433 0.425583 0.000000 0.000000 0.000000
0.938786 1.301211 0.458418 0.000000 0.000000 0.000000
0.940973 1.298853 0.452947 0.000000 0.000000 0.000000
0.916304 1.211831 0.395671 0.000000 0.000000 0.000000
0.939767 1.305395 0.464445 0.000000 0.000000 0.000000
0.986961 1.324588 0.494475 0.000000 0.000000 0.000000
0.871944 1.183500 0.376736 0.000000 0.000000 0.000000
0.918071 1.304444 0.433664 0.000000 0.000000 0.000000
0.907661 1.282515 0.423168 0.000000 0.000000 0.000000
0.942292 1.311244 0.465739 0.000000 0.000000 0.000000
0.957683 1.214662 0.402675 0.000000 0.000000 0.000000
0.912693 1.181356 0.378111 0.000000 0.000000 0.000000
0.901192 1.304028 0.427249 0.000000 0.000000 0.000000
0.896738 1.190471 0.379942 0.000000 0.000000 0.000000
0.936381 1.276100 0.437030 0.000000 0.000000 0.000000
0.948184 1.205392 0.405984 0.000000 0.000000 0.000000
0.913471 1.297363 0.427752 0.000000 0.000000 0.000000
0.878000 1.171067 0.368121 0.000000 0.000000 0.000000
0.943138 1.194149 0.400392 0.000000 0.000000 0.000000
0.865136 1.282608 0.403733 0.000000 0.000000 0.000000
0.924146 1.280847 0.424395 0.000000 0.000000 0.000000
0.895996 1.177030 0.380903 0.000000 0.000000 0.000000
0.911410 1.205672 0.387261 0.000000 0.000000 0.000000
0.880527 1.273854 0.397955 0.000000 0.000000 0.000000
0.897832 1.295066 0.419352 0.000000 0.000000 0.000000
0.892897 1.289373 0.415784 0.000000 0.000000 0.000000
0.907340 1.271501 0.413637 0.000000 0.000000 0.000000
0.915351 1.198016 0.381858 0.000000 0.000000 0.000000
0.877136 1.174058 0.375487 0.000000 0.000000 0.000000
0.901280 1.196152 0.385092 0.000000 0.000000 0.000000
0.900045 1.191663 0.383072 0.000000 0.000000 0.000000
0.933603 1.269995 0.426125 0.000000 0.000000 0.000000
0.939189 1.209175 0.403088 0.000000 0.000000 0.000000
0.907400 1.299268 0.426457 0.000000 0.000000 0.000000
0.914473 1.185616 0.383999 0.000000 0.000000 0.000000
0.940284 1.195081 0.408508 0.000000 0.000000 0.000000
0.933608 1.306279 0.436975 0.000000 0.000000 0.000000
0.898379 1.201376 0.386265 0.000000 0.000000 0.000000
0.928974 1.202179 0.394536 0.000000 0.000000 0.000000
0.883424 1.284381 0.407801 0.000000 0.000000 0.000000
0.877161 1.274986 0.401930 0.000000 0.000000 0.000000
0.933366 1.274225 0.425432 0.000000 0.000000 0.000000
0.894775 1.276668 0.408409 0.000000 0.000000 0.000000
0.913429 1.186161 0.379750 0.000000 0.000000 0.000000
0.850857 1.242524 0.377710 0.000000 0.000000 0.000000
0.926609 1.191125 0.387816 0.000000 0.000000 0.000000
0.939144 1.185199 0.394086 0.000000 0.000000 0.000000
0.846610 1.236654 0.375972 0.000000 0.000000 0.000000
0.915627 1.173745 0.382226 0.000000 0.000000 0.000000
0.901502 1.177549 0.370984 0.000000 0.000000 0.000000
0.919535 1.181652 0.381498 0.000000 0.000000 0.000000
0.940549 1.316477 0.472317 0.000000 0.000000 0.000000
0.937873 1.310919 0.465550 0.000000 0.000000 0.000000
0.955014 1.278452 0.437877 0.000000 0.000000 0.000000
0.980696 1.281090 0.459161 0.000000 0.000000 0.000000
0.978791 1.251627 0.452155 0.000000 0.000000 0.000000
0.896646 1.187083 0.382066 0.000000 0.000000 0.000000
0.845035 1.216874 0.369538 0.000000 0.000000 0.000000
0.953642 1.295824 0.452190 0.000000 0.000000 0.000000
0.852890 1.224704 0.374192 0.000000 0.000000 0.000000
0.965600 1.306338 0.467943 0.000000 0.000000 0.000000
0.847468 1.236365 0.376436 0.000000 0.000000 0.000000
0.963550 1.283821 0.444132 0.000000 0.000000 0.000000
0.981586 1.252778 0.445686 0.000000 0.000000 0.000000
0.973894 1.245086 0.435836 0.000000 0.000000 0.000000
0.975441 1.241858 0.448099 0.000000 0.000000 0.000000
0.915918 1.176747 0.378037 0.000000 0.000000 0.000000
0.841231 1.226642 0.368338 0.000000 0.000000 0.000000
0.850471 1.221484 0.371192 0.000000 0.000000 0.000000
0.852761 1.232983 0.378596 0.000000 0.000000 0.000000
0.952600 1.310431 0.467560 0.000000 0.000000 0.000000
0.995939 1.279206 0.463878 0.000000 0.000000 0.000000
0.939205 1.311968 0.465885 0.000000 0.000000 0.000000
0.985430 1.263536 0.449236 0.000000 0.000000 0.000000
0.992986 1.274344 0.461028 0.000000 0.000000 0.000000
0.944766 1.297044 0.440486 0.000000 0.000000 0.000000
0.996094 1.284211 0.474247 0.000000 0.000000 0.000000
0.991864 1.268154 0.466351 0.000000 0.000000 0.000000
0.853510 1.234951 0.382618 0.000000 0.000000 0.000000
1.000155 1.303986 0.492796 0.000000 0.000000 0.000000
0.905622 1.174353 0.380164 0.000000 0.000000 0.000000
0.951232 1.323335 0.477123 0.000000 0.000000 0.000000
0.904088 1.170834 0.379682 0.000000 0.000000 0.000000
0.901750 1.179660 0.376656 0.000000 0.000000 0.000000
0.937048 1.223632 0.408726 0.000000 0.000000 0.000000
0.999377 1.301796 0.496390 0.000000 0.000000 0.000000
0.950943 1.211540 0.395676 0.000000 0.000000 0.000000
0.939451 1.195426 0.389982 0.000000 0.000000 0.000000
0.974163 1.227279 0.430606 0.000000 0.000000 0.000000
0.999641 1.303670 0.493560 0.000000 0.000000 0.000000
0.951178 1.211045 0.395843 0.000000 0.000000 0.000000
0.944304 1.209348 0.407299 0.000000 0.000000 0.000000
0.975419 1.232349 0.427415 0.000000 0.000000 0.000000
0.864121 1.283723 0.409163 0.000000 0.000000 0.000000
0.896100 1.307710 0.428869 0.000000 0.000000 0.000000
0.989106 1.270627 0.463402 0.000000 0.000000 0.000000
0.914804 1.175659 0.384517 0.000000 0.000000 0.000000
0.996398 1.262089 0.457287 0.000000 0.000000 0.000000
0.981182 1.235261 0.436922 0.000000 0.000000 0.000000
0.972506 1.238914 0.433087 0.000000 0.000000 0.000000
1.004359 1.278369 0.476831 0.000000 0.000000 0.000000
0.996562 1.302349 0.487761 0.000000 0.000000 0.000000
0.898437 1.296108 0.418709 0.000000 0.000000 0.000000
0.992561 1.273419 0.460808 0.000000 0.000000 0.000000
0.989877 1.241087 0.438793 0.000000 0.000000 0.000000
0.923007 1.184848 0.392901 0.000000 0.000000 0.000000
0.975578 1.255382 0.441818 0.000000 0.000000 0.000000
0.904701 1.303127 0.429203 0.000000 0.000000 0.000000
0.936518 1.305005 0.462804 0.000000 0.000000 0.000000
0.885471 1.290777 0.410827 0.000000 0.000000 0.000000
0.990447 1.262913 0.461619 0.000000 0.000000 0.000000
0.966273 1.239136 0.434053 0.000000 0.000000 0.000000
0.922366 1.192217 0.387204 0.000000 0.000000 0.000000
0.917473 1.181992 0.387668 0.000000 0.000000 0.000000
0.902643 1.304804 0.426864 0.000000 0.000000 0.000000
0.927017 1.187769 0.387575 0.000000 0.000000 0.000000
0.938244 1.302566 0.460472 0.000000 0.000000 0.000000
0.991192 1.263822 0.457236 0.000000 0.000000 0.000000
0.870091 1.265337 0.394191 0.000000 0.000000 0.000000
0.993585 1.308390 0.497170 0.000000 0.000000 0.000000
0.937582 1.288680 0.438393 0.000000 0.000000 0.000000
0.945833 1.307135 0.441413 0.000000 0.000000 0.000000
0.883073 1.172279 0.368766 0.000000 0.000000 0.000000
0.997649 1.278380 0.472057 0.000000 0.000000 0.000000
0.932687 1.302346 0.438947 0.000000 0.000000 0.000000
0.921185 1.305557 0.430320 0.000000 0.000000 0.000000
0.882729 1.255561 0.392053 0.000000 0.000000 0.000000
0.905062 1.190500 0.381910 0.000000 0.000000 0.000000
0.896904 1.175926 0.373728 0.000000 0.000000 0.000000
0.844330 1.256601 0.380056 0.000000 0.000000 0.000000
0.881754 1.288095 0.408486 0.000000 0.000000 0.000000
0.998787 1.292073 0.481074 0.000000 0.000000 0.000000
0.861997 1.268694 0.396216 0.000000 0.000000 0.000000
0.937124 1.309181 0.432247 0.000000 0.000000 0.000000
0.874331 1.185279 0.370944 0.000000 0.000000 0.000000
0.883432 1.166759 0.369335 0.000000 0.000000 0.000000
0.993700 1.281381 0.472486 0.000000 0.000000 0.000000
0.937961 1.297141 0.438933 0.000000 0.000000 0.000000
0.852383 1.244289 0.383569 0.000000 0.000000 0.000000
0.900976 1.187888 0.380881 0.000000 0.000000 0.000000
0.870334 1.168995 0.374801 0.000000 0.000000 0.000000
0.872810 1.278976 0.401914 0.000000 0.000000 0.000000
0.964139 1.222622 0.441072 0.000000 0.000000 0.000000
0.999910 1.284371 0.482489 0.000000 0.000000 0.000000
0.856495 1.160811 0.371245 0.000000 0.000000 0.000000
0.989099 1.308299 0.498314 0.000000 0.000000 0.000000
0.905030 1.297899 0.420306 0.000000 0.000000 0.000000
0.972700 1.320569 0.493164 0.000000 0.000000 0.000000
0.983320 1.318944 0.498215 0.000000 0.000000 0.000000
0.988775 1.308676 0.485228 0.000000 0.000000 0.000000
0.976277 1.319844 0.492939 0.000000 0.000000 0.000000
0.911640 1.305964 0.427145 0.000000 0.000000 0.000000
0.925514 1.302171 0.421914 0.000000 0.000000 0.000000
0.844333 1.165259 0.384129 0.000000 0.000000 0.000000
0.912784 1.302147 0.420567 0.000000 0.000000 0.000000
0.985861 1.300496 0.493639 0.000000 0.000000 0.000000
0.984745 1.318271 0.491478 0.000000 0.000000 0.000000
0.870850 1.269039 0.397207 0.000000 0.000000 0.000000
0.860437 1.253848 0.388778 0.000000 0.000000 0.000000
0.919465 1.303016 0.421777 0.000000 0.000000 0.000000
0.918697 1.291662 0.422223 0.000000 0.000000 0.000000
0.992355 1.302228 0.496908 0.000000 0.000000 0.000000
0.984694 1.320297 0.494105 0.000000 0.000000 0.000000
0.872795 1.261892 0.391303 0.000000 0.000000 0.000000
0.856312 1.258267 0.389458 0.000000 0.000000 0.000000
0.998951 1.295882 0.492301 0.000000 0.000000 0.000000
0.995039 1.274613 0.462566 0.000000 0.000000 0.000000
0.956235 1.319273 0.474301 0.000000 0.000000 0.000000
0.924876 1.304140 0.438536 0.000000 0.000000 0.000000
0.926911 1.304088 0.440332 0.000000 0.000000 0.000000
0.933079 1.300043 0.450232 0.000000 0.000000 0.000000
0.847976 1.276540 0.388020 0.000000 0.000000 0.000000
0.996359 1.284821 0.477277 0.000000 0.000000 0.000000
0.931841 1.300625 0.440858 0.000000 0.000000 0.000000
0.937984 1.297931 0.445801 0.000000 0.000000 0.000000
0.946303 1.204618 0.393583 0.000000 0.000000 0.000000
0.992724 1.298648 0.480349 0.000000 0.000000 0.000000
0.932802 1.300163 0.446289 0.000000 0.000000 0.000000
0.899572 1.301996 0.420005 0.000000 0.000000 0.000000
0.907323 1.308876 0.434075 0.000000 0.000000 0.000000
0.901714 1.307562 0.434843 0.000000 0.000000 0.000000
0.896584 1.307208 0.426934 0.000000 0.000000 0.000000
0.894930 1.301770 0.427299 0.000000 0.000000 0.000000
1.000641 1.270177 0.460100 0.000000 0.000000 0.000000
0.944976 1.200912 0.400944 0.000000 0.000000 0.000000
0.966779 1.294594 0.451250 0.000000 0.000000 0.000000
0.990879 1.279753 0.448818 0.000000 0.000000 0.000000
0.992058 1.286297 0.471940 0.000000 0.000000 0.000000
0.945213 1.215818 0.406849 0.000000 0.000000 0.000000
0.944519 1.202840 0.399304 0.000000 0.000000 0.000000
0.939175 1.202016 0.397061 0.000000 0.000000 0.000000
0.895459 1.303850 0.420857 0.000000 0.000000 0.000000
0.979329 1.288383 0.456467 0.000000 0.000000 0.000000
0.988682 1.273376 0.450860 0.000000 0.000000 0.000000
0.985807 1.282081 0.463653 0.000000 0.000000 0.000000
0.941554 1.201244 0.393565 0.000000 0.000000 0.000000
0.936563 1.195147 0.398749 0.000000 0.000000 0.000000
0.890171 1.301250 0.421407 0.000000 0.000000 0.000000
0.877343 1.291015 0.409245 0.000000 0.000000 0.000000
0.980506 1.281419 0.442990 0.000000 0.000000 0.000000
0.910119 1.286226 0.421051 0.000000 0.000000 0.000000
0.985334 1.255142 0.451623 0.000000 0.000000 0.000000
0.879175 1.303781 0.418942 0.000000 0.000000 0.000000
0.879150 1.297310 0.412700 0.000000 0.000000 0.000000
0.920857 1.170530 0.382755 0.000000 0.000000 0.000000
0.929822 1.302706 0.442746 0.000000 0.000000 0.000000
0.881060 1.283261 0.404008 0.000000 0.000000 0.000000
0.897836 1.291161 0.418254 0.000000 0.000000 0.000000
0.891744 1.298018 0.414866 0.000000 0.000000 0.000000
0.886222 1.300445 0.419079 0.000000 0.000000 0.000000
0.942465 1.299761 0.437497 0.000000 0.000000 0.000000
0.884363 1.280036 0.404233 0.000000 0.000000 0.000000
0.887957 1.298622 0.418179 0.000000 0.000000 0.000000
0.980122 1.263805 0.446883 0.000000 0.000000 0.000000
0.948866 1.297103 0.442072 0.000000 0.000000 0.000000
0.881541 1.290070 0.405151 0.000000 0.000000 0.000000
0.950955 1.312388 0.454655 0.000000 0.000000 0.000000
0.931955 1.303678 0.436983 0.000000 0.000000 0.000000
0.993289 1.246701 0.446640 0.000000 0.000000 0.000000
0.944969 1.291345 0.440239 0.000000 0.000000 0.000000
0.988025 1.257738 0.453793 0.000000 0.000000 0.000000
0.868748 1.285524 0.412159 0.000000 0.000000 0.000000
0.934724 1.278831 0.428454 0.000000 0.000000 0.000000
0.890067 1.289758 0.413352 0.000000 0.000000 0.000000
0.892245 1.303381 0.422564 0.000000 0.000000 0.000000
0.970447 1.304386 0.492342 0.000000 0.000000 0.000000
0.900452 1.300235 0.412971 0.000000 0.000000 0.000000
0.934163 1.301009 0.435550 0.000000 0.000000 0.000000
0.937275 1.295201 0.432868 0.000000 0.000000 0.000000
0.989734 1.260249 0.454719 0.000000 0.000000 0.000000
0.962612 1.226237 0.413125 0.000000 0.000000 0.000000
0.960089 1.223755 0.416825 0.000000 0.000000 0.000000
0.932105 1.212892 0.402461 0.000000 0.000000 0.000000
0.957377 1.226592 0.416621 0.000000 0.000000 0.000000
0.859493 1.173351 0.370986 0.000000 0.000000 0.000000
0.969625 1.228083 0.420572 0.000000 0.000000 0.000000
0.955648 1.322830 0.469966 0.000000 0.000000 0.000000
0.965563 1.233577 0.424513 0.000000 0.000000 0.000000
0.962516 1.233626 0.422441 0.000000 0.000000 0.000000
0.969633 1.226947 0.423976 0.000000 0.000000 0.000000
0.869970 1.193570 0.375270 0.000000 0.000000 0.000000
0.941358 1.186843 0.399439 0.000000 0.000000 0.000000
1.002319 1.292898 0.491749 0.000000 0.000000 0.000000
0.843921 1.189686 0.363631 0.000000 0.000000 0.000000
0.954722 1.237211 0.423320 0.000000 0.000000 0.000000
0.966882 1.251506 0.434219 0.000000 0.000000 0.000000
0.951421 1.230565 0.415749 0.000000 0.000000 0.000000
0.854470 1.164493 0.360831 0.000000 0.000000 0.000000
0.949666 1.319667 0.473532 0.000000 0.000000 0.000000
0.967291 1.230143 0.423686 0.000000 0.000000 0.000000
0.971877 1.247424 0.432969 0.000000 0.000000 0.000000
0.973660 1.238395 0.429676 0.000000 0.000000 0.000000
0.856845 1.177390 0.365425 0.000000 0.000000 0.000000
1.001602 1.293327 0.485851 0.000000 0.000000 0.000000
0.952728 1.323637 0.475528 0.000000 0.000000 0.000000
0.936394 1.316754 0.474054 0.000000 0.000000 0.000000
0.942434 1.321264 0.472803 0.000000 0.000000 0.000000
0.943939 1.317649 0.469896 0.000000 0.000000 0.000000
0.943403 1.202408 0.404777 0.000000 0.000000 0.000000
0.996191 1.303413 0.502025 0.000000 0.000000 0.000000
0.894137 1.302262 0.426685 0.000000 0.000000 0.000000
0.945317 1.321503 0.473008 0.000000 0.000000 0.000000
0.956131 1.287970 0.442909 0.000000 0.000000 0.000000
0.945815 1.295637 0.439565 0.000000 0.000000 0.000000
0.907116 1.306854 0.431486 0.000000 0.000000 0.000000
0.999500 1.264638 0.463102 0.000000 0.000000 0.000000
0.962918 1.299150 0.453475 0.000000 0.000000 0.000000
0.960987 1.303694 0.450348 0.000000 0.000000 0.000000
0.945021 1.303970 0.451481 0.000000 0.000000 0.000000
0.972338 1.283674 0.449769 0.000000 0.000000 0.000000
0.952816 1.318458 0.463407 0.000000 0.000000 0.000000
0.900109 1.306346 0.429501 0.000000 0.000000 0.000000
0.948114 1.296227 0.443829 0.000000 0.000000 0.000000
0.954777 1.305703 0.454457 0.000000 0.000000 0.000000
0.947350 1.305511 0.448528 0.000000 0.000000 0.000000
0.959749 1.218307 0.410090 0.000000 0.000000 0.000000
0.951810 1.322518 0.471039 0.000000 0.000000 0.000000
0.961895 1.219984 0.414129 0.000000 0.000000 0.000000
0.954712 1.216409 0.409871 0.000000 0.000000 0.000000
0.939149 1.249403 0.417568 0.000000 0.000000 0.000000
0.959520 1.230017 0.419733 0.000000 0.000000 0.000000
0.962255 1.218792 0.407001 0.000000 0.000000 0.000000
0.875866 1.166799 0.369629 0.000000 0.000000 0.000000
0.958926 1.216382 0.408767 0.000000 0.000000 0.000000
0.870659 1.162098 0.367026 0.000000 0.000000 0.000000
0.952143 1.219837 0.409537 0.000000 0.000000 0.000000
0.868439 1.282662 0.411662 0.000000 0.000000 0.000000
0.942059 1.231746 0.414412 0.000000 0.000000 0.000000
0.958660 1.224514 0.415574 0.000000 0.000000 0.000000
0.953282 1.221106 0.416493 0.000000 0.000000 0.000000
0.955990 1.215343 0.409135 0.000000 0.000000 0.000000
0.868636 1.198322 0.373847 0.000000 0.000000 0.000000
0.952484 1.222643 0.414783 0.000000 0.000000 0.000000
0.881287 1.272863 0.400056 0.000000 0.000000 0.000000
0.900574 1.307550 0.427608 0.000000 0.000000 0.000000
0.955235 1.222286 0.414109 0.000000 0.000000 0.000000
0.913549 1.175238 0.377188 0.000000 0.000000 0.000000
0.916732 1.170899 0.382143 0.000000 0.000000 0.000000
0.906783 1.173898 0.378331 0.000000 0.000000 0.000000
0.915140 1.177643 0.374585 0.000000 0.000000 0.000000
0.956046 1.223050 0.417578 0.000000 0.000000 0.000000
0.956692 1.219406 0.411116 0.000000 0.000000 0.000000
0.951904 1.221811 0.416028 0.000000 0.000000 0.000000
0.916486 1.179035 0.385864 0.000000 0.000000 0.000000
0.953585 1.216542 0.408020 0.000000 0.000000 0.000000
0.957231 1.216934 0.414762 0.000000 0.000000 0.000000
0.959010 1.219743 0.416177 0.000000 0.000000 0.000000
0.912712 1.180864 0.377150 0.000000 0.000000 0.000000
0.995094 1.306621 0.505450 0.000000 0.000000 0.000000
0.893872 1.300867 0.414865 0.000000 0.000000 0.000000
0.987493 1.258984 0.457581 0.000000 0.000000 0.000000
0.887731 1.294112 0.409546 0.000000 0.000000 0.000000
0.992543 1.273922 0.471775 0.000000 0.000000 0.000000
0.913570 1.171484 0.380517 0.000000 0.000000 0.000000
0.910464 1.171158 0.375459 0.000000 0.000000 0.000000
0.920897 1.171657 0.388912 0.000000 0.000000 0.000000
0.852680 1.269160 0.396581 0.000000 0.000000 0.000000
0.909775 1.189123 0.376378 0.000000 0.000000 0.000000
0.911496 1.175524 0.379945 0.000000 0.000000 0.000000
0.915455 1.181191 0.384409 0.000000 0.000000 0.000000
0.997448 1.297004 0.495806 0.000000 0.000000 0.000000
1.004164 1.273913 0.471290 0.000000 0.000000 0.000000
0.919297 1.172775 0.382938 0.000000 0.000000 0.000000
0.905727 1.182323 0.385258 0.000000 0.000000 0.000000
0.907705 1.189278 0.382799 0.000000 0.000000 0.000000
0.866181 1.235058 0.380113 0.000000 0.000000 0.000000
0.858320 1.277918 0.402945 0.000000 0.000000 0.000000
0.989734 1.258297 0.455514 0.000000 0.000000 0.000000
0.851454 1.268492 0.390327 0.000000 0.000000 0.000000
0.895019 1.178495 0.374397 0.000000 0.000000 0.000000
0.863184 1.263050 0.391131 0.000000 0.000000 0.000000
0.855306 1.277465 0.400713 0.000000 0.000000 0.000000
0.994389 1.253709 0.452418 0.000000 0.000000 0.000000
0.849598 1.249327 0.378216 0.000000 0.000000 0.000000
0.852419 1.267778 0.389921 0.000000 0.000000 0.000000
0.992158 1.306723 0.496408 0.000000 0.000000 0.000000
0.952415 1.321211 0.478005 0.000000 0.000000 0.000000
0.954566 1.327061 0.474795 0.000000 0.000000 0.000000
0.992079 1.302238 0.492982 0.000000 0.000000 0.000000
0.948470 1.310644 0.453695 0.000000 0.000000 0.000000
0.848211 1.275067 0.392786 0.000000 0.000000 0.000000
0.950520 1.315268 0.462471 0.000000 0.000000 0.000000
0.871710 1.261237 0.393640 0.000000 0.000000 0.000000
0.952699 1.309489 0.453415 0.000000 0.000000 0.000000
0.949774 1.310378 0.452967 0.000000 0.000000 0.000000
0.843876 1.263206 0.386447 0.000000 0.000000 0.000000
0.847250 1.281387 0.401104 0.000000 0.000000 0.000000
0.947775 1.309416 0.458221 0.000000 0.000000 0.000000
0.859720 1.256892 0.385513 0.000000 0.000000 0.000000
0.946746 1.306625 0.448552 0.000000 0.000000 0.000000
0.949556 1.307590 0.450099 0.000000 0.000000 0.000000
0.886058 1.161603 0.367631 0.000000 0.000000 0.000000
0.848521 1.260115 0.387705 0.000000 0.000000 0.000000
0.974275 1.321345 0.495408 0.000000 0.000000 0.000000
0.940438 1.198455 0.395630 0.000000 0.000000 0.000000
0.902759 1.184003 0.387476 0.000000 0.000000 0.000000
0.892521 1.294333 0.411869 0.000000 0.000000 0.000000
0.891871 1.306549 0.425860 0.000000 0.000000 0.000000
0.892264 1.305919 0.422427 0.000000 0.000000 0.000000
0.958270 1.216970 0.411544 0.000000 0.000000 0.000000
0.914988 1.184794 0.377538 0.000000 0.000000 0.000000
0.887775 1.297343 0.413766 0.000000 0.000000 0.000000
0.907099 1.305274 0.428993 0.000000 0.000000 0.000000
0.897431 1.303667 0.419896 0.000000 0.000000 0.000000
0.888031 1.301558 0.418609 0.000000 0.000000 0.000000
0.967111 1.316691 0.481165 0.000000 0.000000 0.000000
0.982707 1.251322 0.445999 0.000000 0.000000 0.000000
0.978408 1.241435 0.439789 0.000000 0.000000 0.000000
0.952274 1.210896 0.403409 0.000000 0.000000 0.000000
0.996068 1.279206 0.469535 0.000000 0.000000 0.000000
0.978349 1.237994 0.439344 0.000000 0.000000 0.000000
0.948815 1.205090 0.402620 0.000000 0.000000 0.000000
0.997424 1.276592 0.466792 0.000000 0.000000 0.000000
1.005044 1.312399 0.499682 0.000000 0.000000 0.000000
0.948485 1.326012 0.480637 0.000000 0.000000 0.000000
0.926498 1.187018 0.392250 0.000000 0.000000 0.000000
0.991629 1.279941 0.475354 0.000000 0.000000 0.000000
