ply
format ascii 1.0
comment VCGLIB generated
obj_info Generated by SPFormer!
element vertex 694
property float x
property float y
property float z
property float nx
property float ny
property float nz
end_header
0.205134 0.889784 2.715210 0.000000 0.000000 0.000000
0.220057 0.877044 2.705112 0.000000 0.000000 0.000000
0.212942 0.870053 2.711854 0.000000 0.000000 0.000000
0.232873 0.863264 2.722253 0.000000 0.000000 0.000000
0.196999 0.893397 2.717247 0.000000 0.000000 0.000000
-0.072398 0.966349 3.557162 0.000000 0.000000 0.000000
-0.070700 0.971961 3.557419 0.000000 0.000000 0.000000
0.225762 0.867802 2.726648 0.000000 0.000000 0.000000
0.226028 0.868369 2.731793 0.000000 0.000000 0.000000
-0.094390 0.984026 3.531255 0.000000 0.000000 0.000000
-0.083978 0.980021 3.559916 0.000000 0.000000 0.000000
0.205354 0.890113 2.704893 0.000000 0.000000 0.000000
0.197293 0.902588 2.707186 0.000000 0.000000 0.000000
-0.100603 0.984891 3.537954 0.000000 0.000000 0.000000
0.215063 0.894675 2.715297 0.000000 0.000000 0.000000
-0.089974 0.995128 3.561516 0.000000 0.000000 0.000000
0.197592 0.904376 2.712395 0.000000 0.000000 0.000000
-0.073592 0.959985 3.549011 0.000000 0.000000 0.000000
0.217734 0.876899 2.733072 0.000000 0.000000 0.000000
0.222771 0.870672 2.733400 0.000000 0.000000 0.000000
-0.073213 0.960675 3.562731 0.000000 0.000000 0.000000
-0.075756 0.967009 3.557916 0.000000 0.000000 0.000000
0.224459 0.883380 2.724108 0.000000 0.000000 0.000000
-0.091229 0.992137 3.556584 0.000000 0.000000 0.000000
-0.091678 0.995348 3.566800 0.000000 0.000000 0.000000
-0.073574 0.983789 3.570615 0.000000 0.000000 0.000000
0.213765 0.886449 2.717431 0.000000 0.000000 0.000000
0.195622 0.901470 2.711132 0.000000 0.000000 0.000000
0.152541 0.926369 2.712153 0.000000 0.000000 0.000000
-0.100896 0.987639 3.535559 0.000000 0.000000 0.000000
0.194706 0.909740 2.699086 0.000000 0.000000 0.000000
0.200615 0.895970 2.722940 0.000000 0.000000 0.000000
-0.086624 0.978544 3.549808 0.000000 0.000000 0.000000
0.195169 0.889997 2.713400 0.000000 0.000000 0.000000
0.202239 0.894969 2.709888 0.000000 0.000000 0.000000
-0.091294 0.987657 3.553213 0.000000 0.000000 0.000000
0.229731 0.860391 2.708946 0.000000 0.000000 0.000000
-0.080450 0.975816 3.555144 0.000000 0.000000 0.000000
-0.067834 0.982844 3.562436 0.000000 0.000000 0.000000
0.096242 0.918462 2.801838 0.000000 0.000000 0.000000
0.184248 0.893019 2.722214 0.000000 0.000000 0.000000
-0.077633 0.966860 3.551700 0.000000 0.000000 0.000000
-0.084310 0.979263 3.552554 0.000000 0.000000 0.000000
-0.092365 0.987630 3.548346 0.000000 0.000000 0.000000
-0.074464 0.971060 3.564746 0.000000 0.000000 0.000000
0.227392 0.858500 2.711776 0.000000 0.000000 0.000000
0.240084 0.852823 2.706156 0.000000 0.000000 0.000000
0.220765 0.870226 2.728150 0.000000 0.000000 0.000000
0.223605 0.885459 2.712020 0.000000 0.000000 0.000000
0.178597 0.885946 2.726421 0.000000 0.000000 0.000000
-0.077551 0.977804 3.563361 0.000000 0.000000 0.000000
0.127086 0.906501 2.777266 0.000000 0.000000 0.000000
0.175508 0.898267 2.733187 0.000000 0.000000 0.000000
-0.083789 0.979576 3.557033 0.000000 0.000000 0.000000
0.211679 0.893240 2.711635 0.000000 0.000000 0.000000
0.129333 0.918742 2.789714 0.000000 0.000000 0.000000
-0.083706 0.977562 3.553411 0.000000 0.000000 0.000000
-0.098523 0.998395 3.532373 0.000000 0.000000 0.000000
-0.089582 0.978895 3.538540 0.000000 0.000000 0.000000
0.223607 0.864710 2.710319 0.000000 0.000000 0.000000
0.234913 0.856147 2.706066 0.000000 0.000000 0.000000
0.212884 0.876426 2.707891 0.000000 0.000000 0.000000
0.171884 0.889996 2.730763 0.000000 0.000000 0.000000
0.171898 0.897241 2.727500 0.000000 0.000000 0.000000
0.222600 0.885984 2.720311 0.000000 0.000000 0.000000
0.188762 0.896612 2.727234 0.000000 0.000000 0.000000
-0.075536 0.957182 3.554686 0.000000 0.000000 0.000000
0.202084 0.902762 2.710670 0.000000 0.000000 0.000000
0.175185 0.890805 2.729387 0.000000 0.000000 0.000000
0.152899 0.919288 2.732434 0.000000 0.000000 0.000000
0.224424 0.876477 2.734206 0.000000 0.000000 0.000000
0.176212 0.895302 2.728581 0.000000 0.000000 0.000000
0.210931 0.862856 2.702660 0.000000 0.000000 0.000000
0.222676 0.867530 2.721496 0.000000 0.000000 0.000000
0.193050 0.897811 2.711717 0.000000 0.000000 0.000000
0.221881 0.867771 2.720885 0.000000 0.000000 0.000000
0.211523 0.887244 2.730439 0.000000 0.000000 0.000000
0.215164 0.868320 2.724471 0.000000 0.000000 0.000000
0.226511 0.868666 2.717481 0.000000 0.000000 0.000000
0.209288 0.882823 2.705351 0.000000 0.000000 0.000000
0.229329 0.873222 2.728421 0.000000 0.000000 0.000000
0.228875 0.871950 2.729290 0.000000 0.000000 0.000000
0.094081 0.918776 2.792498 0.000000 0.000000 0.000000
0.226478 0.887627 2.712186 0.000000 0.000000 0.000000
0.219164 0.874487 2.730741 0.000000 0.000000 0.000000
0.219028 0.866693 2.708960 0.000000 0.000000 0.000000
0.230200 0.858040 2.705746 0.000000 0.000000 0.000000
0.195131 0.884614 2.718695 0.000000 0.000000 0.000000
0.202470 0.871726 2.706694 0.000000 0.000000 0.000000
0.216121 0.862925 2.710958 0.000000 0.000000 0.000000
0.224769 0.856351 2.716043 0.000000 0.000000 0.000000
0.235654 0.870311 2.728649 0.000000 0.000000 0.000000
0.190720 0.907100 2.716878 0.000000 0.000000 0.000000
0.156307 0.915485 2.724337 0.000000 0.000000 0.000000
0.198745 0.909027 2.702618 0.000000 0.000000 0.000000
0.125406 0.917455 2.781683 0.000000 0.000000 0.000000
0.190422 0.898819 2.715932 0.000000 0.000000 0.000000
0.192146 0.903198 2.714235 0.000000 0.000000 0.000000
0.199235 0.899508 2.712310 0.000000 0.000000 0.000000
0.197631 0.901996 2.707463 0.000000 0.000000 0.000000
0.230002 0.855107 2.708922 0.000000 0.000000 0.000000
0.195317 0.883575 2.719722 0.000000 0.000000 0.000000
0.193562 0.878044 2.719152 0.000000 0.000000 0.000000
0.187065 0.903808 2.715850 0.000000 0.000000 0.000000
-0.086503 0.983428 3.555850 0.000000 0.000000 0.000000
0.220669 0.880363 2.729960 0.000000 0.000000 0.000000
0.192140 0.891463 2.719734 0.000000 0.000000 0.000000
0.230958 0.857668 2.707920 0.000000 0.000000 0.000000
0.180367 0.891500 2.725058 0.000000 0.000000 0.000000
0.234213 0.864458 2.719004 0.000000 0.000000 0.000000
0.232986 0.855596 2.706332 0.000000 0.000000 0.000000
0.197218 0.910181 2.704765 0.000000 0.000000 0.000000
0.154469 0.918944 2.729233 0.000000 0.000000 0.000000
-0.097507 0.980448 3.533786 0.000000 0.000000 0.000000
0.127622 0.912931 2.783619 0.000000 0.000000 0.000000
0.177919 0.892728 2.727778 0.000000 0.000000 0.000000
0.124014 0.918577 2.780557 0.000000 0.000000 0.000000
0.209197 0.871620 2.708861 0.000000 0.000000 0.000000
0.158594 0.916055 2.727740 0.000000 0.000000 0.000000
0.132752 0.910047 2.786049 0.000000 0.000000 0.000000
0.154911 0.925165 2.715345 0.000000 0.000000 0.000000
0.182916 0.897366 2.730339 0.000000 0.000000 0.000000
-0.094844 0.995659 3.553948 0.000000 0.000000 0.000000
0.225505 0.860382 2.719626 0.000000 0.000000 0.000000
0.199783 0.908922 2.701908 0.000000 0.000000 0.000000
0.189899 0.883018 2.717136 0.000000 0.000000 0.000000
0.186314 0.892065 2.727312 0.000000 0.000000 0.000000
0.157886 0.919485 2.713349 0.000000 0.000000 0.000000
0.122546 0.908253 2.773721 0.000000 0.000000 0.000000
0.215404 0.865018 2.719411 0.000000 0.000000 0.000000
0.181047 0.890027 2.733198 0.000000 0.000000 0.000000
0.206738 0.881225 2.711164 0.000000 0.000000 0.000000
0.098415 0.919178 2.796034 0.000000 0.000000 0.000000
0.188876 0.889817 2.716887 0.000000 0.000000 0.000000
0.171008 0.897572 2.731048 0.000000 0.000000 0.000000
-0.074774 0.963593 3.556612 0.000000 0.000000 0.000000
-0.089025 0.992291 3.560019 0.000000 0.000000 0.000000
0.174190 0.897043 2.728173 0.000000 0.000000 0.000000
-0.091816 0.999825 3.563748 0.000000 0.000000 0.000000
0.169011 0.898406 2.730759 0.000000 0.000000 0.000000
0.200014 0.894928 2.712290 0.000000 0.000000 0.000000
0.196580 0.880084 2.724629 0.000000 0.000000 0.000000
0.234724 0.856237 2.715377 0.000000 0.000000 0.000000
0.240558 0.853456 2.706692 0.000000 0.000000 0.000000
0.232257 0.866766 2.730558 0.000000 0.000000 0.000000
0.210524 0.868117 2.717527 0.000000 0.000000 0.000000
0.190230 0.905658 2.732741 0.000000 0.000000 0.000000
0.228576 0.865526 2.716399 0.000000 0.000000 0.000000
0.239903 0.854380 2.707730 0.000000 0.000000 0.000000
0.195374 0.907050 2.710445 0.000000 0.000000 0.000000
0.190013 0.898855 2.708247 0.000000 0.000000 0.000000
-0.070784 0.962218 3.551053 0.000000 0.000000 0.000000
0.193323 0.907381 2.718081 0.000000 0.000000 0.000000
-0.097422 0.998041 3.551767 0.000000 0.000000 0.000000
0.187341 0.903796 2.719653 0.000000 0.000000 0.000000
0.201419 0.908466 2.710928 0.000000 0.000000 0.000000
0.158356 0.918434 2.724130 0.000000 0.000000 0.000000
0.210492 0.865144 2.711689 0.000000 0.000000 0.000000
-0.075579 0.969620 3.559069 0.000000 0.000000 0.000000
0.209620 0.870705 2.709559 0.000000 0.000000 0.000000
0.221964 0.884648 2.714631 0.000000 0.000000 0.000000
-0.076286 0.961026 3.549038 0.000000 0.000000 0.000000
0.156181 0.913467 2.733235 0.000000 0.000000 0.000000
0.207574 0.869659 2.703964 0.000000 0.000000 0.000000
0.180999 0.888435 2.731658 0.000000 0.000000 0.000000
-0.072270 0.964997 3.556972 0.000000 0.000000 0.000000
0.157903 0.912683 2.733498 0.000000 0.000000 0.000000
0.191286 0.892070 2.724093 0.000000 0.000000 0.000000
0.220663 0.884162 2.704730 0.000000 0.000000 0.000000
-0.082982 0.984235 3.558206 0.000000 0.000000 0.000000
0.192746 0.886701 2.716332 0.000000 0.000000 0.000000
0.211186 0.874472 2.728690 0.000000 0.000000 0.000000
-0.078909 0.979274 3.557652 0.000000 0.000000 0.000000
0.217486 0.876480 2.718509 0.000000 0.000000 0.000000
-0.069062 0.964840 3.557074 0.000000 0.000000 0.000000
0.183248 0.887515 2.730552 0.000000 0.000000 0.000000
0.234614 0.857371 2.719326 0.000000 0.000000 0.000000
0.211574 0.864024 2.707730 0.000000 0.000000 0.000000
0.212900 0.892222 2.714546 0.000000 0.000000 0.000000
-0.076738 0.966650 3.554929 0.000000 0.000000 0.000000
0.120864 0.907148 2.777694 0.000000 0.000000 0.000000
0.135138 0.917623 2.792057 0.000000 0.000000 0.000000
0.150523 0.918384 2.734264 0.000000 0.000000 0.000000
0.229676 0.862188 2.712841 0.000000 0.000000 0.000000
0.163992 0.904555 2.734292 0.000000 0.000000 0.000000
0.214027 0.862146 2.706125 0.000000 0.000000 0.000000
0.130328 0.904337 2.776292 0.000000 0.000000 0.000000
0.195427 0.905800 2.711486 0.000000 0.000000 0.000000
0.238813 0.853655 2.707308 0.000000 0.000000 0.000000
0.159758 0.914537 2.723852 0.000000 0.000000 0.000000
0.198274 0.907538 2.709877 0.000000 0.000000 0.000000
0.208750 0.866070 2.709147 0.000000 0.000000 0.000000
0.212569 0.868444 2.715027 0.000000 0.000000 0.000000
-0.078167 0.972105 3.552624 0.000000 0.000000 0.000000
0.242488 0.856113 2.710330 0.000000 0.000000 0.000000
0.235040 0.857479 2.708140 0.000000 0.000000 0.000000
0.221429 0.865735 2.724114 0.000000 0.000000 0.000000
-0.075039 0.972464 3.557766 0.000000 0.000000 0.000000
0.208100 0.880671 2.709079 0.000000 0.000000 0.000000
0.207138 0.871734 2.709285 0.000000 0.000000 0.000000
0.184251 0.885755 2.724815 0.000000 0.000000 0.000000
0.187594 0.894845 2.721365 0.000000 0.000000 0.000000
0.121380 0.907676 2.783414 0.000000 0.000000 0.000000
0.203448 0.873048 2.715984 0.000000 0.000000 0.000000
0.229749 0.864545 2.725376 0.000000 0.000000 0.000000
0.177933 0.888918 2.733773 0.000000 0.000000 0.000000
0.192783 0.879592 2.723629 0.000000 0.000000 0.000000
0.190992 0.901951 2.713019 0.000000 0.000000 0.000000
0.167207 0.900899 2.728693 0.000000 0.000000 0.000000
0.206843 0.873852 2.717288 0.000000 0.000000 0.000000
0.212490 0.865109 2.708256 0.000000 0.000000 0.000000
0.211373 0.862250 2.705045 0.000000 0.000000 0.000000
0.158886 0.921359 2.714894 0.000000 0.000000 0.000000
0.200840 0.870416 2.716620 0.000000 0.000000 0.000000
0.226710 0.882326 2.715259 0.000000 0.000000 0.000000
0.239184 0.854681 2.705515 0.000000 0.000000 0.000000
-0.077733 0.965136 3.549896 0.000000 0.000000 0.000000
0.223762 0.864563 2.707812 0.000000 0.000000 0.000000
0.205099 0.876799 2.719476 0.000000 0.000000 0.000000
0.212789 0.863771 2.709741 0.000000 0.000000 0.000000
0.201238 0.869941 2.723745 0.000000 0.000000 0.000000
0.236515 0.855448 2.704675 0.000000 0.000000 0.000000
0.200469 0.910198 2.705225 0.000000 0.000000 0.000000
0.213333 0.865348 2.713530 0.000000 0.000000 0.000000
0.235707 0.857062 2.706279 0.000000 0.000000 0.000000
0.214303 0.878911 2.716001 0.000000 0.000000 0.000000
0.209515 0.875078 2.710093 0.000000 0.000000 0.000000
0.213582 0.863021 2.706396 0.000000 0.000000 0.000000
0.198825 0.886346 2.704822 0.000000 0.000000 0.000000
0.228003 0.861278 2.714320 0.000000 0.000000 0.000000
0.199659 0.873240 2.713185 0.000000 0.000000 0.000000
0.216487 0.883621 2.709579 0.000000 0.000000 0.000000
0.208732 0.883153 2.713524 0.000000 0.000000 0.000000
0.203942 0.870323 2.708691 0.000000 0.000000 0.000000
0.207049 0.873422 2.708335 0.000000 0.000000 0.000000
0.210168 0.863560 2.703820 0.000000 0.000000 0.000000
0.207372 0.874908 2.700827 0.000000 0.000000 0.000000
0.200764 0.875372 2.707126 0.000000 0.000000 0.000000
0.236429 0.863507 2.714335 0.000000 0.000000 0.000000
0.194162 0.885929 2.717325 0.000000 0.000000 0.000000
0.215611 0.879274 2.709061 0.000000 0.000000 0.000000
0.212332 0.879281 2.706565 0.000000 0.000000 0.000000
0.214029 0.893152 2.710728 0.000000 0.000000 0.000000
0.224373 0.886080 2.720858 0.000000 0.000000 0.000000
-0.075753 0.966937 3.553916 0.000000 0.000000 0.000000
0.230181 0.861228 2.716754 0.000000 0.000000 0.000000
0.129557 0.914780 2.781579 0.000000 0.000000 0.000000
0.124441 0.918560 2.782304 0.000000 0.000000 0.000000
0.248344 0.846794 2.703175 0.000000 0.000000 0.000000
0.188540 0.883919 2.726247 0.000000 0.000000 0.000000
-0.099780 0.994178 3.547880 0.000000 0.000000 0.000000
0.123657 0.908525 2.777887 0.000000 0.000000 0.000000
0.155523 0.909791 2.735157 0.000000 0.000000 0.000000
0.154336 0.924963 2.719652 0.000000 0.000000 0.000000
0.211278 0.897264 2.723530 0.000000 0.000000 0.000000
0.182219 0.891368 2.730737 0.000000 0.000000 0.000000
0.207620 0.892778 2.714674 0.000000 0.000000 0.000000
0.222622 0.862003 2.709136 0.000000 0.000000 0.000000
0.238161 0.852800 2.708981 0.000000 0.000000 0.000000
0.235892 0.850098 2.708959 0.000000 0.000000 0.000000
0.195761 0.899313 2.728915 0.000000 0.000000 0.000000
0.186672 0.886546 2.730750 0.000000 0.000000 0.000000
0.228477 0.860282 2.709056 0.000000 0.000000 0.000000
-0.075427 0.964633 3.554102 0.000000 0.000000 0.000000
-0.079389 0.961837 3.559305 0.000000 0.000000 0.000000
0.224972 0.865620 2.711450 0.000000 0.000000 0.000000
0.238356 0.856863 2.705964 0.000000 0.000000 0.000000
0.222335 0.859918 2.713164 0.000000 0.000000 0.000000
0.207667 0.864504 2.708345 0.000000 0.000000 0.000000
0.158103 0.918289 2.742638 0.000000 0.000000 0.000000
0.091819 0.917696 2.806671 0.000000 0.000000 0.000000
0.233892 0.854435 2.706251 0.000000 0.000000 0.000000
0.178665 0.901391 2.732229 0.000000 0.000000 0.000000
0.229199 0.869239 2.732119 0.000000 0.000000 0.000000
0.216685 0.863678 2.716710 0.000000 0.000000 0.000000
0.212839 0.874293 2.730031 0.000000 0.000000 0.000000
0.207378 0.876244 2.718888 0.000000 0.000000 0.000000
0.251338 0.845112 2.702981 0.000000 0.000000 0.000000
0.221814 0.869612 2.727076 0.000000 0.000000 0.000000
0.159866 0.907213 2.730344 0.000000 0.000000 0.000000
0.167208 0.902530 2.732705 0.000000 0.000000 0.000000
0.224580 0.875625 2.724328 0.000000 0.000000 0.000000
0.204551 0.870612 2.721653 0.000000 0.000000 0.000000
0.228987 0.871854 2.720028 0.000000 0.000000 0.000000
0.194236 0.904506 2.716192 0.000000 0.000000 0.000000
0.203607 0.900641 2.723040 0.000000 0.000000 0.000000
0.190440 0.904554 2.709077 0.000000 0.000000 0.000000
0.201004 0.900636 2.719374 0.000000 0.000000 0.000000
0.219274 0.869255 2.713491 0.000000 0.000000 0.000000
0.214247 0.869083 2.717449 0.000000 0.000000 0.000000
0.218235 0.886207 2.723667 0.000000 0.000000 0.000000
0.195688 0.911358 2.701355 0.000000 0.000000 0.000000
0.199013 0.898421 2.711852 0.000000 0.000000 0.000000
0.163997 0.907856 2.735904 0.000000 0.000000 0.000000
0.208080 0.867794 2.704944 0.000000 0.000000 0.000000
-0.097074 0.982408 3.534957 0.000000 0.000000 0.000000
0.178589 0.884642 2.729330 0.000000 0.000000 0.000000
0.191778 0.886783 2.718828 0.000000 0.000000 0.000000
0.212118 0.892216 2.723272 0.000000 0.000000 0.000000
0.157166 0.911910 2.733902 0.000000 0.000000 0.000000
0.156559 0.925281 2.710210 0.000000 0.000000 0.000000
0.198761 0.875412 2.723848 0.000000 0.000000 0.000000
0.192974 0.902672 2.713946 0.000000 0.000000 0.000000
0.237957 0.854219 2.708020 0.000000 0.000000 0.000000
0.220585 0.887187 2.726964 0.000000 0.000000 0.000000
0.211693 0.865714 2.709553 0.000000 0.000000 0.000000
0.191488 0.900873 2.712888 0.000000 0.000000 0.000000
-0.070218 0.960951 3.552594 0.000000 0.000000 0.000000
0.193500 0.905026 2.714006 0.000000 0.000000 0.000000
0.212606 0.890055 2.715254 0.000000 0.000000 0.000000
0.201876 0.911817 2.705189 0.000000 0.000000 0.000000
0.228426 0.861692 2.707074 0.000000 0.000000 0.000000
0.198451 0.913613 2.707488 0.000000 0.000000 0.000000
0.191525 0.909157 2.713808 0.000000 0.000000 0.000000
0.244189 0.855406 2.708673 0.000000 0.000000 0.000000
0.211152 0.903089 2.720424 0.000000 0.000000 0.000000
0.199772 0.887535 2.712284 0.000000 0.000000 0.000000
-0.078180 0.972400 3.562407 0.000000 0.000000 0.000000
0.208500 0.867085 2.714278 0.000000 0.000000 0.000000
0.206972 0.866139 2.704856 0.000000 0.000000 0.000000
0.209579 0.864457 2.705210 0.000000 0.000000 0.000000
0.208866 0.873954 2.713644 0.000000 0.000000 0.000000
0.210004 0.877255 2.722520 0.000000 0.000000 0.000000
-0.068536 0.969279 3.566771 0.000000 0.000000 0.000000
0.207228 0.902041 2.720871 0.000000 0.000000 0.000000
0.228127 0.889096 2.715641 0.000000 0.000000 0.000000
0.217892 0.885940 2.716890 0.000000 0.000000 0.000000
0.229755 0.890844 2.712843 0.000000 0.000000 0.000000
0.227714 0.871936 2.721376 0.000000 0.000000 0.000000
0.129728 0.915151 2.784822 0.000000 0.000000 0.000000
0.237072 0.856979 2.711803 0.000000 0.000000 0.000000
0.240800 0.855599 2.713016 0.000000 0.000000 0.000000
0.223331 0.861799 2.710277 0.000000 0.000000 0.000000
0.160629 0.911631 2.739228 0.000000 0.000000 0.000000
0.238339 0.854967 2.707741 0.000000 0.000000 0.000000
0.152849 0.928037 2.718621 0.000000 0.000000 0.000000
0.218887 0.876034 2.735229 0.000000 0.000000 0.000000
0.127572 0.917081 2.785721 0.000000 0.000000 0.000000
0.242290 0.855230 2.709515 0.000000 0.000000 0.000000
0.237751 0.856977 2.707908 0.000000 0.000000 0.000000
0.122115 0.906191 2.778511 0.000000 0.000000 0.000000
0.154822 0.915220 2.738449 0.000000 0.000000 0.000000
0.236417 0.871035 2.724417 0.000000 0.000000 0.000000
0.159591 0.918830 2.696316 0.000000 0.000000 0.000000
0.218650 0.883286 2.707444 0.000000 0.000000 0.000000
0.241590 0.850618 2.707451 0.000000 0.000000 0.000000
0.128383 0.902300 2.778160 0.000000 0.000000 0.000000
0.159717 0.923646 2.712000 0.000000 0.000000 0.000000
0.188179 0.882931 2.725919 0.000000 0.000000 0.000000
-0.074607 0.977599 3.565502 0.000000 0.000000 0.000000
-0.072357 0.973770 3.562239 0.000000 0.000000 0.000000
0.203387 0.868083 2.701637 0.000000 0.000000 0.000000
0.213938 0.861996 2.704096 0.000000 0.000000 0.000000
0.241469 0.848672 2.701890 0.000000 0.000000 0.000000
0.156235 0.927791 2.714557 0.000000 0.000000 0.000000
0.157631 0.929996 2.715109 0.000000 0.000000 0.000000
0.153566 0.919560 2.737885 0.000000 0.000000 0.000000
0.158774 0.913002 2.728878 0.000000 0.000000 0.000000
-0.074219 0.971791 3.556688 0.000000 0.000000 0.000000
0.239429 0.851760 2.704810 0.000000 0.000000 0.000000
0.172620 0.908903 2.726218 0.000000 0.000000 0.000000
0.158599 0.908563 2.730435 0.000000 0.000000 0.000000
0.232632 0.874947 2.727876 0.000000 0.000000 0.000000
0.226708 0.876780 2.725688 0.000000 0.000000 0.000000
0.174666 0.898132 2.734710 0.000000 0.000000 0.000000
0.094948 0.916476 2.799819 0.000000 0.000000 0.000000
0.180320 0.901837 2.731162 0.000000 0.000000 0.000000
0.157021 0.913137 2.734872 0.000000 0.000000 0.000000
0.233038 0.857416 2.710636 0.000000 0.000000 0.000000
0.210768 0.860117 2.708671 0.000000 0.000000 0.000000
0.165916 0.904066 2.735750 0.000000 0.000000 0.000000
0.166861 0.900023 2.735615 0.000000 0.000000 0.000000
0.199067 0.904273 2.728703 0.000000 0.000000 0.000000
0.202728 0.869729 2.706178 0.000000 0.000000 0.000000
0.222017 0.891715 2.716862 0.000000 0.000000 0.000000
0.189648 0.902067 2.731819 0.000000 0.000000 0.000000
0.202960 0.873476 2.712719 0.000000 0.000000 0.000000
0.195442 0.881059 2.725281 0.000000 0.000000 0.000000
0.199505 0.878424 2.716298 0.000000 0.000000 0.000000
0.219539 0.862479 2.715038 0.000000 0.000000 0.000000
0.211005 0.867506 2.714045 0.000000 0.000000 0.000000
0.215382 0.864081 2.710770 0.000000 0.000000 0.000000
0.179162 0.896053 2.726429 0.000000 0.000000 0.000000
0.098232 0.919855 2.792710 0.000000 0.000000 0.000000
0.177984 0.905350 2.735996 0.000000 0.000000 0.000000
0.162382 0.907641 2.737631 0.000000 0.000000 0.000000
0.235929 0.855478 2.708109 0.000000 0.000000 0.000000
0.232861 0.868519 2.727535 0.000000 0.000000 0.000000
0.161961 0.913769 2.738128 0.000000 0.000000 0.000000
0.176777 0.895615 2.733265 0.000000 0.000000 0.000000
-0.097624 0.983906 3.537817 0.000000 0.000000 0.000000
0.193900 0.900627 2.726332 0.000000 0.000000 0.000000
-0.092233 0.990239 3.551438 0.000000 0.000000 0.000000
0.172319 0.900680 2.733611 0.000000 0.000000 0.000000
-0.098658 0.977176 3.530192 0.000000 0.000000 0.000000
0.127230 0.911018 2.780412 0.000000 0.000000 0.000000
-0.076755 0.972902 3.555333 0.000000 0.000000 0.000000
0.191380 0.905585 2.704443 0.000000 0.000000 0.000000
0.202644 0.880668 2.710571 0.000000 0.000000 0.000000
0.208998 0.893955 2.710447 0.000000 0.000000 0.000000
0.203175 0.897537 2.708441 0.000000 0.000000 0.000000
0.182381 0.885856 2.727945 0.000000 0.000000 0.000000
0.232892 0.858957 2.717798 0.000000 0.000000 0.000000
0.201012 0.901048 2.706271 0.000000 0.000000 0.000000
0.208586 0.892507 2.709282 0.000000 0.000000 0.000000
0.199135 0.897860 2.711510 0.000000 0.000000 0.000000
0.198914 0.883951 2.708977 0.000000 0.000000 0.000000
0.182431 0.884002 2.730151 0.000000 0.000000 0.000000
0.183718 0.897763 2.721785 0.000000 0.000000 0.000000
0.208740 0.881989 2.708786 0.000000 0.000000 0.000000
0.237132 0.867934 2.721364 0.000000 0.000000 0.000000
0.182639 0.901563 2.724042 0.000000 0.000000 0.000000
0.211782 0.899467 2.712343 0.000000 0.000000 0.000000
0.232569 0.870688 2.723016 0.000000 0.000000 0.000000
0.128568 0.914919 2.783914 0.000000 0.000000 0.000000
0.192144 0.907128 2.710582 0.000000 0.000000 0.000000
0.197103 0.897888 2.725469 0.000000 0.000000 0.000000
0.218117 0.889061 2.707813 0.000000 0.000000 0.000000
0.200199 0.909809 2.707113 0.000000 0.000000 0.000000
0.197954 0.912456 2.702688 0.000000 0.000000 0.000000
0.199798 0.913277 2.705999 0.000000 0.000000 0.000000
-0.099970 0.993011 3.544906 0.000000 0.000000 0.000000
0.152442 0.917562 2.738827 0.000000 0.000000 0.000000
0.196128 0.903589 2.708818 0.000000 0.000000 0.000000
0.212278 0.864471 2.709705 0.000000 0.000000 0.000000
0.209533 0.868528 2.714656 0.000000 0.000000 0.000000
0.205501 0.867056 2.708474 0.000000 0.000000 0.000000
0.203574 0.914576 2.705876 0.000000 0.000000 0.000000
0.174009 0.892572 2.731834 0.000000 0.000000 0.000000
0.210430 0.867331 2.715247 0.000000 0.000000 0.000000
0.128434 0.914257 2.788512 0.000000 0.000000 0.000000
0.124260 0.918335 2.777141 0.000000 0.000000 0.000000
0.217222 0.867496 2.712307 0.000000 0.000000 0.000000
0.122215 0.917259 2.783028 0.000000 0.000000 0.000000
0.232566 0.856916 2.705934 0.000000 0.000000 0.000000
0.224248 0.886819 2.708306 0.000000 0.000000 0.000000
0.224806 0.861839 2.714114 0.000000 0.000000 0.000000
0.229459 0.865625 2.715668 0.000000 0.000000 0.000000
0.223277 0.862076 2.713097 0.000000 0.000000 0.000000
0.235055 0.856494 2.705534 0.000000 0.000000 0.000000
0.120743 0.915867 2.782512 0.000000 0.000000 0.000000
0.225622 0.858957 2.712713 0.000000 0.000000 0.000000
0.226673 0.860630 2.708263 0.000000 0.000000 0.000000
0.238738 0.853841 2.705431 0.000000 0.000000 0.000000
0.231869 0.857965 2.706193 0.000000 0.000000 0.000000
0.224573 0.864551 2.709405 0.000000 0.000000 0.000000
0.231167 0.869484 2.723814 0.000000 0.000000 0.000000
0.181179 0.884687 2.728199 0.000000 0.000000 0.000000
-0.072219 0.963340 3.561450 0.000000 0.000000 0.000000
0.158247 0.916966 2.719550 0.000000 0.000000 0.000000
-0.084288 0.974449 3.551498 0.000000 0.000000 0.000000
0.158451 0.923963 2.716237 0.000000 0.000000 0.000000
0.158109 0.918461 2.724983 0.000000 0.000000 0.000000
0.155508 0.921091 2.719358 0.000000 0.000000 0.000000
0.155373 0.918874 2.732527 0.000000 0.000000 0.000000
0.156143 0.919979 2.716398 0.000000 0.000000 0.000000
0.150500 0.923511 2.716147 0.000000 0.000000 0.000000
0.213272 0.862987 2.707633 0.000000 0.000000 0.000000
0.156345 0.924712 2.718600 0.000000 0.000000 0.000000
0.167348 0.904197 2.735357 0.000000 0.000000 0.000000
0.168409 0.902824 2.736526 0.000000 0.000000 0.000000
-0.079500 0.963990 3.549649 0.000000 0.000000 0.000000
-0.103490 0.979854 3.535590 0.000000 0.000000 0.000000
0.243688 0.852373 2.709086 0.000000 0.000000 0.000000
0.171448 0.898522 2.733237 0.000000 0.000000 0.000000
0.168563 0.903625 2.735618 0.000000 0.000000 0.000000
0.167344 0.899261 2.731133 0.000000 0.000000 0.000000
0.212994 0.899666 2.714988 0.000000 0.000000 0.000000
-0.076177 0.978163 3.561464 0.000000 0.000000 0.000000
-0.079429 0.980929 3.564034 0.000000 0.000000 0.000000
0.155376 0.924315 2.717843 0.000000 0.000000 0.000000
0.166839 0.900238 2.730868 0.000000 0.000000 0.000000
0.155836 0.925910 2.712229 0.000000 0.000000 0.000000
0.175967 0.896069 2.733515 0.000000 0.000000 0.000000
0.156646 0.924704 2.715497 0.000000 0.000000 0.000000
0.156041 0.926472 2.709996 0.000000 0.000000 0.000000
0.166390 0.909905 2.737253 0.000000 0.000000 0.000000
-0.096604 0.998552 3.556656 0.000000 0.000000 0.000000
-0.100035 0.998642 3.554656 0.000000 0.000000 0.000000
0.155775 0.925794 2.709357 0.000000 0.000000 0.000000
0.233799 0.854278 2.705303 0.000000 0.000000 0.000000
0.180598 0.888785 2.729789 0.000000 0.000000 0.000000
0.199313 0.880030 2.730730 0.000000 0.000000 0.000000
0.201158 0.902198 2.723004 0.000000 0.000000 0.000000
0.194544 0.877732 2.726426 0.000000 0.000000 0.000000
0.206176 0.874209 2.725121 0.000000 0.000000 0.000000
0.242394 0.851423 2.705975 0.000000 0.000000 0.000000
0.208795 0.891531 2.727283 0.000000 0.000000 0.000000
0.197238 0.891939 2.728677 0.000000 0.000000 0.000000
0.119392 0.916648 2.779560 0.000000 0.000000 0.000000
0.187286 0.893752 2.729571 0.000000 0.000000 0.000000
0.229167 0.858207 2.711900 0.000000 0.000000 0.000000
0.192117 0.887498 2.729957 0.000000 0.000000 0.000000
0.214086 0.881092 2.723661 0.000000 0.000000 0.000000
-0.092934 0.984021 3.539580 0.000000 0.000000 0.000000
-0.093522 0.976553 3.540787 0.000000 0.000000 0.000000
0.237572 0.868978 2.730792 0.000000 0.000000 0.000000
0.126054 0.904408 2.776187 0.000000 0.000000 0.000000
0.229374 0.875005 2.728177 0.000000 0.000000 0.000000
0.167589 0.903203 2.730668 0.000000 0.000000 0.000000
0.172385 0.892325 2.729923 0.000000 0.000000 0.000000
0.170971 0.894674 2.728929 0.000000 0.000000 0.000000
0.210897 0.867441 2.710428 0.000000 0.000000 0.000000
0.169541 0.899627 2.728291 0.000000 0.000000 0.000000
0.208040 0.863965 2.705903 0.000000 0.000000 0.000000
0.212293 0.860981 2.702128 0.000000 0.000000 0.000000
0.172152 0.904372 2.735163 0.000000 0.000000 0.000000
0.170705 0.899516 2.735840 0.000000 0.000000 0.000000
0.174018 0.903308 2.734191 0.000000 0.000000 0.000000
0.176892 0.893739 2.724291 0.000000 0.000000 0.000000
0.188217 0.900077 2.729193 0.000000 0.000000 0.000000
-0.096771 0.997397 3.561516 0.000000 0.000000 0.000000
0.209408 0.864298 2.705559 0.000000 0.000000 0.000000
0.211696 0.864605 2.707622 0.000000 0.000000 0.000000
0.206327 0.869560 2.705692 0.000000 0.000000 0.000000
0.180427 0.891935 2.725102 0.000000 0.000000 0.000000
0.179959 0.899484 2.725762 0.000000 0.000000 0.000000
0.171930 0.894473 2.734098 0.000000 0.000000 0.000000
0.208436 0.868968 2.707455 0.000000 0.000000 0.000000
0.163412 0.901438 2.732951 0.000000 0.000000 0.000000
0.199315 0.876124 2.716710 0.000000 0.000000 0.000000
0.174186 0.898365 2.730492 0.000000 0.000000 0.000000
0.208520 0.867065 2.706164 0.000000 0.000000 0.000000
0.200341 0.875592 2.725497 0.000000 0.000000 0.000000
0.183236 0.900484 2.720859 0.000000 0.000000 0.000000
0.180018 0.897410 2.724104 0.000000 0.000000 0.000000
0.174585 0.894405 2.735099 0.000000 0.000000 0.000000
0.208774 0.865298 2.705171 0.000000 0.000000 0.000000
0.208766 0.869320 2.707294 0.000000 0.000000 0.000000
0.198515 0.875883 2.716820 0.000000 0.000000 0.000000
0.204618 0.875208 2.709678 0.000000 0.000000 0.000000
0.198243 0.882211 2.715643 0.000000 0.000000 0.000000
0.211476 0.885719 2.707438 0.000000 0.000000 0.000000
0.196557 0.887521 2.717105 0.000000 0.000000 0.000000
-0.097257 0.991234 3.548719 0.000000 0.000000 0.000000
0.207317 0.867379 2.714275 0.000000 0.000000 0.000000
0.211089 0.865693 2.709917 0.000000 0.000000 0.000000
0.157792 0.923275 2.706986 0.000000 0.000000 0.000000
-0.089357 0.983256 3.552968 0.000000 0.000000 0.000000
-0.094689 0.986644 3.543491 0.000000 0.000000 0.000000
-0.096866 0.988295 3.544698 0.000000 0.000000 0.000000
0.201127 0.899208 2.708914 0.000000 0.000000 0.000000
-0.093834 0.990082 3.547554 0.000000 0.000000 0.000000
-0.098981 0.987192 3.542381 0.000000 0.000000 0.000000
0.207445 0.866610 2.704217 0.000000 0.000000 0.000000
-0.098171 0.991389 3.544695 0.000000 0.000000 0.000000
0.203562 0.913009 2.713753 0.000000 0.000000 0.000000
-0.094825 0.987843 3.545923 0.000000 0.000000 0.000000
-0.094216 0.984134 3.538374 0.000000 0.000000 0.000000
0.206478 0.870636 2.707191 0.000000 0.000000 0.000000
-0.097073 0.985857 3.538865 0.000000 0.000000 0.000000
0.196562 0.907989 2.705997 0.000000 0.000000 0.000000
0.211529 0.898241 2.707736 0.000000 0.000000 0.000000
0.190499 0.880791 2.726208 0.000000 0.000000 0.000000
0.206391 0.894528 2.707937 0.000000 0.000000 0.000000
0.210071 0.894364 2.717960 0.000000 0.000000 0.000000
0.185385 0.886950 2.721302 0.000000 0.000000 0.000000
0.199818 0.896986 2.715885 0.000000 0.000000 0.000000
0.158020 0.913342 2.735298 0.000000 0.000000 0.000000
0.205423 0.870266 2.722142 0.000000 0.000000 0.000000
0.159870 0.906597 2.733437 0.000000 0.000000 0.000000
0.171575 0.894464 2.729342 0.000000 0.000000 0.000000
0.192341 0.892118 2.713212 0.000000 0.000000 0.000000
0.191582 0.883306 2.719129 0.000000 0.000000 0.000000
0.203575 0.896550 2.713353 0.000000 0.000000 0.000000
0.161810 0.910583 2.733939 0.000000 0.000000 0.000000
0.194676 0.877804 2.722237 0.000000 0.000000 0.000000
0.167037 0.896671 2.732921 0.000000 0.000000 0.000000
0.176122 0.892230 2.727860 0.000000 0.000000 0.000000
-0.089164 0.990538 3.555167 0.000000 0.000000 0.000000
0.157154 0.913273 2.721347 0.000000 0.000000 0.000000
0.126357 0.915333 2.783808 0.000000 0.000000 0.000000
0.154825 0.920740 2.701948 0.000000 0.000000 0.000000
0.157554 0.926801 2.708343 0.000000 0.000000 0.000000
0.157431 0.916478 2.722502 0.000000 0.000000 0.000000
0.157615 0.918400 2.719933 0.000000 0.000000 0.000000
0.154205 0.920664 2.712467 0.000000 0.000000 0.000000
0.155842 0.920826 2.709274 0.000000 0.000000 0.000000
0.156193 0.920847 2.712566 0.000000 0.000000 0.000000
0.158795 0.921659 2.712006 0.000000 0.000000 0.000000
0.154976 0.922353 2.709967 0.000000 0.000000 0.000000
0.221111 0.891682 2.712552 0.000000 0.000000 0.000000
0.216913 0.899832 2.724114 0.000000 0.000000 0.000000
0.156736 0.918286 2.719087 0.000000 0.000000 0.000000
0.198993 0.913961 2.716413 0.000000 0.000000 0.000000
0.199704 0.914285 2.710007 0.000000 0.000000 0.000000
0.205649 0.871383 2.717682 0.000000 0.000000 0.000000
0.196498 0.873732 2.720240 0.000000 0.000000 0.000000
0.201285 0.873715 2.708272 0.000000 0.000000 0.000000
0.126227 0.906061 2.778728 0.000000 0.000000 0.000000
0.200870 0.910222 2.708394 0.000000 0.000000 0.000000
0.163516 0.912438 2.739329 0.000000 0.000000 0.000000
0.184983 0.902818 2.728151 0.000000 0.000000 0.000000
0.199482 0.913271 2.705952 0.000000 0.000000 0.000000
0.208182 0.866852 2.710996 0.000000 0.000000 0.000000
0.233895 0.857821 2.712672 0.000000 0.000000 0.000000
0.160022 0.912678 2.737024 0.000000 0.000000 0.000000
0.203498 0.870026 2.716663 0.000000 0.000000 0.000000
0.246209 0.853629 2.709604 0.000000 0.000000 0.000000
0.241815 0.856575 2.710183 0.000000 0.000000 0.000000
0.211174 0.859340 2.713354 0.000000 0.000000 0.000000
0.150588 0.916377 2.730339 0.000000 0.000000 0.000000
0.236381 0.855635 2.706193 0.000000 0.000000 0.000000
0.153217 0.917484 2.736475 0.000000 0.000000 0.000000
0.198922 0.872958 2.721420 0.000000 0.000000 0.000000
0.240565 0.854264 2.708813 0.000000 0.000000 0.000000
0.236926 0.859268 2.714505 0.000000 0.000000 0.000000
0.213024 0.866586 2.712712 0.000000 0.000000 0.000000
0.153087 0.913639 2.724241 0.000000 0.000000 0.000000
0.191367 0.906030 2.719438 0.000000 0.000000 0.000000
0.243292 0.847713 2.704374 0.000000 0.000000 0.000000
0.179262 0.892351 2.733628 0.000000 0.000000 0.000000
0.172768 0.888571 2.729333 0.000000 0.000000 0.000000
0.237729 0.860847 2.713781 0.000000 0.000000 0.000000
0.240576 0.860185 2.714788 0.000000 0.000000 0.000000
0.187495 0.890743 2.730563 0.000000 0.000000 0.000000
-0.100167 0.988508 3.545152 0.000000 0.000000 0.000000
-0.097018 0.995026 3.555694 0.000000 0.000000 0.000000
-0.081191 0.982365 3.561785 0.000000 0.000000 0.000000
0.189032 0.906637 2.723124 0.000000 0.000000 0.000000
0.181397 0.901467 2.733016 0.000000 0.000000 0.000000
-0.098489 0.991839 3.547976 0.000000 0.000000 0.000000
-0.093370 0.986976 3.533428 0.000000 0.000000 0.000000
-0.085939 0.987908 3.561672 0.000000 0.000000 0.000000
0.192270 0.905098 2.722658 0.000000 0.000000 0.000000
0.237639 0.861686 2.716360 0.000000 0.000000 0.000000
0.154862 0.917546 2.736092 0.000000 0.000000 0.000000
0.158667 0.920633 2.701162 0.000000 0.000000 0.000000
0.159052 0.926249 2.707046 0.000000 0.000000 0.000000
0.158122 0.920177 2.708227 0.000000 0.000000 0.000000
0.245988 0.855021 2.709484 0.000000 0.000000 0.000000
0.207960 0.875170 2.727822 0.000000 0.000000 0.000000
0.210896 0.883329 2.733263 0.000000 0.000000 0.000000
0.211350 0.865786 2.720485 0.000000 0.000000 0.000000
0.156826 0.915169 2.732193 0.000000 0.000000 0.000000
0.219446 0.875639 2.735752 0.000000 0.000000 0.000000
0.239072 0.868478 2.732101 0.000000 0.000000 0.000000
0.219942 0.892648 2.724077 0.000000 0.000000 0.000000
0.213803 0.875230 2.723537 0.000000 0.000000 0.000000
0.215624 0.887566 2.733685 0.000000 0.000000 0.000000
0.230118 0.856191 2.714574 0.000000 0.000000 0.000000
0.159343 0.913920 2.737240 0.000000 0.000000 0.000000
0.203493 0.881524 2.729821 0.000000 0.000000 0.000000
0.229893 0.866325 2.734604 0.000000 0.000000 0.000000
0.217417 0.894128 2.729330 0.000000 0.000000 0.000000
0.212652 0.862291 2.704994 0.000000 0.000000 0.000000
0.160349 0.915865 2.723845 0.000000 0.000000 0.000000
0.209975 0.866460 2.714072 0.000000 0.000000 0.000000
0.219161 0.865143 2.711289 0.000000 0.000000 0.000000
0.209628 0.867393 2.715613 0.000000 0.000000 0.000000
0.213269 0.862547 2.712862 0.000000 0.000000 0.000000
0.239544 0.856530 2.709986 0.000000 0.000000 0.000000
0.199803 0.876566 2.722597 0.000000 0.000000 0.000000
0.221086 0.861833 2.713250 0.000000 0.000000 0.000000
-0.080268 0.974528 3.553832 0.000000 0.000000 0.000000
0.222932 0.884554 2.713259 0.000000 0.000000 0.000000
-0.098583 0.994461 3.549914 0.000000 0.000000 0.000000
0.206077 0.868275 2.705303 0.000000 0.000000 0.000000
-0.094931 0.984537 3.538257 0.000000 0.000000 0.000000
-0.076397 0.973924 3.559014 0.000000 0.000000 0.000000
0.178122 0.900657 2.733490 0.000000 0.000000 0.000000
-0.100937 0.990895 3.543644 0.000000 0.000000 0.000000
0.212540 0.866702 2.703757 0.000000 0.000000 0.000000
-0.100141 0.984101 3.536414 0.000000 0.000000 0.000000
-0.081387 0.971434 3.549492 0.000000 0.000000 0.000000
-0.079696 0.970001 3.551107 0.000000 0.000000 0.000000
-0.077772 0.974166 3.552374 0.000000 0.000000 0.000000
0.245436 0.849687 2.702179 0.000000 0.000000 0.000000
0.250696 0.848254 2.703398 0.000000 0.000000 0.000000
0.248481 0.849968 2.707819 0.000000 0.000000 0.000000
0.238418 0.852437 2.704391 0.000000 0.000000 0.000000
0.241371 0.851793 2.706397 0.000000 0.000000 0.000000
0.216734 0.864999 2.714405 0.000000 0.000000 0.000000
0.154895 0.919277 2.732044 0.000000 0.000000 0.000000
0.234865 0.859360 2.708955 0.000000 0.000000 0.000000
0.195556 0.904334 2.707825 0.000000 0.000000 0.000000
0.188318 0.880820 2.722159 0.000000 0.000000 0.000000
0.247924 0.851640 2.705895 0.000000 0.000000 0.000000
0.199313 0.909250 2.708446 0.000000 0.000000 0.000000
0.205323 0.911030 2.706929 0.000000 0.000000 0.000000
0.197895 0.875225 2.709821 0.000000 0.000000 0.000000
0.190949 0.882334 2.723577 0.000000 0.000000 0.000000
0.184844 0.882707 2.726171 0.000000 0.000000 0.000000
0.166011 0.906898 2.731079 0.000000 0.000000 0.000000
0.190349 0.883662 2.724398 0.000000 0.000000 0.000000
0.185326 0.883241 2.727437 0.000000 0.000000 0.000000
0.164635 0.908903 2.729599 0.000000 0.000000 0.000000
0.197147 0.876819 2.710481 0.000000 0.000000 0.000000
-0.071892 0.956589 3.550800 0.000000 0.000000 0.000000
-0.078070 0.965505 3.549515 0.000000 0.000000 0.000000
0.206249 0.868616 2.702497 0.000000 0.000000 0.000000
0.148440 0.919860 2.737628 0.000000 0.000000 0.000000
0.226084 0.888629 2.704521 0.000000 0.000000 0.000000
0.239494 0.918042 2.714745 0.000000 0.000000 0.000000
