ply
format ascii 1.0
comment VCGLIB generated
obj_info Generated by SPFormer!
element vertex 884
property float x
property float y
property float z
property float nx
property float ny
property float nz
end_header
1.386623 1.148525 1.388356 0.000000 0.000000 0.000000
1.379443 1.165115 1.369473 0.000000 0.000000 0.000000
1.366711 1.187395 1.335977 0.000000 0.000000 0.000000
1.180525 1.011776 1.254159 0.000000 0.000000 0.000000
1.185759 1.022264 1.230025 0.000000 0.000000 0.000000
1.347231 1.192199 1.282639 0.000000 0.000000 0.000000
1.354527 1.186059 1.303114 0.000000 0.000000 0.000000
1.355178 1.183666 1.319553 0.000000 0.000000 0.000000
1.430251 1.149065 1.465370 0.000000 0.000000 0.000000
1.237899 1.168688 1.166372 0.000000 0.000000 0.000000
1.399930 1.120710 1.466778 0.000000 0.000000 0.000000
1.183773 1.006269 1.313003 0.000000 0.000000 0.000000
1.315668 1.209610 1.210268 0.000000 0.000000 0.000000
1.221338 1.012084 1.367403 0.000000 0.000000 0.000000
1.346961 1.159298 1.312817 0.000000 0.000000 0.000000
1.169983 1.001037 1.314949 0.000000 0.000000 0.000000
1.398184 1.128618 1.500001 0.000000 0.000000 0.000000
1.196913 1.077466 1.169006 0.000000 0.000000 0.000000
1.165861 1.009385 1.224415 0.000000 0.000000 0.000000
1.173645 1.005540 1.255926 0.000000 0.000000 0.000000
1.188673 1.019715 1.243676 0.000000 0.000000 0.000000
1.413731 1.155189 1.415219 0.000000 0.000000 0.000000
1.246569 1.131757 1.199129 0.000000 0.000000 0.000000
1.177175 1.008476 1.261335 0.000000 0.000000 0.000000
1.175360 1.015574 1.224380 0.000000 0.000000 0.000000
1.300800 1.157228 1.240736 0.000000 0.000000 0.000000
1.414542 1.148860 1.423160 0.000000 0.000000 0.000000
1.358498 1.183821 1.316146 0.000000 0.000000 0.000000
1.391953 1.152800 1.393313 0.000000 0.000000 0.000000
1.167462 1.000409 1.257547 0.000000 0.000000 0.000000
1.167740 1.010306 1.266278 0.000000 0.000000 0.000000
1.185296 1.039954 1.192623 0.000000 0.000000 0.000000
1.191211 1.033968 1.207636 0.000000 0.000000 0.000000
1.176905 1.001818 1.345435 0.000000 0.000000 0.000000
1.347383 1.187756 1.294442 0.000000 0.000000 0.000000
1.386350 1.166522 1.380824 0.000000 0.000000 0.000000
1.195531 1.023222 1.240380 0.000000 0.000000 0.000000
1.173397 1.010417 1.238648 0.000000 0.000000 0.000000
1.415031 1.160931 1.414709 0.000000 0.000000 0.000000
1.161316 0.996001 1.291297 0.000000 0.000000 0.000000
1.182372 1.014016 1.245729 0.000000 0.000000 0.000000
1.379805 1.156401 1.374469 0.000000 0.000000 0.000000
1.334475 1.206644 1.254054 0.000000 0.000000 0.000000
1.171020 1.018487 1.210061 0.000000 0.000000 0.000000
1.173553 0.999524 1.269644 0.000000 0.000000 0.000000
1.370390 1.194482 1.337869 0.000000 0.000000 0.000000
1.352669 1.210227 1.290087 0.000000 0.000000 0.000000
1.185089 1.036590 1.199047 0.000000 0.000000 0.000000
1.371836 1.185049 1.347180 0.000000 0.000000 0.000000
1.393454 1.169185 1.388940 0.000000 0.000000 0.000000
1.395476 1.128094 1.420087 0.000000 0.000000 0.000000
1.174369 1.000048 1.326249 0.000000 0.000000 0.000000
1.417329 1.138416 1.446084 0.000000 0.000000 0.000000
1.378777 1.171840 1.363423 0.000000 0.000000 0.000000
1.333402 1.166939 1.281931 0.000000 0.000000 0.000000
1.341847 1.207619 1.258859 0.000000 0.000000 0.000000
1.188835 1.008383 1.262933 0.000000 0.000000 0.000000
1.173129 0.995157 1.312058 0.000000 0.000000 0.000000
1.301725 1.159345 1.240607 0.000000 0.000000 0.000000
1.271430 1.171903 1.191739 0.000000 0.000000 0.000000
1.368756 1.091663 1.496101 0.000000 0.000000 0.000000
1.206016 1.032024 1.241448 0.000000 0.000000 0.000000
1.381391 1.100649 1.587219 0.000000 0.000000 0.000000
1.331727 1.049228 1.522647 0.000000 0.000000 0.000000
1.247370 1.039077 1.289992 0.000000 0.000000 0.000000
1.246184 1.049570 1.274468 0.000000 0.000000 0.000000
1.229313 1.115521 1.184143 0.000000 0.000000 0.000000
1.210490 1.025411 1.259329 0.000000 0.000000 0.000000
1.345764 1.063377 1.514306 0.000000 0.000000 0.000000
1.185176 1.033671 1.205510 0.000000 0.000000 0.000000
1.176543 1.018749 1.219495 0.000000 0.000000 0.000000
1.378344 1.087470 1.593945 0.000000 0.000000 0.000000
1.185475 1.017109 1.244193 0.000000 0.000000 0.000000
1.227616 1.124238 1.178307 0.000000 0.000000 0.000000
1.194890 1.007038 1.295930 0.000000 0.000000 0.000000
1.320663 1.055359 1.440962 0.000000 0.000000 0.000000
1.198897 1.013809 1.346706 0.000000 0.000000 0.000000
1.209322 1.046987 1.220884 0.000000 0.000000 0.000000
1.309443 1.031784 1.508893 0.000000 0.000000 0.000000
1.368761 1.083062 1.574638 0.000000 0.000000 0.000000
1.239453 1.045726 1.277866 0.000000 0.000000 0.000000
1.206689 1.016126 1.284110 0.000000 0.000000 0.000000
1.355415 1.066279 1.571952 0.000000 0.000000 0.000000
1.183431 1.006319 1.275114 0.000000 0.000000 0.000000
1.302706 1.169606 1.228191 0.000000 0.000000 0.000000
1.200706 1.052616 1.187911 0.000000 0.000000 0.000000
1.268317 1.181247 1.181884 0.000000 0.000000 0.000000
1.206060 1.115615 1.151198 0.000000 0.000000 0.000000
1.207952 1.130635 1.154465 0.000000 0.000000 0.000000
1.196514 1.007037 1.296762 0.000000 0.000000 0.000000
1.236387 1.085046 1.214126 0.000000 0.000000 0.000000
1.209847 1.012715 1.322285 0.000000 0.000000 0.000000
1.230510 1.136177 1.177570 0.000000 0.000000 0.000000
1.179776 1.000734 1.338363 0.000000 0.000000 0.000000
1.244626 1.164333 1.176277 0.000000 0.000000 0.000000
1.210017 1.119608 1.158734 0.000000 0.000000 0.000000
1.166015 1.014525 1.213351 0.000000 0.000000 0.000000
1.247286 1.148704 1.190915 0.000000 0.000000 0.000000
1.372854 1.197834 1.341882 0.000000 0.000000 0.000000
1.376889 1.096542 1.506897 0.000000 0.000000 0.000000
1.226099 1.033247 1.277223 0.000000 0.000000 0.000000
1.220068 1.028059 1.275211 0.000000 0.000000 0.000000
1.245389 1.040078 1.302201 0.000000 0.000000 0.000000
1.357719 1.070649 1.539007 0.000000 0.000000 0.000000
1.391408 1.110798 1.521741 0.000000 0.000000 0.000000
1.235916 1.067776 1.231712 0.000000 0.000000 0.000000
1.288777 1.014052 1.512189 0.000000 0.000000 0.000000
1.203425 1.012585 1.311619 0.000000 0.000000 0.000000
1.230217 1.030181 1.296315 0.000000 0.000000 0.000000
1.383005 1.100930 1.577786 0.000000 0.000000 0.000000
1.351826 1.196879 1.287378 0.000000 0.000000 0.000000
1.410669 1.133201 1.443292 0.000000 0.000000 0.000000
1.214225 1.049047 1.221286 0.000000 0.000000 0.000000
1.324338 1.049405 1.489070 0.000000 0.000000 0.000000
1.225418 1.121372 1.175028 0.000000 0.000000 0.000000
1.176730 1.025277 1.207729 0.000000 0.000000 0.000000
1.380280 1.095522 1.585667 0.000000 0.000000 0.000000
1.201231 1.041701 1.216662 0.000000 0.000000 0.000000
1.208727 1.039771 1.238128 0.000000 0.000000 0.000000
1.179181 1.012827 1.247005 0.000000 0.000000 0.000000
1.174487 1.007079 1.246394 0.000000 0.000000 0.000000
1.214538 1.018877 1.290606 0.000000 0.000000 0.000000
1.283926 1.021682 1.457057 0.000000 0.000000 0.000000
1.170798 0.998888 1.290989 0.000000 0.000000 0.000000
1.367740 1.080744 1.536593 0.000000 0.000000 0.000000
1.221595 1.027465 1.287955 0.000000 0.000000 0.000000
1.406101 1.132382 1.434592 0.000000 0.000000 0.000000
1.356820 1.066517 1.562838 0.000000 0.000000 0.000000
1.409160 1.167242 1.413035 0.000000 0.000000 0.000000
1.201072 1.022880 1.262805 0.000000 0.000000 0.000000
1.198624 1.042871 1.204953 0.000000 0.000000 0.000000
1.188988 1.024544 1.234071 0.000000 0.000000 0.000000
1.201137 1.015096 1.292178 0.000000 0.000000 0.000000
1.175524 1.000894 1.293106 0.000000 0.000000 0.000000
1.184556 1.008761 1.300854 0.000000 0.000000 0.000000
1.328466 1.169129 1.263840 0.000000 0.000000 0.000000
1.280932 1.188557 1.188997 0.000000 0.000000 0.000000
1.218473 1.123459 1.157795 0.000000 0.000000 0.000000
1.195573 1.003760 1.338213 0.000000 0.000000 0.000000
1.245869 1.195903 1.154491 0.000000 0.000000 0.000000
1.389418 1.121153 1.541533 0.000000 0.000000 0.000000
1.289845 1.197427 1.187821 0.000000 0.000000 0.000000
1.193698 1.021418 1.250234 0.000000 0.000000 0.000000
1.206697 1.127914 1.154538 0.000000 0.000000 0.000000
1.352877 1.185142 1.298624 0.000000 0.000000 0.000000
1.175250 1.000901 1.339276 0.000000 0.000000 0.000000
1.297495 1.195768 1.202032 0.000000 0.000000 0.000000
1.329503 1.206060 1.234327 0.000000 0.000000 0.000000
1.235789 1.145981 1.174686 0.000000 0.000000 0.000000
1.164439 0.998105 1.318787 0.000000 0.000000 0.000000
1.282545 1.022844 1.462329 0.000000 0.000000 0.000000
1.175153 0.999327 1.306756 0.000000 0.000000 0.000000
1.249280 1.162079 1.175933 0.000000 0.000000 0.000000
1.390266 1.115012 1.596937 0.000000 0.000000 0.000000
1.316213 1.080140 1.359281 0.000000 0.000000 0.000000
1.213931 1.132236 1.155429 0.000000 0.000000 0.000000
1.240807 1.008142 1.457677 0.000000 0.000000 0.000000
1.234452 1.006545 1.450450 0.000000 0.000000 0.000000
1.357429 1.202208 1.300363 0.000000 0.000000 0.000000
1.383408 1.175054 1.372847 0.000000 0.000000 0.000000
1.240721 1.163421 1.162435 0.000000 0.000000 0.000000
1.377305 1.095797 1.536773 0.000000 0.000000 0.000000
1.189408 1.001588 1.336290 0.000000 0.000000 0.000000
1.183461 1.012511 1.254137 0.000000 0.000000 0.000000
1.187381 1.013335 1.266014 0.000000 0.000000 0.000000
1.197189 1.006951 1.378062 0.000000 0.000000 0.000000
1.212237 1.129168 1.152235 0.000000 0.000000 0.000000
1.234188 1.132586 1.185952 0.000000 0.000000 0.000000
1.171482 1.003991 1.259261 0.000000 0.000000 0.000000
1.220927 1.127754 1.164341 0.000000 0.000000 0.000000
1.267994 1.173531 1.185254 0.000000 0.000000 0.000000
1.267387 1.010904 1.505640 0.000000 0.000000 0.000000
1.167705 0.999197 1.308876 0.000000 0.000000 0.000000
1.173892 1.003774 1.284818 0.000000 0.000000 0.000000
1.207008 1.011270 1.308790 0.000000 0.000000 0.000000
1.225908 1.144405 1.162668 0.000000 0.000000 0.000000
1.209867 1.012352 1.334808 0.000000 0.000000 0.000000
1.322040 1.050706 1.559188 0.000000 0.000000 0.000000
1.199410 1.006484 1.411348 0.000000 0.000000 0.000000
1.176396 1.007275 1.253842 0.000000 0.000000 0.000000
1.178008 0.998435 1.355738 0.000000 0.000000 0.000000
1.363772 1.097139 1.436925 0.000000 0.000000 0.000000
1.237596 1.172565 1.164346 0.000000 0.000000 0.000000
1.265941 1.020138 1.459936 0.000000 0.000000 0.000000
1.228898 1.141390 1.157777 0.000000 0.000000 0.000000
1.236671 1.000545 1.474891 0.000000 0.000000 0.000000
1.185431 1.008208 1.289877 0.000000 0.000000 0.000000
1.273607 1.168110 1.194301 0.000000 0.000000 0.000000
1.223580 1.021977 1.338235 0.000000 0.000000 0.000000
1.245935 1.174738 1.165945 0.000000 0.000000 0.000000
1.214759 1.102389 1.173463 0.000000 0.000000 0.000000
1.166616 0.997604 1.324520 0.000000 0.000000 0.000000
1.232047 1.004393 1.473065 0.000000 0.000000 0.000000
1.382225 1.105008 1.574275 0.000000 0.000000 0.000000
1.413900 1.137779 1.472764 0.000000 0.000000 0.000000
1.186174 1.045202 1.189212 0.000000 0.000000 0.000000
1.159767 0.996385 1.313904 0.000000 0.000000 0.000000
1.339699 1.194281 1.264504 0.000000 0.000000 0.000000
1.351131 1.205443 1.285941 0.000000 0.000000 0.000000
1.384708 1.185729 1.373039 0.000000 0.000000 0.000000
1.387825 1.187902 1.378577 0.000000 0.000000 0.000000
1.398698 1.119122 1.493748 0.000000 0.000000 0.000000
1.255493 1.165384 1.178640 0.000000 0.000000 0.000000
1.273462 1.201480 1.175273 0.000000 0.000000 0.000000
1.220427 1.141677 1.157716 0.000000 0.000000 0.000000
1.164021 0.998019 1.315229 0.000000 0.000000 0.000000
1.162049 0.997294 1.313206 0.000000 0.000000 0.000000
1.214890 1.126282 1.151412 0.000000 0.000000 0.000000
1.226856 1.146511 1.162376 0.000000 0.000000 0.000000
1.398521 1.173728 1.394357 0.000000 0.000000 0.000000
1.176481 1.004991 1.326220 0.000000 0.000000 0.000000
1.281536 1.166579 1.205292 0.000000 0.000000 0.000000
1.184680 1.039065 1.185105 0.000000 0.000000 0.000000
1.357643 1.081002 1.511373 0.000000 0.000000 0.000000
1.409569 1.138204 1.420210 0.000000 0.000000 0.000000
1.250645 1.014459 1.412168 0.000000 0.000000 0.000000
1.224468 1.150376 1.157757 0.000000 0.000000 0.000000
1.161467 0.997867 1.279507 0.000000 0.000000 0.000000
1.209239 1.101941 1.170081 0.000000 0.000000 0.000000
1.158761 0.993898 1.305207 0.000000 0.000000 0.000000
1.219987 1.165522 1.146493 0.000000 0.000000 0.000000
1.205655 1.009852 1.348728 0.000000 0.000000 0.000000
1.212096 1.007812 1.393362 0.000000 0.000000 0.000000
1.194611 1.008973 1.381476 0.000000 0.000000 0.000000
1.170456 1.008224 1.232839 0.000000 0.000000 0.000000
1.167921 1.002048 1.258650 0.000000 0.000000 0.000000
1.418169 1.143072 1.460577 0.000000 0.000000 0.000000
1.219818 1.132086 1.157555 0.000000 0.000000 0.000000
1.213689 1.004188 1.422144 0.000000 0.000000 0.000000
1.159746 0.996764 1.298001 0.000000 0.000000 0.000000
1.409080 1.157546 1.405187 0.000000 0.000000 0.000000
1.344832 1.214832 1.275735 0.000000 0.000000 0.000000
1.162577 1.002115 1.230592 0.000000 0.000000 0.000000
1.222000 1.152037 1.150366 0.000000 0.000000 0.000000
1.214942 1.133349 1.152227 0.000000 0.000000 0.000000
1.222136 1.129541 1.167150 0.000000 0.000000 0.000000
1.199342 1.108244 1.150077 0.000000 0.000000 0.000000
1.194392 1.083475 1.156787 0.000000 0.000000 0.000000
1.255937 1.178778 1.168752 0.000000 0.000000 0.000000
1.354545 1.063815 1.570412 0.000000 0.000000 0.000000
1.363393 1.190727 1.322127 0.000000 0.000000 0.000000
1.414158 1.156370 1.419635 0.000000 0.000000 0.000000
1.391757 1.182772 1.394378 0.000000 0.000000 0.000000
1.185963 1.046758 1.185079 0.000000 0.000000 0.000000
1.163569 0.994833 1.302235 0.000000 0.000000 0.000000
1.230480 1.178730 1.155606 0.000000 0.000000 0.000000
1.220759 1.169308 1.142858 0.000000 0.000000 0.000000
1.375724 1.166865 1.379004 0.000000 0.000000 0.000000
1.189476 1.053697 1.182488 0.000000 0.000000 0.000000
1.250595 0.995845 1.500320 0.000000 0.000000 0.000000
1.194252 1.053684 1.182569 0.000000 0.000000 0.000000
1.249352 1.188152 1.156327 0.000000 0.000000 0.000000
1.191559 1.037169 1.198297 0.000000 0.000000 0.000000
1.169692 1.005716 1.236743 0.000000 0.000000 0.000000
1.178069 1.004619 1.333326 0.000000 0.000000 0.000000
1.166786 0.999214 1.271793 0.000000 0.000000 0.000000
1.409646 1.132345 1.459716 0.000000 0.000000 0.000000
1.430164 1.148351 1.443890 0.000000 0.000000 0.000000
1.193310 1.069728 1.172120 0.000000 0.000000 0.000000
1.413357 1.145393 1.480561 0.000000 0.000000 0.000000
1.388798 1.179952 1.379655 0.000000 0.000000 0.000000
1.421520 1.144740 1.437164 0.000000 0.000000 0.000000
1.218889 1.131107 1.160289 0.000000 0.000000 0.000000
1.161302 0.995504 1.296422 0.000000 0.000000 0.000000
1.403522 1.134448 1.447933 0.000000 0.000000 0.000000
1.417255 1.144515 1.450792 0.000000 0.000000 0.000000
1.426681 1.143576 1.458130 0.000000 0.000000 0.000000
1.411981 1.165294 1.428740 0.000000 0.000000 0.000000
1.422824 1.145968 1.436967 0.000000 0.000000 0.000000
1.230912 1.174387 1.157460 0.000000 0.000000 0.000000
1.172313 1.032867 1.181887 0.000000 0.000000 0.000000
1.403734 1.151746 1.412779 0.000000 0.000000 0.000000
1.208667 1.094764 1.174267 0.000000 0.000000 0.000000
1.411483 1.165653 1.409485 0.000000 0.000000 0.000000
1.204949 1.003905 1.384483 0.000000 0.000000 0.000000
1.201893 1.007910 1.381308 0.000000 0.000000 0.000000
1.222766 1.008209 1.411741 0.000000 0.000000 0.000000
1.400086 1.128681 1.516923 0.000000 0.000000 0.000000
1.414729 1.144649 1.433533 0.000000 0.000000 0.000000
1.391148 1.141146 1.393420 0.000000 0.000000 0.000000
1.419414 1.163274 1.418618 0.000000 0.000000 0.000000
1.382353 1.105480 1.514498 0.000000 0.000000 0.000000
1.197176 1.006706 1.389892 0.000000 0.000000 0.000000
1.194388 1.052573 1.194255 0.000000 0.000000 0.000000
1.285056 1.016610 1.492284 0.000000 0.000000 0.000000
1.252524 1.002910 1.482611 0.000000 0.000000 0.000000
1.421019 1.141768 1.455878 0.000000 0.000000 0.000000
1.225572 1.004261 1.445082 0.000000 0.000000 0.000000
1.316209 1.202068 1.215212 0.000000 0.000000 0.000000
1.245798 1.179653 1.158714 0.000000 0.000000 0.000000
1.255329 1.006273 1.470869 0.000000 0.000000 0.000000
1.286013 1.013824 1.499245 0.000000 0.000000 0.000000
1.160391 0.996725 1.260092 0.000000 0.000000 0.000000
1.405260 1.173070 1.404663 0.000000 0.000000 0.000000
1.408602 1.174781 1.400428 0.000000 0.000000 0.000000
1.256568 1.012739 1.453899 0.000000 0.000000 0.000000
1.258953 0.993998 1.503135 0.000000 0.000000 0.000000
1.245222 1.009863 1.427511 0.000000 0.000000 0.000000
1.265910 1.017407 1.429720 0.000000 0.000000 0.000000
1.221360 1.170319 1.144555 0.000000 0.000000 0.000000
1.274663 1.009885 1.480310 0.000000 0.000000 0.000000
1.172112 1.009310 1.229897 0.000000 0.000000 0.000000
1.424329 1.146798 1.459276 0.000000 0.000000 0.000000
1.321431 1.196584 1.233840 0.000000 0.000000 0.000000
1.282042 1.011013 1.505727 0.000000 0.000000 0.000000
1.198771 1.010333 1.359887 0.000000 0.000000 0.000000
1.388175 1.178589 1.380649 0.000000 0.000000 0.000000
1.402187 1.170727 1.396705 0.000000 0.000000 0.000000
1.272746 1.020859 1.428961 0.000000 0.000000 0.000000
1.382133 1.177895 1.374904 0.000000 0.000000 0.000000
1.393757 1.168749 1.386335 0.000000 0.000000 0.000000
1.427700 1.148391 1.437187 0.000000 0.000000 0.000000
1.405229 1.130396 1.502387 0.000000 0.000000 0.000000
1.386953 1.124592 1.410336 0.000000 0.000000 0.000000
1.318271 1.037179 1.565458 0.000000 0.000000 0.000000
1.324072 1.221322 1.210775 0.000000 0.000000 0.000000
1.428346 1.147444 1.442194 0.000000 0.000000 0.000000
1.171412 1.002052 1.335559 0.000000 0.000000 0.000000
1.167255 0.997627 1.303735 0.000000 0.000000 0.000000
1.175078 1.036921 1.184549 0.000000 0.000000 0.000000
1.160327 0.998230 1.255267 0.000000 0.000000 0.000000
1.236197 1.179745 1.155278 0.000000 0.000000 0.000000
1.166571 1.017208 1.208316 0.000000 0.000000 0.000000
1.351892 1.134447 1.340817 0.000000 0.000000 0.000000
1.163131 0.998712 1.259938 0.000000 0.000000 0.000000
1.169468 1.002754 1.255067 0.000000 0.000000 0.000000
1.158569 0.994723 1.303954 0.000000 0.000000 0.000000
1.168634 1.003959 1.251112 0.000000 0.000000 0.000000
1.273270 1.191057 1.180469 0.000000 0.000000 0.000000
1.171193 1.004179 1.248992 0.000000 0.000000 0.000000
1.174531 1.039106 1.177828 0.000000 0.000000 0.000000
1.171884 1.002316 1.263179 0.000000 0.000000 0.000000
1.226036 1.006118 1.426916 0.000000 0.000000 0.000000
1.177759 1.002061 1.285725 0.000000 0.000000 0.000000
1.175176 1.007372 1.249561 0.000000 0.000000 0.000000
1.233593 1.003410 1.436770 0.000000 0.000000 0.000000
1.249766 1.001037 1.488523 0.000000 0.000000 0.000000
1.373919 1.192363 1.341338 0.000000 0.000000 0.000000
1.352992 1.175217 1.304109 0.000000 0.000000 0.000000
1.186647 1.007407 1.267704 0.000000 0.000000 0.000000
1.183933 1.019799 1.235294 0.000000 0.000000 0.000000
1.155786 0.993661 1.283839 0.000000 0.000000 0.000000
1.217042 1.003964 1.426984 0.000000 0.000000 0.000000
1.310279 1.192734 1.218276 0.000000 0.000000 0.000000
1.210355 1.003633 1.419467 0.000000 0.000000 0.000000
1.276958 1.194852 1.181868 0.000000 0.000000 0.000000
1.162217 0.998423 1.253668 0.000000 0.000000 0.000000
1.160225 0.998342 1.311279 0.000000 0.000000 0.000000
1.253623 1.152132 1.195544 0.000000 0.000000 0.000000
1.227090 1.173011 1.154345 0.000000 0.000000 0.000000
1.169249 1.025404 1.192175 0.000000 0.000000 0.000000
1.303285 1.200131 1.196654 0.000000 0.000000 0.000000
1.219140 1.151877 1.148836 0.000000 0.000000 0.000000
1.224156 1.169013 1.149803 0.000000 0.000000 0.000000
1.311384 1.200511 1.210950 0.000000 0.000000 0.000000
1.163121 0.996138 1.311069 0.000000 0.000000 0.000000
1.168348 1.005911 1.237975 0.000000 0.000000 0.000000
1.174153 1.003432 1.306945 0.000000 0.000000 0.000000
1.158387 0.995820 1.275155 0.000000 0.000000 0.000000
1.419360 1.160516 1.412592 0.000000 0.000000 0.000000
1.176805 1.005981 1.297668 0.000000 0.000000 0.000000
1.185550 1.050809 1.178302 0.000000 0.000000 0.000000
1.168659 0.998932 1.314756 0.000000 0.000000 0.000000
1.179434 1.006786 1.256889 0.000000 0.000000 0.000000
1.408572 1.134185 1.434795 0.000000 0.000000 0.000000
1.394522 1.113986 1.468898 0.000000 0.000000 0.000000
1.420401 1.148657 1.429183 0.000000 0.000000 0.000000
1.168817 1.011334 1.225639 0.000000 0.000000 0.000000
1.404845 1.164422 1.400045 0.000000 0.000000 0.000000
1.252605 1.019597 1.406871 0.000000 0.000000 0.000000
1.418380 1.143010 1.434759 0.000000 0.000000 0.000000
1.420015 1.158977 1.423898 0.000000 0.000000 0.000000
1.425195 1.157340 1.422537 0.000000 0.000000 0.000000
1.270924 0.998984 1.504776 0.000000 0.000000 0.000000
1.237367 1.004577 1.477910 0.000000 0.000000 0.000000
1.221434 1.004390 1.436618 0.000000 0.000000 0.000000
1.343320 1.222961 1.235619 0.000000 0.000000 0.000000
1.385798 1.119241 1.421423 0.000000 0.000000 0.000000
1.193201 1.084680 1.162614 0.000000 0.000000 0.000000
1.422246 1.148310 1.423329 0.000000 0.000000 0.000000
1.336123 1.219661 1.239373 0.000000 0.000000 0.000000
1.190156 1.006795 1.367612 0.000000 0.000000 0.000000
1.377940 1.121980 1.398209 0.000000 0.000000 0.000000
1.398009 1.131259 1.419636 0.000000 0.000000 0.000000
1.194713 1.087157 1.154959 0.000000 0.000000 0.000000
1.189407 1.010190 1.397633 0.000000 0.000000 0.000000
1.200390 1.006185 1.385945 0.000000 0.000000 0.000000
1.419822 1.152609 1.419524 0.000000 0.000000 0.000000
1.175352 1.010887 1.235379 0.000000 0.000000 0.000000
1.215850 1.007518 1.379783 0.000000 0.000000 0.000000
1.163842 1.000325 1.256104 0.000000 0.000000 0.000000
1.165197 1.000434 1.245950 0.000000 0.000000 0.000000
1.161116 0.997833 1.262188 0.000000 0.000000 0.000000
1.184451 1.059973 1.166344 0.000000 0.000000 0.000000
1.164082 1.005980 1.222025 0.000000 0.000000 0.000000
1.162983 0.999943 1.252095 0.000000 0.000000 0.000000
1.181553 1.013002 1.242869 0.000000 0.000000 0.000000
1.160577 0.996553 1.272400 0.000000 0.000000 0.000000
1.184110 1.045378 1.181745 0.000000 0.000000 0.000000
1.167446 1.004957 1.233350 0.000000 0.000000 0.000000
1.160286 0.994577 1.302698 0.000000 0.000000 0.000000
1.188061 1.006598 1.325372 0.000000 0.000000 0.000000
1.255940 1.139570 1.207089 0.000000 0.000000 0.000000
1.178830 1.052493 1.180542 0.000000 0.000000 0.000000
1.156818 0.994352 1.262014 0.000000 0.000000 0.000000
1.381194 1.177405 1.370509 0.000000 0.000000 0.000000
1.330576 1.050918 1.579027 0.000000 0.000000 0.000000
1.306823 1.035711 1.580644 0.000000 0.000000 0.000000
1.413832 1.140978 1.430125 0.000000 0.000000 0.000000
1.396778 1.161444 1.395579 0.000000 0.000000 0.000000
1.385627 1.178417 1.388094 0.000000 0.000000 0.000000
1.188628 1.004748 1.373041 0.000000 0.000000 0.000000
1.416973 1.161280 1.417159 0.000000 0.000000 0.000000
1.381109 1.191369 1.362941 0.000000 0.000000 0.000000
1.413468 1.161394 1.412641 0.000000 0.000000 0.000000
1.206376 1.052926 1.202379 0.000000 0.000000 0.000000
1.378281 1.185230 1.371665 0.000000 0.000000 0.000000
1.197567 1.078284 1.175101 0.000000 0.000000 0.000000
1.343401 1.053020 1.583034 0.000000 0.000000 0.000000
1.338404 1.046413 1.590881 0.000000 0.000000 0.000000
1.175417 1.013372 1.223728 0.000000 0.000000 0.000000
1.184100 1.005167 1.365200 0.000000 0.000000 0.000000
1.213111 0.999085 1.432899 0.000000 0.000000 0.000000
1.207196 1.008458 1.367135 0.000000 0.000000 0.000000
1.329607 1.039982 1.592973 0.000000 0.000000 0.000000
1.199046 1.004438 1.394648 0.000000 0.000000 0.000000
1.164130 1.003398 1.274299 0.000000 0.000000 0.000000
1.376755 1.131806 1.589217 0.000000 0.000000 0.000000
1.221470 1.021696 1.313197 0.000000 0.000000 0.000000
1.264376 1.028225 1.374429 0.000000 0.000000 0.000000
1.175012 1.003423 1.298976 0.000000 0.000000 0.000000
1.383000 1.143523 1.565338 0.000000 0.000000 0.000000
1.177008 0.999487 1.334287 0.000000 0.000000 0.000000
1.311891 1.029780 1.573837 0.000000 0.000000 0.000000
1.379564 1.109760 1.433509 0.000000 0.000000 0.000000
1.366393 1.080171 1.561017 0.000000 0.000000 0.000000
1.222562 1.042242 1.247976 0.000000 0.000000 0.000000
1.331907 1.080210 1.405804 0.000000 0.000000 0.000000
1.232430 1.021448 1.438658 0.000000 0.000000 0.000000
1.322834 1.049328 1.491823 0.000000 0.000000 0.000000
1.388117 1.110697 1.494039 0.000000 0.000000 0.000000
1.305120 1.034430 1.521223 0.000000 0.000000 0.000000
1.249706 1.009313 1.459014 0.000000 0.000000 0.000000
1.337384 1.051089 1.572862 0.000000 0.000000 0.000000
1.213252 1.077170 1.193904 0.000000 0.000000 0.000000
1.402074 1.122374 1.494268 0.000000 0.000000 0.000000
1.391026 1.128749 1.418283 0.000000 0.000000 0.000000
1.370241 1.082760 1.583924 0.000000 0.000000 0.000000
1.333233 1.200052 1.259298 0.000000 0.000000 0.000000
1.208263 1.058429 1.199659 0.000000 0.000000 0.000000
1.222989 1.042957 1.373156 0.000000 0.000000 0.000000
1.322996 1.126570 1.298519 0.000000 0.000000 0.000000
1.234782 1.012437 1.400581 0.000000 0.000000 0.000000
1.353053 1.071345 1.507994 0.000000 0.000000 0.000000
1.328093 1.183886 1.252084 0.000000 0.000000 0.000000
1.287623 1.021290 1.482078 0.000000 0.000000 0.000000
1.335068 1.051253 1.540255 0.000000 0.000000 0.000000
1.195535 1.027997 1.233175 0.000000 0.000000 0.000000
1.323340 1.046503 1.503456 0.000000 0.000000 0.000000
1.225418 1.090393 1.194416 0.000000 0.000000 0.000000
1.214283 1.052337 1.219526 0.000000 0.000000 0.000000
1.225347 1.030122 1.280815 0.000000 0.000000 0.000000
1.185650 1.029476 1.207883 0.000000 0.000000 0.000000
1.331955 1.072696 1.466197 0.000000 0.000000 0.000000
1.226413 1.158752 1.164051 0.000000 0.000000 0.000000
1.289550 1.138655 1.243182 0.000000 0.000000 0.000000
1.195625 1.067410 1.178263 0.000000 0.000000 0.000000
1.321552 1.038247 1.551788 0.000000 0.000000 0.000000
1.223008 1.123446 1.170613 0.000000 0.000000 0.000000
1.242211 1.091952 1.218191 0.000000 0.000000 0.000000
1.296267 1.142177 1.244393 0.000000 0.000000 0.000000
1.314842 1.035173 1.513308 0.000000 0.000000 0.000000
1.281021 1.044406 1.365656 0.000000 0.000000 0.000000
1.207189 1.010180 1.333817 0.000000 0.000000 0.000000
1.292717 1.081122 1.313012 0.000000 0.000000 0.000000
1.323157 1.127807 1.305805 0.000000 0.000000 0.000000
1.180748 1.015421 1.234758 0.000000 0.000000 0.000000
1.233498 1.027314 1.324968 0.000000 0.000000 0.000000
1.167064 1.002098 1.272114 0.000000 0.000000 0.000000
1.166879 0.999735 1.281107 0.000000 0.000000 0.000000
1.202617 1.081269 1.168397 0.000000 0.000000 0.000000
1.170635 1.015869 1.216329 0.000000 0.000000 0.000000
1.221949 1.177864 1.142634 0.000000 0.000000 0.000000
1.369941 1.075347 1.599087 0.000000 0.000000 0.000000
1.289885 1.036306 1.567208 0.000000 0.000000 0.000000
1.219567 1.113650 1.157731 0.000000 0.000000 0.000000
1.253136 1.001062 1.483969 0.000000 0.000000 0.000000
1.235949 1.019165 1.398880 0.000000 0.000000 0.000000
1.298346 1.188491 1.208607 0.000000 0.000000 0.000000
1.264231 1.006044 1.478491 0.000000 0.000000 0.000000
1.288335 1.026842 1.456082 0.000000 0.000000 0.000000
1.256582 1.004369 1.501363 0.000000 0.000000 0.000000
1.275330 1.132576 1.233015 0.000000 0.000000 0.000000
1.241925 1.117674 1.197548 0.000000 0.000000 0.000000
1.165657 0.998064 1.277527 0.000000 0.000000 0.000000
1.214967 1.004288 1.388796 0.000000 0.000000 0.000000
1.177464 1.000649 1.370028 0.000000 0.000000 0.000000
1.204789 1.083350 1.179439 0.000000 0.000000 0.000000
1.273790 1.046679 1.338056 0.000000 0.000000 0.000000
1.258467 1.111217 1.227590 0.000000 0.000000 0.000000
1.155650 0.995934 1.287415 0.000000 0.000000 0.000000
1.361578 1.099246 1.416752 0.000000 0.000000 0.000000
1.362833 1.071337 1.575114 0.000000 0.000000 0.000000
1.338217 1.054743 1.546179 0.000000 0.000000 0.000000
1.330849 1.181933 1.267308 0.000000 0.000000 0.000000
1.194939 1.025100 1.248043 0.000000 0.000000 0.000000
1.342103 1.094136 1.385594 0.000000 0.000000 0.000000
1.331381 1.060355 1.455914 0.000000 0.000000 0.000000
1.229246 1.016161 1.432919 0.000000 0.000000 0.000000
1.302775 1.037599 1.470798 0.000000 0.000000 0.000000
1.235771 1.015529 1.377409 0.000000 0.000000 0.000000
1.321906 1.038415 1.560202 0.000000 0.000000 0.000000
1.208593 1.069871 1.195842 0.000000 0.000000 0.000000
1.381300 1.098654 1.559623 0.000000 0.000000 0.000000
1.229547 1.026119 1.308831 0.000000 0.000000 0.000000
1.404770 1.130628 1.503628 0.000000 0.000000 0.000000
1.304322 1.030121 1.537405 0.000000 0.000000 0.000000
1.374010 1.150470 1.366344 0.000000 0.000000 0.000000
1.369888 1.096308 1.453006 0.000000 0.000000 0.000000
1.329091 1.045967 1.564176 0.000000 0.000000 0.000000
1.393059 1.118770 1.523320 0.000000 0.000000 0.000000
1.409055 1.141483 1.423874 0.000000 0.000000 0.000000
1.370801 1.082317 1.560873 0.000000 0.000000 0.000000
1.185249 1.014987 1.242964 0.000000 0.000000 0.000000
1.205136 1.008129 1.332135 0.000000 0.000000 0.000000
1.345336 1.136602 1.328382 0.000000 0.000000 0.000000
1.310989 1.123446 1.287435 0.000000 0.000000 0.000000
1.264335 1.040832 1.344029 0.000000 0.000000 0.000000
1.376218 1.093530 1.545800 0.000000 0.000000 0.000000
1.242648 1.044530 1.279480 0.000000 0.000000 0.000000
1.328416 1.058161 1.530876 0.000000 0.000000 0.000000
1.212728 1.066374 1.204273 0.000000 0.000000 0.000000
1.385396 1.106317 1.565389 0.000000 0.000000 0.000000
1.191201 1.038866 1.204691 0.000000 0.000000 0.000000
1.353757 1.081964 1.455881 0.000000 0.000000 0.000000
1.292553 1.123196 1.258751 0.000000 0.000000 0.000000
1.267581 1.172057 1.185276 0.000000 0.000000 0.000000
1.278725 1.178719 1.187745 0.000000 0.000000 0.000000
1.325556 1.040360 1.554744 0.000000 0.000000 0.000000
1.339562 1.061623 1.475277 0.000000 0.000000 0.000000
1.217045 1.099233 1.180386 0.000000 0.000000 0.000000
1.286543 1.160686 1.217142 0.000000 0.000000 0.000000
1.243334 1.060162 1.253844 0.000000 0.000000 0.000000
1.328412 1.051345 1.478779 0.000000 0.000000 0.000000
1.183416 1.011566 1.270270 0.000000 0.000000 0.000000
1.394613 1.134680 1.567391 0.000000 0.000000 0.000000
1.339211 1.130941 1.327905 0.000000 0.000000 0.000000
1.200636 1.008737 1.339374 0.000000 0.000000 0.000000
1.277439 1.125153 1.244305 0.000000 0.000000 0.000000
1.224536 1.012287 1.372925 0.000000 0.000000 0.000000
1.173598 1.012492 1.231531 0.000000 0.000000 0.000000
1.165506 1.000935 1.266184 0.000000 0.000000 0.000000
1.296567 1.026711 1.546009 0.000000 0.000000 0.000000
1.404298 1.144797 1.409420 0.000000 0.000000 0.000000
1.386252 1.114519 1.586089 0.000000 0.000000 0.000000
1.175293 1.000228 1.285327 0.000000 0.000000 0.000000
1.261973 1.186465 1.167070 0.000000 0.000000 0.000000
1.176579 1.019505 1.215408 0.000000 0.000000 0.000000
1.208272 1.102639 1.164822 0.000000 0.000000 0.000000
1.310426 1.031352 1.546050 0.000000 0.000000 0.000000
1.310941 1.032505 1.577911 0.000000 0.000000 0.000000
1.218499 1.008976 1.396905 0.000000 0.000000 0.000000
1.229574 1.006017 1.458007 0.000000 0.000000 0.000000
1.257127 1.121437 1.225078 0.000000 0.000000 0.000000
1.250561 1.095597 1.229243 0.000000 0.000000 0.000000
1.178458 1.023992 1.214844 0.000000 0.000000 0.000000
1.344052 1.213900 1.257488 0.000000 0.000000 0.000000
1.282461 1.053406 1.338882 0.000000 0.000000 0.000000
1.257462 1.045064 1.303864 0.000000 0.000000 0.000000
1.219914 1.112391 1.171838 0.000000 0.000000 0.000000
1.382736 1.128754 1.394744 0.000000 0.000000 0.000000
1.217008 1.123633 1.151812 0.000000 0.000000 0.000000
1.247427 1.185000 1.156233 0.000000 0.000000 0.000000
1.205333 1.119595 1.145946 0.000000 0.000000 0.000000
1.208835 1.083866 1.181547 0.000000 0.000000 0.000000
1.205631 1.006694 1.374248 0.000000 0.000000 0.000000
1.165477 1.007146 1.229639 0.000000 0.000000 0.000000
1.175313 1.040735 1.167221 0.000000 0.000000 0.000000
1.194796 1.024799 1.249645 0.000000 0.000000 0.000000
1.164249 1.003725 1.228306 0.000000 0.000000 0.000000
1.365678 1.194875 1.328409 0.000000 0.000000 0.000000
1.351944 1.172777 1.313899 0.000000 0.000000 0.000000
1.318807 1.178854 1.241442 0.000000 0.000000 0.000000
1.166757 1.013626 1.218611 0.000000 0.000000 0.000000
1.360162 1.081810 1.540720 0.000000 0.000000 0.000000
1.319222 1.100904 1.327386 0.000000 0.000000 0.000000
1.374858 1.180013 1.353355 0.000000 0.000000 0.000000
1.373772 1.194888 1.345817 0.000000 0.000000 0.000000
1.170329 1.010541 1.228469 0.000000 0.000000 0.000000
1.312232 1.072870 1.377054 0.000000 0.000000 0.000000
1.367458 1.145215 1.357190 0.000000 0.000000 0.000000
1.257681 1.036792 1.328160 0.000000 0.000000 0.000000
1.241333 1.102846 1.205205 0.000000 0.000000 0.000000
1.301243 1.062746 1.366062 0.000000 0.000000 0.000000
1.277059 1.201794 1.177244 0.000000 0.000000 0.000000
1.367054 1.177097 1.348565 0.000000 0.000000 0.000000
1.198155 1.010025 1.386393 0.000000 0.000000 0.000000
1.212715 1.008798 1.428198 0.000000 0.000000 0.000000
1.287115 1.085598 1.297441 0.000000 0.000000 0.000000
1.267013 1.062605 1.302623 0.000000 0.000000 0.000000
1.187531 1.029593 1.215687 0.000000 0.000000 0.000000
1.375087 1.183670 1.348019 0.000000 0.000000 0.000000
1.378503 1.168954 1.366367 0.000000 0.000000 0.000000
1.347681 1.153088 1.324444 0.000000 0.000000 0.000000
1.293484 1.133019 1.256936 0.000000 0.000000 0.000000
1.347012 1.077742 1.468235 0.000000 0.000000 0.000000
1.167871 1.012187 1.220670 0.000000 0.000000 0.000000
1.317390 1.159769 1.265594 0.000000 0.000000 0.000000
1.367847 1.181479 1.339247 0.000000 0.000000 0.000000
1.179178 1.018908 1.227703 0.000000 0.000000 0.000000
1.164184 1.007407 1.225173 0.000000 0.000000 0.000000
1.347546 1.144992 1.330783 0.000000 0.000000 0.000000
1.251639 1.119217 1.216899 0.000000 0.000000 0.000000
1.332439 1.094460 1.360083 0.000000 0.000000 0.000000
1.217751 1.004913 1.414916 0.000000 0.000000 0.000000
1.168391 1.012759 1.218002 0.000000 0.000000 0.000000
1.177764 1.022363 1.217860 0.000000 0.000000 0.000000
1.215545 1.006589 1.414356 0.000000 0.000000 0.000000
1.311199 1.080706 1.346188 0.000000 0.000000 0.000000
1.267467 1.048745 1.315146 0.000000 0.000000 0.000000
1.209847 1.110611 1.155468 0.000000 0.000000 0.000000
1.248801 1.179575 1.161146 0.000000 0.000000 0.000000
1.163039 0.997040 1.286056 0.000000 0.000000 0.000000
1.318863 1.199831 1.220581 0.000000 0.000000 0.000000
1.399768 1.170653 1.405704 0.000000 0.000000 0.000000
1.378028 1.179027 1.363019 0.000000 0.000000 0.000000
1.354882 1.117595 1.363929 0.000000 0.000000 0.000000
1.404996 1.148337 1.516992 0.000000 0.000000 0.000000
1.183843 1.004836 1.366915 0.000000 0.000000 0.000000
1.230002 1.141444 1.173608 0.000000 0.000000 0.000000
1.221499 1.130205 1.153509 0.000000 0.000000 0.000000
1.217825 1.115795 1.162150 0.000000 0.000000 0.000000
1.170988 0.998130 1.322319 0.000000 0.000000 0.000000
1.235972 1.030945 1.307258 0.000000 0.000000 0.000000
1.361163 1.193534 1.326809 0.000000 0.000000 0.000000
1.294632 1.020283 1.549241 0.000000 0.000000 0.000000
1.293531 1.024961 1.491612 0.000000 0.000000 0.000000
1.209607 1.004650 1.432382 0.000000 0.000000 0.000000
1.393048 1.178823 1.388798 0.000000 0.000000 0.000000
1.437116 1.149402 1.455080 0.000000 0.000000 0.000000
1.376001 1.184988 1.358105 0.000000 0.000000 0.000000
1.339491 1.216330 1.242867 0.000000 0.000000 0.000000
1.336053 1.203386 1.248009 0.000000 0.000000 0.000000
1.221263 1.149582 1.148422 0.000000 0.000000 0.000000
1.409884 1.143282 1.504959 0.000000 0.000000 0.000000
1.189599 1.003390 1.346780 0.000000 0.000000 0.000000
1.204794 1.071377 1.187336 0.000000 0.000000 0.000000
1.217801 1.131777 1.149137 0.000000 0.000000 0.000000
1.169306 0.998648 1.335379 0.000000 0.000000 0.000000
1.318969 1.047770 1.462628 0.000000 0.000000 0.000000
1.287428 1.014819 1.523338 0.000000 0.000000 0.000000
1.361286 1.082344 1.513616 0.000000 0.000000 0.000000
1.355861 1.205539 1.310966 0.000000 0.000000 0.000000
1.322644 1.207738 1.218067 0.000000 0.000000 0.000000
1.171635 1.001585 1.339650 0.000000 0.000000 0.000000
1.216527 1.177854 1.143458 0.000000 0.000000 0.000000
1.196286 1.097386 1.153020 0.000000 0.000000 0.000000
1.209966 1.004457 1.420427 0.000000 0.000000 0.000000
1.352465 1.206694 1.281256 0.000000 0.000000 0.000000
1.240881 1.002280 1.460477 0.000000 0.000000 0.000000
1.220675 1.182979 1.143460 0.000000 0.000000 0.000000
1.164787 0.999484 1.299241 0.000000 0.000000 0.000000
1.269090 1.155516 1.201260 0.000000 0.000000 0.000000
1.317379 1.206223 1.213535 0.000000 0.000000 0.000000
1.338142 1.214103 1.245253 0.000000 0.000000 0.000000
1.286319 1.016330 1.507216 0.000000 0.000000 0.000000
1.185336 1.004388 1.376476 0.000000 0.000000 0.000000
1.343445 1.216928 1.257746 0.000000 0.000000 0.000000
1.235738 1.008116 1.451346 0.000000 0.000000 0.000000
1.205184 1.007589 1.409270 0.000000 0.000000 0.000000
1.333418 1.217361 1.227934 0.000000 0.000000 0.000000
1.332720 1.213056 1.232189 0.000000 0.000000 0.000000
1.388619 1.173657 1.382266 0.000000 0.000000 0.000000
1.294606 1.020994 1.521215 0.000000 0.000000 0.000000
1.183955 1.004232 1.366583 0.000000 0.000000 0.000000
1.167704 0.997692 1.337658 0.000000 0.000000 0.000000
1.168880 1.005671 1.235301 0.000000 0.000000 0.000000
1.384773 1.181769 1.380350 0.000000 0.000000 0.000000
1.166166 1.010190 1.226141 0.000000 0.000000 0.000000
1.173733 1.001817 1.256099 0.000000 0.000000 0.000000
1.192274 1.005183 1.374801 0.000000 0.000000 0.000000
1.400623 1.140188 1.465778 0.000000 0.000000 0.000000
1.393168 1.129513 1.562660 0.000000 0.000000 0.000000
1.337020 1.221518 1.228188 0.000000 0.000000 0.000000
1.347699 1.204130 1.275433 0.000000 0.000000 0.000000
1.247699 0.994677 1.495621 0.000000 0.000000 0.000000
1.243118 1.002108 1.487350 0.000000 0.000000 0.000000
1.254448 0.991677 1.498566 0.000000 0.000000 0.000000
1.422560 1.149409 1.482332 0.000000 0.000000 0.000000
1.169833 1.024419 1.196904 0.000000 0.000000 0.000000
1.417994 1.140144 1.472270 0.000000 0.000000 0.000000
1.222591 1.021553 1.338753 0.000000 0.000000 0.000000
1.248858 0.997410 1.496930 0.000000 0.000000 0.000000
1.272118 1.043894 1.334804 0.000000 0.000000 0.000000
1.332131 1.193604 1.247549 0.000000 0.000000 0.000000
1.248752 1.021520 1.380304 0.000000 0.000000 0.000000
1.252019 1.029842 1.351339 0.000000 0.000000 0.000000
1.326099 1.215549 1.216756 0.000000 0.000000 0.000000
1.406938 1.129967 1.469606 0.000000 0.000000 0.000000
1.387558 1.109271 1.558374 0.000000 0.000000 0.000000
1.388968 1.114281 1.567512 0.000000 0.000000 0.000000
1.401426 1.135873 1.522389 0.000000 0.000000 0.000000
1.421594 1.141350 1.462355 0.000000 0.000000 0.000000
1.391737 1.121931 1.554343 0.000000 0.000000 0.000000
1.331582 1.208099 1.233929 0.000000 0.000000 0.000000
1.372671 1.170097 1.352670 0.000000 0.000000 0.000000
1.354502 1.206492 1.291015 0.000000 0.000000 0.000000
1.248150 1.003348 1.489799 0.000000 0.000000 0.000000
1.261040 1.003642 1.483170 0.000000 0.000000 0.000000
1.255587 0.999572 1.506156 0.000000 0.000000 0.000000
1.227341 1.019027 1.353363 0.000000 0.000000 0.000000
1.332377 1.198525 1.251495 0.000000 0.000000 0.000000
1.265963 1.018083 1.419056 0.000000 0.000000 0.000000
1.426202 1.147450 1.458526 0.000000 0.000000 0.000000
1.290293 1.013783 1.531761 0.000000 0.000000 0.000000
1.167628 0.999922 1.293340 0.000000 0.000000 0.000000
1.155603 0.993749 1.285931 0.000000 0.000000 0.000000
1.328244 1.218842 1.240634 0.000000 0.000000 0.000000
1.156681 0.995092 1.285795 0.000000 0.000000 0.000000
1.405401 1.172879 1.401220 0.000000 0.000000 0.000000
1.158192 0.994655 1.300542 0.000000 0.000000 0.000000
1.162549 0.996259 1.299447 0.000000 0.000000 0.000000
1.411976 1.171977 1.411966 0.000000 0.000000 0.000000
1.233195 1.161263 1.162245 0.000000 0.000000 0.000000
1.426705 1.150359 1.435821 0.000000 0.000000 0.000000
1.419047 1.148370 1.480890 0.000000 0.000000 0.000000
1.161195 0.995801 1.312771 0.000000 0.000000 0.000000
1.167452 1.024908 1.201777 0.000000 0.000000 0.000000
1.400604 1.150247 1.551484 0.000000 0.000000 0.000000
1.170972 1.000156 1.341339 0.000000 0.000000 0.000000
1.224591 1.004573 1.431480 0.000000 0.000000 0.000000
1.408438 1.138928 1.503268 0.000000 0.000000 0.000000
1.355379 1.125272 1.372605 0.000000 0.000000 0.000000
1.184759 1.063454 1.159019 0.000000 0.000000 0.000000
1.253163 1.016629 1.410598 0.000000 0.000000 0.000000
1.227876 1.016562 1.366058 0.000000 0.000000 0.000000
1.412686 1.143057 1.419551 0.000000 0.000000 0.000000
1.230248 1.182407 1.150057 0.000000 0.000000 0.000000
1.388452 1.187249 1.377361 0.000000 0.000000 0.000000
1.180583 1.055723 1.162243 0.000000 0.000000 0.000000
1.372801 1.125142 1.377329 0.000000 0.000000 0.000000
1.288493 1.039861 1.400118 0.000000 0.000000 0.000000
1.247917 1.017716 1.391529 0.000000 0.000000 0.000000
1.222340 1.178559 1.151609 0.000000 0.000000 0.000000
1.385813 1.183134 1.374908 0.000000 0.000000 0.000000
1.154734 0.995311 1.286858 0.000000 0.000000 0.000000
1.398242 1.146435 1.557811 0.000000 0.000000 0.000000
1.395116 1.127981 1.528667 0.000000 0.000000 0.000000
1.347168 1.169899 1.299728 0.000000 0.000000 0.000000
1.357683 1.153913 1.332061 0.000000 0.000000 0.000000
1.353030 1.150274 1.327714 0.000000 0.000000 0.000000
1.171618 1.027734 1.190807 0.000000 0.000000 0.000000
1.396101 1.173170 1.390833 0.000000 0.000000 0.000000
1.397008 1.142538 1.553312 0.000000 0.000000 0.000000
1.393719 1.146774 1.554137 0.000000 0.000000 0.000000
1.200276 1.103634 1.161513 0.000000 0.000000 0.000000
1.199851 1.064660 1.180595 0.000000 0.000000 0.000000
1.432315 1.150879 1.436407 0.000000 0.000000 0.000000
1.383956 1.104640 1.480472 0.000000 0.000000 0.000000
1.315067 1.090071 1.334069 0.000000 0.000000 0.000000
1.353948 1.119405 1.356903 0.000000 0.000000 0.000000
1.356804 1.095481 1.417716 0.000000 0.000000 0.000000
1.318990 1.072085 1.386714 0.000000 0.000000 0.000000
1.359080 1.143440 1.339465 0.000000 0.000000 0.000000
1.395896 1.170671 1.393606 0.000000 0.000000 0.000000
1.222181 1.002427 1.451327 0.000000 0.000000 0.000000
1.332230 1.115109 1.328745 0.000000 0.000000 0.000000
1.370119 1.161787 1.352161 0.000000 0.000000 0.000000
1.360434 1.166901 1.328804 0.000000 0.000000 0.000000
1.359745 1.156305 1.334220 0.000000 0.000000 0.000000
1.367617 1.141107 1.357381 0.000000 0.000000 0.000000
1.385139 1.171979 1.377269 0.000000 0.000000 0.000000
1.170288 1.016225 1.216343 0.000000 0.000000 0.000000
1.195005 1.081901 1.161667 0.000000 0.000000 0.000000
1.290861 1.202105 1.184641 0.000000 0.000000 0.000000
1.300055 1.205913 1.184872 0.000000 0.000000 0.000000
1.298535 1.214376 1.186143 0.000000 0.000000 0.000000
1.431618 1.153347 1.432022 0.000000 0.000000 0.000000
1.261928 1.093651 1.248873 0.000000 0.000000 0.000000
1.161965 0.998208 1.323488 0.000000 0.000000 0.000000
1.391788 1.134725 1.595783 0.000000 0.000000 0.000000
1.351128 1.106340 1.372983 0.000000 0.000000 0.000000
1.362488 1.096868 1.428189 0.000000 0.000000 0.000000
1.342526 1.093014 1.382337 0.000000 0.000000 0.000000
1.193609 1.081043 1.159117 0.000000 0.000000 0.000000
1.362747 1.129683 1.360695 0.000000 0.000000 0.000000
1.389983 1.117724 1.577269 0.000000 0.000000 0.000000
1.335229 1.104083 1.345750 0.000000 0.000000 0.000000
1.297976 1.064136 1.350807 0.000000 0.000000 0.000000
1.362991 1.115403 1.382277 0.000000 0.000000 0.000000
1.332770 1.142780 1.300195 0.000000 0.000000 0.000000
1.403392 1.177640 1.398723 0.000000 0.000000 0.000000
1.404563 1.139965 1.519616 0.000000 0.000000 0.000000
1.166232 1.005797 1.232552 0.000000 0.000000 0.000000
1.211757 1.119634 1.157494 0.000000 0.000000 0.000000
1.179270 1.045549 1.173462 0.000000 0.000000 0.000000
1.398396 1.148487 1.563141 0.000000 0.000000 0.000000
1.189276 1.063740 1.160535 0.000000 0.000000 0.000000
1.202648 1.110521 1.146486 0.000000 0.000000 0.000000
1.213250 1.111413 1.164069 0.000000 0.000000 0.000000
1.220468 1.148794 1.148112 0.000000 0.000000 0.000000
1.213658 1.113186 1.158756 0.000000 0.000000 0.000000
1.188219 1.070864 1.161043 0.000000 0.000000 0.000000
1.180758 1.032932 1.194726 0.000000 0.000000 0.000000
1.180948 1.053254 1.167743 0.000000 0.000000 0.000000
1.184609 1.064952 1.163493 0.000000 0.000000 0.000000
1.411813 1.170592 1.407906 0.000000 0.000000 0.000000
1.285523 1.211294 1.176358 0.000000 0.000000 0.000000
1.393192 1.135609 1.572600 0.000000 0.000000 0.000000
1.189565 1.076329 1.154367 0.000000 0.000000 0.000000
1.311262 1.218012 1.196282 0.000000 0.000000 0.000000
1.394154 1.130269 1.573149 0.000000 0.000000 0.000000
1.398918 1.141991 1.548839 0.000000 0.000000 0.000000
1.239879 1.196260 1.154155 0.000000 0.000000 0.000000
1.381278 1.134664 1.568969 0.000000 0.000000 0.000000
1.207914 1.118357 1.156019 0.000000 0.000000 0.000000
1.229642 1.162178 1.167078 0.000000 0.000000 0.000000
1.206102 1.104171 1.155340 0.000000 0.000000 0.000000
1.360823 1.200249 1.309397 0.000000 0.000000 0.000000
1.399724 1.162397 1.397410 0.000000 0.000000 0.000000
1.312196 1.205050 1.206717 0.000000 0.000000 0.000000
1.208349 1.110278 1.159182 0.000000 0.000000 0.000000
1.204085 1.072003 1.180051 0.000000 0.000000 0.000000
1.411383 1.147013 1.510698 0.000000 0.000000 0.000000
1.200314 1.006663 1.345251 0.000000 0.000000 0.000000
1.167525 1.011896 1.218937 0.000000 0.000000 0.000000
1.213108 1.136391 1.148368 0.000000 0.000000 0.000000
1.220556 1.155027 1.144609 0.000000 0.000000 0.000000
1.216264 1.146607 1.142400 0.000000 0.000000 0.000000
1.411985 1.147485 1.502755 0.000000 0.000000 0.000000
1.170657 1.018776 1.213274 0.000000 0.000000 0.000000
1.166951 0.999125 1.336855 0.000000 0.000000 0.000000
1.207932 1.125771 1.146748 0.000000 0.000000 0.000000
1.177961 1.022895 1.212917 0.000000 0.000000 0.000000
1.215618 1.138767 1.149487 0.000000 0.000000 0.000000
1.170014 1.006857 1.237595 0.000000 0.000000 0.000000
1.172223 1.002964 1.264246 0.000000 0.000000 0.000000
1.168936 1.004034 1.243930 0.000000 0.000000 0.000000
1.165588 1.000367 1.251004 0.000000 0.000000 0.000000
1.174095 1.007251 1.243135 0.000000 0.000000 0.000000
1.163782 1.000828 1.240189 0.000000 0.000000 0.000000
1.266136 1.005335 1.509288 0.000000 0.000000 0.000000
1.406931 1.149638 1.529468 0.000000 0.000000 0.000000
1.184308 1.008716 1.368869 0.000000 0.000000 0.000000
1.313949 1.048180 1.593500 0.000000 0.000000 0.000000
1.404235 1.147404 1.528502 0.000000 0.000000 0.000000
1.216053 1.144940 1.146232 0.000000 0.000000 0.000000
1.210265 1.005875 1.401483 0.000000 0.000000 0.000000
1.170169 1.015894 1.213917 0.000000 0.000000 0.000000
1.221784 1.168466 1.143384 0.000000 0.000000 0.000000
1.175704 1.021297 1.212959 0.000000 0.000000 0.000000
1.223945 1.170740 1.147184 0.000000 0.000000 0.000000
1.167198 0.997910 1.266657 0.000000 0.000000 0.000000
1.156263 0.994633 1.288082 0.000000 0.000000 0.000000
1.183267 1.031295 1.204278 0.000000 0.000000 0.000000
1.306139 1.028086 1.562923 0.000000 0.000000 0.000000
1.321518 1.036398 1.573068 0.000000 0.000000 0.000000
1.177903 1.030030 1.197753 0.000000 0.000000 0.000000
1.172598 1.028400 1.192569 0.000000 0.000000 0.000000
1.255389 1.199239 1.156194 0.000000 0.000000 0.000000
1.224424 1.168560 1.148227 0.000000 0.000000 0.000000
1.250526 1.145084 1.197557 0.000000 0.000000 0.000000
1.155283 0.989125 1.301367 0.000000 0.000000 0.000000
1.171931 1.004126 1.258239 0.000000 0.000000 0.000000
1.316389 1.037225 1.569969 0.000000 0.000000 0.000000
1.271428 1.196522 1.173377 0.000000 0.000000 0.000000
1.305996 1.027657 1.568465 0.000000 0.000000 0.000000
1.177344 1.038524 1.181700 0.000000 0.000000 0.000000
1.168931 1.024222 1.190420 0.000000 0.000000 0.000000
1.239115 1.186636 1.151165 0.000000 0.000000 0.000000
1.161404 0.995017 1.288136 0.000000 0.000000 0.000000
1.226975 1.184992 1.139667 0.000000 0.000000 0.000000
1.175936 1.034370 1.189627 0.000000 0.000000 0.000000
1.159294 0.994040 1.303686 0.000000 0.000000 0.000000
1.219998 1.180080 1.152510 0.000000 0.000000 0.000000
1.219906 1.178570 1.145961 0.000000 0.000000 0.000000
1.167521 1.013954 1.220124 0.000000 0.000000 0.000000
1.166165 0.992648 1.316234 0.000000 0.000000 0.000000
1.172875 1.033013 1.184997 0.000000 0.000000 0.000000
1.205385 1.009376 1.404028 0.000000 0.000000 0.000000
1.172600 1.017520 1.218717 0.000000 0.000000 0.000000
1.222112 1.000013 1.464931 0.000000 0.000000 0.000000
1.185464 1.063040 1.168265 0.000000 0.000000 0.000000
1.228659 1.002918 1.467718 0.000000 0.000000 0.000000
