ply
format ascii 1.0
comment VCGLIB generated
obj_info Generated by SPFormer!
element vertex 884
property float x
property float y
property float z
property float nx
property float ny
property float nz
end_header
1.245349 1.083786 0.266000 0.000000 0.000000 0.000000
1.529012 1.280629 0.330938 0.000000 0.000000 0.000000
1.532800 1.279830 0.331260 0.000000 0.000000 0.000000
1.571714 1.213958 0.368165 0.000000 0.000000 0.000000
1.409119 1.067837 0.338906 0.000000 0.000000 0.000000
1.500914 1.259350 0.326597 0.000000 0.000000 0.000000
1.463178 1.151831 0.318660 0.000000 0.000000 0.000000
1.537680 1.108457 0.370138 0.000000 0.000000 0.000000
1.341732 1.010367 0.330136 0.000000 0.000000 0.000000
1.395300 1.110331 0.323798 0.000000 0.000000 0.000000
1.476680 1.425175 0.382435 0.000000 0.000000 0.000000
1.401336 1.345496 0.282296 0.000000 0.000000 0.000000
1.445476 1.342137 0.305234 0.000000 0.000000 0.000000
1.365352 1.149831 0.289378 0.000000 0.000000 0.000000
1.489823 1.147818 0.329644 0.000000 0.000000 0.000000
1.543075 1.077843 0.367787 0.000000 0.000000 0.000000
1.510188 1.284633 0.337635 0.000000 0.000000 0.000000
1.317398 1.080840 0.289516 0.000000 0.000000 0.000000
1.540721 1.228054 0.341594 0.000000 0.000000 0.000000
1.345863 1.138184 0.284801 0.000000 0.000000 0.000000
1.565405 1.226713 0.358543 0.000000 0.000000 0.000000
1.243240 1.073625 0.266426 0.000000 0.000000 0.000000
1.233780 1.063726 0.276009 0.000000 0.000000 0.000000
1.276416 1.142695 0.245845 0.000000 0.000000 0.000000
1.458062 0.987475 0.370327 0.000000 0.000000 0.000000
1.300526 0.998752 0.322650 0.000000 0.000000 0.000000
1.358828 1.269759 0.268829 0.000000 0.000000 0.000000
1.561589 1.236225 0.354678 0.000000 0.000000 0.000000
1.555618 1.284243 0.360483 0.000000 0.000000 0.000000
1.521407 1.051984 0.365638 0.000000 0.000000 0.000000
1.486226 0.997094 0.379858 0.000000 0.000000 0.000000
1.339323 0.972175 0.338031 0.000000 0.000000 0.000000
1.367957 1.367141 0.271405 0.000000 0.000000 0.000000
1.295808 0.968532 0.314370 0.000000 0.000000 0.000000
1.516323 1.106791 0.355341 0.000000 0.000000 0.000000
1.532715 1.215902 0.340456 0.000000 0.000000 0.000000
1.541757 1.129716 0.364737 0.000000 0.000000 0.000000
1.465699 1.340866 0.325223 0.000000 0.000000 0.000000
1.534615 1.175082 0.346180 0.000000 0.000000 0.000000
1.532956 1.113269 0.372431 0.000000 0.000000 0.000000
1.540569 1.263137 0.336041 0.000000 0.000000 0.000000
1.329681 1.104013 0.292259 0.000000 0.000000 0.000000
1.388621 0.987049 0.344233 0.000000 0.000000 0.000000
1.309305 1.065820 0.288784 0.000000 0.000000 0.000000
1.437995 1.124480 0.334229 0.000000 0.000000 0.000000
1.420930 1.427734 0.352654 0.000000 0.000000 0.000000
1.314783 1.100213 0.280512 0.000000 0.000000 0.000000
1.300701 1.175529 0.241297 0.000000 0.000000 0.000000
1.483200 1.120639 0.343488 0.000000 0.000000 0.000000
1.376448 1.221421 0.265412 0.000000 0.000000 0.000000
1.542569 1.227023 0.338320 0.000000 0.000000 0.000000
1.432701 1.228613 0.293453 0.000000 0.000000 0.000000
1.543923 1.108670 0.372511 0.000000 0.000000 0.000000
1.534617 1.143888 0.355884 0.000000 0.000000 0.000000
1.376639 1.039413 0.336701 0.000000 0.000000 0.000000
1.522129 1.077517 0.367870 0.000000 0.000000 0.000000
1.408271 1.388992 0.307331 0.000000 0.000000 0.000000
1.296864 0.996646 0.316869 0.000000 0.000000 0.000000
1.329926 1.154758 0.266171 0.000000 0.000000 0.000000
1.502906 1.170772 0.348447 0.000000 0.000000 0.000000
1.409595 1.342959 0.295158 0.000000 0.000000 0.000000
1.448713 1.313110 0.288728 0.000000 0.000000 0.000000
1.452149 1.182507 0.299130 0.000000 0.000000 0.000000
1.437578 1.392908 0.312056 0.000000 0.000000 0.000000
1.505481 1.120044 0.344824 0.000000 0.000000 0.000000
1.497137 1.097955 0.347080 0.000000 0.000000 0.000000
1.422344 1.056238 0.343831 0.000000 0.000000 0.000000
1.416121 1.297393 0.278964 0.000000 0.000000 0.000000
1.396642 1.070989 0.337349 0.000000 0.000000 0.000000
1.537945 1.187542 0.347666 0.000000 0.000000 0.000000
1.418361 1.185684 0.295608 0.000000 0.000000 0.000000
1.496749 1.399745 0.377920 0.000000 0.000000 0.000000
1.456496 1.087829 0.347011 0.000000 0.000000 0.000000
1.398211 1.132167 0.319093 0.000000 0.000000 0.000000
1.481328 1.322800 0.313721 0.000000 0.000000 0.000000
1.494030 1.165179 0.325256 0.000000 0.000000 0.000000
1.456089 1.121883 0.339019 0.000000 0.000000 0.000000
1.562313 1.183166 0.365388 0.000000 0.000000 0.000000
1.471319 1.105441 0.342507 0.000000 0.000000 0.000000
1.364252 0.971288 0.341128 0.000000 0.000000 0.000000
1.343275 1.093184 0.306680 0.000000 0.000000 0.000000
1.293318 1.105265 0.268595 0.000000 0.000000 0.000000
1.418031 1.186098 0.307834 0.000000 0.000000 0.000000
1.451919 1.169662 0.303662 0.000000 0.000000 0.000000
1.444630 1.302905 0.302595 0.000000 0.000000 0.000000
1.446806 1.092923 0.343027 0.000000 0.000000 0.000000
1.388892 1.215905 0.290941 0.000000 0.000000 0.000000
1.534442 1.165187 0.344908 0.000000 0.000000 0.000000
1.356988 1.088485 0.316110 0.000000 0.000000 0.000000
1.454950 1.130819 0.334341 0.000000 0.000000 0.000000
1.294971 1.049695 0.283972 0.000000 0.000000 0.000000
1.410016 1.419544 0.327284 0.000000 0.000000 0.000000
1.307315 1.039191 0.304506 0.000000 0.000000 0.000000
1.285102 1.000584 0.314780 0.000000 0.000000 0.000000
1.549940 1.221888 0.344479 0.000000 0.000000 0.000000
1.542481 1.206430 0.342503 0.000000 0.000000 0.000000
1.474934 1.043047 0.363956 0.000000 0.000000 0.000000
1.413516 1.091334 0.336824 0.000000 0.000000 0.000000
1.423581 1.327253 0.286398 0.000000 0.000000 0.000000
1.446957 1.318877 0.295738 0.000000 0.000000 0.000000
1.231859 1.084980 0.260509 0.000000 0.000000 0.000000
1.552719 1.194263 0.352206 0.000000 0.000000 0.000000
1.446198 1.139088 0.329468 0.000000 0.000000 0.000000
1.487059 1.372968 0.349958 0.000000 0.000000 0.000000
1.504237 1.075018 0.358059 0.000000 0.000000 0.000000
1.493378 1.268310 0.368109 0.000000 0.000000 0.000000
1.439133 1.158110 0.321470 0.000000 0.000000 0.000000
1.530285 1.036063 0.383839 0.000000 0.000000 0.000000
1.493512 1.198418 0.312175 0.000000 0.000000 0.000000
1.384964 1.149819 0.299836 0.000000 0.000000 0.000000
1.322791 1.042271 0.311319 0.000000 0.000000 0.000000
1.502000 1.078360 0.360090 0.000000 0.000000 0.000000
1.488700 1.364745 0.335814 0.000000 0.000000 0.000000
1.367979 1.371305 0.288030 0.000000 0.000000 0.000000
1.520986 1.039066 0.361472 0.000000 0.000000 0.000000
1.433265 1.157337 0.323127 0.000000 0.000000 0.000000
1.474610 1.288074 0.301651 0.000000 0.000000 0.000000
1.469617 1.215513 0.315525 0.000000 0.000000 0.000000
1.401657 1.181861 0.289093 0.000000 0.000000 0.000000
1.252031 1.062162 0.281179 0.000000 0.000000 0.000000
1.257156 1.078123 0.279211 0.000000 0.000000 0.000000
1.477154 1.434394 0.396018 0.000000 0.000000 0.000000
1.493502 0.998424 0.380220 0.000000 0.000000 0.000000
1.564544 1.264775 0.359782 0.000000 0.000000 0.000000
1.290689 1.047152 0.271548 0.000000 0.000000 0.000000
1.380569 1.382454 0.278381 0.000000 0.000000 0.000000
1.490445 1.004320 0.379554 0.000000 0.000000 0.000000
1.373205 1.385649 0.282042 0.000000 0.000000 0.000000
1.384988 1.384524 0.278408 0.000000 0.000000 0.000000
1.388856 1.385662 0.285438 0.000000 0.000000 0.000000
1.411714 1.346638 0.288148 0.000000 0.000000 0.000000
1.573913 1.205348 0.372849 0.000000 0.000000 0.000000
1.397586 1.391392 0.303399 0.000000 0.000000 0.000000
1.407215 1.239823 0.272646 0.000000 0.000000 0.000000
1.424987 1.228244 0.286176 0.000000 0.000000 0.000000
1.359270 1.100690 0.308723 0.000000 0.000000 0.000000
1.249069 1.088741 0.248771 0.000000 0.000000 0.000000
1.227113 1.134512 0.249552 0.000000 0.000000 0.000000
1.371273 1.381799 0.281267 0.000000 0.000000 0.000000
1.343754 1.285479 0.247546 0.000000 0.000000 0.000000
1.531851 1.152330 0.335933 0.000000 0.000000 0.000000
1.560368 1.091734 0.399558 0.000000 0.000000 0.000000
1.296886 1.151229 0.245652 0.000000 0.000000 0.000000
1.238328 1.076774 0.268329 0.000000 0.000000 0.000000
1.519975 1.323855 0.331918 0.000000 0.000000 0.000000
1.534254 1.125624 0.347148 0.000000 0.000000 0.000000
1.262495 1.024124 0.293875 0.000000 0.000000 0.000000
1.375020 1.373827 0.273102 0.000000 0.000000 0.000000
1.567189 1.181885 0.373500 0.000000 0.000000 0.000000
1.368643 1.369880 0.266600 0.000000 0.000000 0.000000
1.584717 1.308916 0.357845 0.000000 0.000000 0.000000
1.369719 1.376920 0.278597 0.000000 0.000000 0.000000
1.370678 1.372240 0.271877 0.000000 0.000000 0.000000
1.569241 1.194014 0.371377 0.000000 0.000000 0.000000
1.341785 1.321011 0.237843 0.000000 0.000000 0.000000
1.302191 1.149826 0.262106 0.000000 0.000000 0.000000
1.302556 0.996837 0.326282 0.000000 0.000000 0.000000
1.256365 1.112605 0.273307 0.000000 0.000000 0.000000
1.311541 0.984303 0.331677 0.000000 0.000000 0.000000
1.393001 1.308136 0.271040 0.000000 0.000000 0.000000
1.314793 0.977867 0.327728 0.000000 0.000000 0.000000
1.464329 1.325240 0.310853 0.000000 0.000000 0.000000
1.474302 1.283835 0.323361 0.000000 0.000000 0.000000
1.425375 1.422046 0.336002 0.000000 0.000000 0.000000
1.314546 1.049699 0.307244 0.000000 0.000000 0.000000
1.530242 1.233495 0.327397 0.000000 0.000000 0.000000
1.290072 1.062250 0.280765 0.000000 0.000000 0.000000
1.394776 1.059570 0.342088 0.000000 0.000000 0.000000
1.543193 1.070908 0.391972 0.000000 0.000000 0.000000
1.500090 1.147495 0.334181 0.000000 0.000000 0.000000
1.408648 1.433555 0.345616 0.000000 0.000000 0.000000
1.567235 1.295687 0.367592 0.000000 0.000000 0.000000
1.258191 1.049641 0.273921 0.000000 0.000000 0.000000
1.291295 1.045579 0.288549 0.000000 0.000000 0.000000
1.333640 0.962950 0.336684 0.000000 0.000000 0.000000
1.278688 1.004303 0.297137 0.000000 0.000000 0.000000
1.559770 1.296534 0.366311 0.000000 0.000000 0.000000
1.361894 0.967062 0.343984 0.000000 0.000000 0.000000
1.547777 1.063405 0.388694 0.000000 0.000000 0.000000
1.427115 0.989521 0.352078 0.000000 0.000000 0.000000
1.229194 1.077064 0.254059 0.000000 0.000000 0.000000
1.524685 1.059346 0.373863 0.000000 0.000000 0.000000
1.537365 1.056283 0.360714 0.000000 0.000000 0.000000
1.488892 1.155467 0.323393 0.000000 0.000000 0.000000
1.471555 1.434533 0.393358 0.000000 0.000000 0.000000
1.452254 1.093460 0.342395 0.000000 0.000000 0.000000
1.364894 0.987573 0.343634 0.000000 0.000000 0.000000
1.240082 1.159729 0.245491 0.000000 0.000000 0.000000
1.508518 1.097826 0.358046 0.000000 0.000000 0.000000
1.383353 1.366942 0.278347 0.000000 0.000000 0.000000
1.548151 1.069833 0.386623 0.000000 0.000000 0.000000
1.555542 1.092716 0.387042 0.000000 0.000000 0.000000
1.541814 1.086967 0.369268 0.000000 0.000000 0.000000
1.485726 1.103883 0.347245 0.000000 0.000000 0.000000
1.482818 1.099840 0.345863 0.000000 0.000000 0.000000
1.306149 1.014098 0.317632 0.000000 0.000000 0.000000
1.400092 1.347832 0.294831 0.000000 0.000000 0.000000
1.287538 1.005297 0.311816 0.000000 0.000000 0.000000
1.310858 0.967089 0.332627 0.000000 0.000000 0.000000
1.439929 1.247342 0.290304 0.000000 0.000000 0.000000
1.362004 1.250042 0.258393 0.000000 0.000000 0.000000
1.569745 1.187307 0.383457 0.000000 0.000000 0.000000
1.339992 1.234441 0.268924 0.000000 0.000000 0.000000
1.349820 1.280000 0.250064 0.000000 0.000000 0.000000
1.268064 1.047585 0.284679 0.000000 0.000000 0.000000
1.344027 1.300640 0.247675 0.000000 0.000000 0.000000
1.583489 1.297961 0.363789 0.000000 0.000000 0.000000
1.453149 1.037230 0.354230 0.000000 0.000000 0.000000
1.354139 1.313042 0.249765 0.000000 0.000000 0.000000
1.316988 0.982657 0.325234 0.000000 0.000000 0.000000
1.454213 1.405345 0.345636 0.000000 0.000000 0.000000
1.504988 1.334893 0.353204 0.000000 0.000000 0.000000
1.520811 1.329381 0.358193 0.000000 0.000000 0.000000
1.342085 1.096366 0.301982 0.000000 0.000000 0.000000
1.491604 1.235269 0.308707 0.000000 0.000000 0.000000
1.304173 1.069246 0.282152 0.000000 0.000000 0.000000
1.430276 1.079813 0.343079 0.000000 0.000000 0.000000
1.516627 1.373711 0.377698 0.000000 0.000000 0.000000
1.273812 1.075413 0.266331 0.000000 0.000000 0.000000
1.286072 1.043271 0.286750 0.000000 0.000000 0.000000
1.564527 1.183600 0.371661 0.000000 0.000000 0.000000
1.321236 0.966042 0.334234 0.000000 0.000000 0.000000
1.224199 1.088431 0.257943 0.000000 0.000000 0.000000
1.566195 1.281872 0.353680 0.000000 0.000000 0.000000
1.227165 1.044593 0.267317 0.000000 0.000000 0.000000
1.432460 0.988263 0.356386 0.000000 0.000000 0.000000
1.484623 1.132454 0.327410 0.000000 0.000000 0.000000
1.479657 1.414892 0.379162 0.000000 0.000000 0.000000
1.494860 1.390924 0.371152 0.000000 0.000000 0.000000
1.448522 1.077908 0.346177 0.000000 0.000000 0.000000
1.390857 1.258245 0.267604 0.000000 0.000000 0.000000
1.509333 1.113138 0.372519 0.000000 0.000000 0.000000
1.388562 1.287398 0.271485 0.000000 0.000000 0.000000
1.535744 1.082507 0.375303 0.000000 0.000000 0.000000
1.534237 1.090413 0.368321 0.000000 0.000000 0.000000
1.488291 1.083912 0.352911 0.000000 0.000000 0.000000
1.482497 1.049505 0.355770 0.000000 0.000000 0.000000
1.330852 1.025031 0.321818 0.000000 0.000000 0.000000
1.378611 1.375966 0.275874 0.000000 0.000000 0.000000
1.297046 1.036297 0.293264 0.000000 0.000000 0.000000
1.332062 0.962212 0.336905 0.000000 0.000000 0.000000
1.385108 1.263410 0.264448 0.000000 0.000000 0.000000
1.575250 1.226822 0.366332 0.000000 0.000000 0.000000
1.284157 1.237251 0.235305 0.000000 0.000000 0.000000
1.323835 0.965571 0.335101 0.000000 0.000000 0.000000
1.315778 0.964619 0.334994 0.000000 0.000000 0.000000
1.331533 0.962191 0.339247 0.000000 0.000000 0.000000
1.227854 1.110888 0.248829 0.000000 0.000000 0.000000
1.557381 1.222082 0.361106 0.000000 0.000000 0.000000
1.560568 1.158395 0.373951 0.000000 0.000000 0.000000
1.348055 0.984801 0.339324 0.000000 0.000000 0.000000
1.306927 1.002181 0.326134 0.000000 0.000000 0.000000
1.283521 1.023234 0.295530 0.000000 0.000000 0.000000
1.380699 0.977283 0.342173 0.000000 0.000000 0.000000
1.273099 1.075766 0.273045 0.000000 0.000000 0.000000
1.316452 0.975276 0.328966 0.000000 0.000000 0.000000
1.569507 1.123994 0.389625 0.000000 0.000000 0.000000
1.346316 0.970191 0.335639 0.000000 0.000000 0.000000
1.565446 1.108784 0.390159 0.000000 0.000000 0.000000
1.350583 0.962474 0.341096 0.000000 0.000000 0.000000
1.401054 0.976187 0.351169 0.000000 0.000000 0.000000
1.308704 1.159066 0.259515 0.000000 0.000000 0.000000
1.573890 1.191164 0.378137 0.000000 0.000000 0.000000
1.282530 1.229742 0.236341 0.000000 0.000000 0.000000
1.281266 1.059869 0.262246 0.000000 0.000000 0.000000
1.278646 1.042173 0.283524 0.000000 0.000000 0.000000
1.269512 1.054691 0.272179 0.000000 0.000000 0.000000
1.274300 1.221076 0.236845 0.000000 0.000000 0.000000
1.393564 1.201663 0.280987 0.000000 0.000000 0.000000
1.279064 1.224281 0.234508 0.000000 0.000000 0.000000
1.283321 1.225711 0.243075 0.000000 0.000000 0.000000
1.574280 1.166302 0.387017 0.000000 0.000000 0.000000
1.231768 1.073363 0.254984 0.000000 0.000000 0.000000
1.587275 1.124810 0.386867 0.000000 0.000000 0.000000
1.566677 1.198007 0.369151 0.000000 0.000000 0.000000
1.383833 1.389804 0.283879 0.000000 0.000000 0.000000
1.217403 1.077160 0.261655 0.000000 0.000000 0.000000
1.272182 1.173635 0.242119 0.000000 0.000000 0.000000
1.222651 1.100987 0.248472 0.000000 0.000000 0.000000
1.549478 1.181619 0.374023 0.000000 0.000000 0.000000
1.356979 0.989149 0.339450 0.000000 0.000000 0.000000
1.556056 1.110623 0.375373 0.000000 0.000000 0.000000
1.427019 0.996726 0.349548 0.000000 0.000000 0.000000
1.292511 0.992517 0.322443 0.000000 0.000000 0.000000
1.271955 1.008271 0.281788 0.000000 0.000000 0.000000
1.377423 0.983217 0.341585 0.000000 0.000000 0.000000
1.281377 1.098416 0.268884 0.000000 0.000000 0.000000
1.566505 1.109941 0.387272 0.000000 0.000000 0.000000
1.350031 1.095281 0.308707 0.000000 0.000000 0.000000
1.290194 1.233148 0.244171 0.000000 0.000000 0.000000
1.357503 0.966153 0.341073 0.000000 0.000000 0.000000
1.552624 1.123387 0.376538 0.000000 0.000000 0.000000
1.316164 0.966343 0.334699 0.000000 0.000000 0.000000
1.381498 0.977011 0.350920 0.000000 0.000000 0.000000
1.292168 1.224684 0.253107 0.000000 0.000000 0.000000
1.279459 1.050041 0.269395 0.000000 0.000000 0.000000
1.576790 1.199968 0.377546 0.000000 0.000000 0.000000
1.267570 1.051824 0.272561 0.000000 0.000000 0.000000
1.289117 1.058609 0.265907 0.000000 0.000000 0.000000
1.281346 1.224149 0.237901 0.000000 0.000000 0.000000
1.293034 1.238429 0.243175 0.000000 0.000000 0.000000
1.346521 1.306777 0.250956 0.000000 0.000000 0.000000
1.236880 1.017047 0.282001 0.000000 0.000000 0.000000
1.572961 1.194854 0.379239 0.000000 0.000000 0.000000
1.567587 1.153085 0.382373 0.000000 0.000000 0.000000
1.547500 1.191565 0.385227 0.000000 0.000000 0.000000
1.235698 1.097617 0.250434 0.000000 0.000000 0.000000
1.377044 0.970932 0.344543 0.000000 0.000000 0.000000
1.385870 0.969280 0.346922 0.000000 0.000000 0.000000
1.570728 1.214608 0.365784 0.000000 0.000000 0.000000
1.568344 1.191846 0.372699 0.000000 0.000000 0.000000
1.217752 1.070979 0.266237 0.000000 0.000000 0.000000
1.280135 1.174371 0.246661 0.000000 0.000000 0.000000
1.277595 1.021096 0.288613 0.000000 0.000000 0.000000
1.279132 1.110838 0.246241 0.000000 0.000000 0.000000
1.340524 1.302317 0.240255 0.000000 0.000000 0.000000
1.301521 1.128239 0.264003 0.000000 0.000000 0.000000
1.310603 1.030134 0.312961 0.000000 0.000000 0.000000
1.381047 1.403695 0.303247 0.000000 0.000000 0.000000
1.337154 1.304436 0.241464 0.000000 0.000000 0.000000
1.570112 1.163589 0.387031 0.000000 0.000000 0.000000
1.229440 1.078613 0.259001 0.000000 0.000000 0.000000
1.484816 1.356138 0.318042 0.000000 0.000000 0.000000
1.533818 1.114546 0.347114 0.000000 0.000000 0.000000
1.229786 1.089802 0.253018 0.000000 0.000000 0.000000
1.242896 1.104779 0.254170 0.000000 0.000000 0.000000
1.240895 1.100366 0.253327 0.000000 0.000000 0.000000
1.238258 1.146986 0.245171 0.000000 0.000000 0.000000
1.572888 1.286799 0.357866 0.000000 0.000000 0.000000
1.237387 1.153364 0.247947 0.000000 0.000000 0.000000
1.330355 0.968568 0.337860 0.000000 0.000000 0.000000
1.557795 1.159109 0.379237 0.000000 0.000000 0.000000
1.562125 1.183949 0.388668 0.000000 0.000000 0.000000
1.284354 1.128935 0.257490 0.000000 0.000000 0.000000
1.431765 1.231494 0.284781 0.000000 0.000000 0.000000
1.414167 1.443717 0.360861 0.000000 0.000000 0.000000
1.234018 1.048295 0.268261 0.000000 0.000000 0.000000
1.339304 1.309547 0.241110 0.000000 0.000000 0.000000
1.328624 1.291355 0.240493 0.000000 0.000000 0.000000
1.237303 1.080155 0.249466 0.000000 0.000000 0.000000
1.227804 1.078698 0.260137 0.000000 0.000000 0.000000
1.477276 1.371588 0.317441 0.000000 0.000000 0.000000
1.509247 1.125705 0.337085 0.000000 0.000000 0.000000
1.240899 1.096114 0.258166 0.000000 0.000000 0.000000
1.231104 1.105578 0.248654 0.000000 0.000000 0.000000
1.266274 1.175390 0.241084 0.000000 0.000000 0.000000
1.566237 1.317394 0.361900 0.000000 0.000000 0.000000
1.246092 1.140770 0.248955 0.000000 0.000000 0.000000
1.339369 0.976082 0.337195 0.000000 0.000000 0.000000
1.552757 1.163077 0.392846 0.000000 0.000000 0.000000
1.558642 1.191277 0.390856 0.000000 0.000000 0.000000
1.584331 1.245301 0.367782 0.000000 0.000000 0.000000
1.578213 1.235861 0.366613 0.000000 0.000000 0.000000
1.331640 0.964282 0.337797 0.000000 0.000000 0.000000
1.494636 1.262653 0.308998 0.000000 0.000000 0.000000
1.476510 1.277534 0.302840 0.000000 0.000000 0.000000
1.357995 0.970513 0.339096 0.000000 0.000000 0.000000
1.350977 1.331484 0.250858 0.000000 0.000000 0.000000
1.344128 1.320043 0.246675 0.000000 0.000000 0.000000
1.362039 1.360791 0.258050 0.000000 0.000000 0.000000
1.399106 1.412452 0.312774 0.000000 0.000000 0.000000
1.428410 1.199574 0.280380 0.000000 0.000000 0.000000
1.411550 1.408159 0.324528 0.000000 0.000000 0.000000
1.489469 1.313305 0.314032 0.000000 0.000000 0.000000
1.390560 1.398547 0.293751 0.000000 0.000000 0.000000
1.376289 1.395541 0.289275 0.000000 0.000000 0.000000
1.582771 1.130599 0.390995 0.000000 0.000000 0.000000
1.493010 1.252969 0.307872 0.000000 0.000000 0.000000
1.466655 1.258943 0.298988 0.000000 0.000000 0.000000
1.346837 0.965279 0.339734 0.000000 0.000000 0.000000
1.343894 1.313280 0.247132 0.000000 0.000000 0.000000
1.340685 1.311260 0.244431 0.000000 0.000000 0.000000
1.363199 1.362794 0.264325 0.000000 0.000000 0.000000
1.467020 1.327335 0.304651 0.000000 0.000000 0.000000
1.399619 1.420948 0.325493 0.000000 0.000000 0.000000
1.455559 0.977086 0.361515 0.000000 0.000000 0.000000
1.335339 0.961851 0.338309 0.000000 0.000000 0.000000
1.421257 1.196480 0.285325 0.000000 0.000000 0.000000
1.481321 1.263645 0.306270 0.000000 0.000000 0.000000
1.383494 1.391428 0.297270 0.000000 0.000000 0.000000
1.247473 1.096298 0.270902 0.000000 0.000000 0.000000
1.343498 0.978294 0.341096 0.000000 0.000000 0.000000
1.374803 1.389732 0.282949 0.000000 0.000000 0.000000
1.424895 1.447538 0.373671 0.000000 0.000000 0.000000
1.269419 1.001144 0.300611 0.000000 0.000000 0.000000
1.578501 1.141546 0.388392 0.000000 0.000000 0.000000
1.363078 1.356845 0.261525 0.000000 0.000000 0.000000
1.232620 1.061810 0.262428 0.000000 0.000000 0.000000
1.470718 1.246043 0.326462 0.000000 0.000000 0.000000
1.579729 1.200926 0.380912 0.000000 0.000000 0.000000
1.425300 1.440241 0.369658 0.000000 0.000000 0.000000
1.576533 1.186207 0.382976 0.000000 0.000000 0.000000
1.530496 1.034525 0.385055 0.000000 0.000000 0.000000
1.573166 1.198699 0.375178 0.000000 0.000000 0.000000
1.562984 1.127730 0.404252 0.000000 0.000000 0.000000
1.495648 1.420465 0.400050 0.000000 0.000000 0.000000
1.235221 1.058760 0.264104 0.000000 0.000000 0.000000
1.476627 1.219105 0.330948 0.000000 0.000000 0.000000
1.577857 1.204349 0.377991 0.000000 0.000000 0.000000
1.429888 1.443225 0.374387 0.000000 0.000000 0.000000
1.567630 1.141450 0.386137 0.000000 0.000000 0.000000
1.308674 1.273391 0.243454 0.000000 0.000000 0.000000
1.572687 1.239951 0.365427 0.000000 0.000000 0.000000
1.298302 1.255439 0.236414 0.000000 0.000000 0.000000
1.500962 1.403780 0.383285 0.000000 0.000000 0.000000
1.577423 1.214531 0.372760 0.000000 0.000000 0.000000
1.229431 1.067928 0.255822 0.000000 0.000000 0.000000
1.433396 1.448428 0.380414 0.000000 0.000000 0.000000
1.304728 1.263232 0.238816 0.000000 0.000000 0.000000
1.378160 1.401693 0.298326 0.000000 0.000000 0.000000
1.360934 1.339661 0.253505 0.000000 0.000000 0.000000
1.304785 1.264752 0.239731 0.000000 0.000000 0.000000
1.446604 1.453003 0.387660 0.000000 0.000000 0.000000
1.435225 1.450257 0.381030 0.000000 0.000000 0.000000
1.380615 1.397211 0.294917 0.000000 0.000000 0.000000
1.383209 1.329128 0.275871 0.000000 0.000000 0.000000
1.436816 1.445536 0.387004 0.000000 0.000000 0.000000
1.366106 1.303496 0.272764 0.000000 0.000000 0.000000
1.259791 1.158819 0.252806 0.000000 0.000000 0.000000
1.458470 1.444452 0.394225 0.000000 0.000000 0.000000
1.287991 1.243955 0.240801 0.000000 0.000000 0.000000
1.230152 1.054526 0.264283 0.000000 0.000000 0.000000
1.238506 1.063711 0.269289 0.000000 0.000000 0.000000
1.579551 1.203458 0.378221 0.000000 0.000000 0.000000
1.568059 1.143481 0.391443 0.000000 0.000000 0.000000
1.577873 1.181897 0.385798 0.000000 0.000000 0.000000
1.354550 1.345623 0.252489 0.000000 0.000000 0.000000
1.312689 1.271219 0.240646 0.000000 0.000000 0.000000
1.433711 1.449710 0.376111 0.000000 0.000000 0.000000
1.224684 1.030447 0.274471 0.000000 0.000000 0.000000
1.576385 1.282872 0.359435 0.000000 0.000000 0.000000
1.382120 1.395291 0.291547 0.000000 0.000000 0.000000
1.387252 1.404338 0.306602 0.000000 0.000000 0.000000
1.362530 1.277958 0.275006 0.000000 0.000000 0.000000
1.232011 1.025617 0.270991 0.000000 0.000000 0.000000
1.301505 1.254046 0.235337 0.000000 0.000000 0.000000
1.387378 1.407759 0.312564 0.000000 0.000000 0.000000
1.432274 1.445899 0.383907 0.000000 0.000000 0.000000
1.228578 1.023535 0.274045 0.000000 0.000000 0.000000
1.457305 1.447342 0.398848 0.000000 0.000000 0.000000
1.294673 1.244782 0.244844 0.000000 0.000000 0.000000
1.262756 1.192533 0.246085 0.000000 0.000000 0.000000
1.246843 1.096267 0.258372 0.000000 0.000000 0.000000
1.569002 1.188701 0.375875 0.000000 0.000000 0.000000
1.576743 1.133801 0.389785 0.000000 0.000000 0.000000
1.434216 1.443131 0.377065 0.000000 0.000000 0.000000
1.222565 1.105084 0.253995 0.000000 0.000000 0.000000
1.401448 1.416100 0.320585 0.000000 0.000000 0.000000
1.328413 1.298201 0.243900 0.000000 0.000000 0.000000
1.280320 1.041377 0.271721 0.000000 0.000000 0.000000
1.399650 1.419896 0.321913 0.000000 0.000000 0.000000
1.335457 1.257181 0.264847 0.000000 0.000000 0.000000
1.331184 1.290078 0.245559 0.000000 0.000000 0.000000
1.341081 1.279688 0.262397 0.000000 0.000000 0.000000
1.226588 1.114398 0.257897 0.000000 0.000000 0.000000
1.331797 1.286135 0.238981 0.000000 0.000000 0.000000
1.323961 1.287606 0.244544 0.000000 0.000000 0.000000
1.307480 1.259875 0.243934 0.000000 0.000000 0.000000
1.326256 1.285811 0.239812 0.000000 0.000000 0.000000
1.221986 1.116089 0.254192 0.000000 0.000000 0.000000
1.338984 1.295638 0.247521 0.000000 0.000000 0.000000
1.223033 1.114488 0.251573 0.000000 0.000000 0.000000
1.322685 1.242676 0.260583 0.000000 0.000000 0.000000
1.308009 1.260370 0.251468 0.000000 0.000000 0.000000
1.224066 1.111967 0.247510 0.000000 0.000000 0.000000
1.351547 1.318107 0.253692 0.000000 0.000000 0.000000
1.324198 1.265700 0.244391 0.000000 0.000000 0.000000
1.342715 1.326535 0.239602 0.000000 0.000000 0.000000
1.237470 1.051015 0.268465 0.000000 0.000000 0.000000
1.296396 1.037414 0.289042 0.000000 0.000000 0.000000
1.330794 1.282943 0.254093 0.000000 0.000000 0.000000
1.312442 1.273951 0.248875 0.000000 0.000000 0.000000
1.265665 1.026860 0.273855 0.000000 0.000000 0.000000
1.322661 1.293750 0.236327 0.000000 0.000000 0.000000
1.341580 1.305298 0.244540 0.000000 0.000000 0.000000
1.321260 1.263211 0.243741 0.000000 0.000000 0.000000
1.397615 1.405023 0.305831 0.000000 0.000000 0.000000
1.578937 1.140434 0.390552 0.000000 0.000000 0.000000
1.346480 1.259707 0.267986 0.000000 0.000000 0.000000
1.364928 1.283774 0.260680 0.000000 0.000000 0.000000
1.345268 1.295844 0.256738 0.000000 0.000000 0.000000
1.326824 1.287228 0.239971 0.000000 0.000000 0.000000
1.330189 1.295835 0.244525 0.000000 0.000000 0.000000
1.314940 1.277264 0.247472 0.000000 0.000000 0.000000
1.326029 1.283978 0.242745 0.000000 0.000000 0.000000
1.220370 1.118365 0.251683 0.000000 0.000000 0.000000
1.326698 1.247635 0.261657 0.000000 0.000000 0.000000
1.331745 1.293141 0.241038 0.000000 0.000000 0.000000
1.315155 1.237491 0.250155 0.000000 0.000000 0.000000
1.316886 1.260042 0.254213 0.000000 0.000000 0.000000
1.243024 1.112963 0.246272 0.000000 0.000000 0.000000
1.350029 1.281803 0.269788 0.000000 0.000000 0.000000
1.333554 1.290658 0.242483 0.000000 0.000000 0.000000
1.318571 1.276069 0.238200 0.000000 0.000000 0.000000
1.243696 1.028872 0.274493 0.000000 0.000000 0.000000
1.304301 1.050197 0.291469 0.000000 0.000000 0.000000
1.329680 1.270560 0.258858 0.000000 0.000000 0.000000
1.346543 1.318311 0.247319 0.000000 0.000000 0.000000
1.267059 1.031639 0.271589 0.000000 0.000000 0.000000
1.331604 1.296488 0.238816 0.000000 0.000000 0.000000
1.331163 1.278208 0.243916 0.000000 0.000000 0.000000
1.384161 1.406615 0.307941 0.000000 0.000000 0.000000
1.576598 1.143482 0.391882 0.000000 0.000000 0.000000
1.212794 1.131541 0.253691 0.000000 0.000000 0.000000
1.446280 1.443002 0.385252 0.000000 0.000000 0.000000
1.317108 0.959983 0.336529 0.000000 0.000000 0.000000
1.215679 1.123425 0.248532 0.000000 0.000000 0.000000
1.575716 1.159284 0.388651 0.000000 0.000000 0.000000
1.266503 1.024009 0.292081 0.000000 0.000000 0.000000
1.380676 1.403015 0.299768 0.000000 0.000000 0.000000
1.232585 1.154443 0.244519 0.000000 0.000000 0.000000
1.409098 1.238881 0.274330 0.000000 0.000000 0.000000
1.277723 1.035528 0.276104 0.000000 0.000000 0.000000
1.565008 1.150471 0.379759 0.000000 0.000000 0.000000
1.567161 1.144263 0.389733 0.000000 0.000000 0.000000
1.448426 1.449013 0.402206 0.000000 0.000000 0.000000
1.226612 1.056456 0.261990 0.000000 0.000000 0.000000
1.562324 1.137215 0.384133 0.000000 0.000000 0.000000
1.566716 1.148205 0.384266 0.000000 0.000000 0.000000
1.566883 1.123311 0.399239 0.000000 0.000000 0.000000
1.578550 1.124755 0.389091 0.000000 0.000000 0.000000
1.289675 1.019587 0.292607 0.000000 0.000000 0.000000
1.223673 1.143755 0.247029 0.000000 0.000000 0.000000
1.410559 1.284588 0.274011 0.000000 0.000000 0.000000
1.274500 1.032491 0.283036 0.000000 0.000000 0.000000
1.568844 1.168265 0.377971 0.000000 0.000000 0.000000
1.223785 1.051553 0.263584 0.000000 0.000000 0.000000
1.573159 1.124634 0.388760 0.000000 0.000000 0.000000
1.570513 1.128339 0.389387 0.000000 0.000000 0.000000
1.565785 1.115689 0.397673 0.000000 0.000000 0.000000
1.579686 1.123855 0.389856 0.000000 0.000000 0.000000
1.351366 1.311302 0.252263 0.000000 0.000000 0.000000
1.443140 1.443468 0.384525 0.000000 0.000000 0.000000
1.350051 1.325182 0.247294 0.000000 0.000000 0.000000
1.344724 1.315685 0.235967 0.000000 0.000000 0.000000
1.351783 1.329805 0.250974 0.000000 0.000000 0.000000
1.437296 1.441080 0.369337 0.000000 0.000000 0.000000
1.238875 1.141215 0.257314 0.000000 0.000000 0.000000
1.235787 1.124751 0.251548 0.000000 0.000000 0.000000
1.431913 1.406442 0.322132 0.000000 0.000000 0.000000
1.304067 1.067727 0.279560 0.000000 0.000000 0.000000
1.425233 1.368912 0.300439 0.000000 0.000000 0.000000
1.248148 1.140394 0.247445 0.000000 0.000000 0.000000
1.347832 1.319337 0.247746 0.000000 0.000000 0.000000
1.380919 0.967582 0.349010 0.000000 0.000000 0.000000
1.280611 1.059343 0.269248 0.000000 0.000000 0.000000
1.332538 0.967416 0.338025 0.000000 0.000000 0.000000
1.217924 1.132307 0.247408 0.000000 0.000000 0.000000
1.233101 1.142898 0.249046 0.000000 0.000000 0.000000
1.275338 1.164556 0.245900 0.000000 0.000000 0.000000
1.299195 1.039535 0.293175 0.000000 0.000000 0.000000
1.233539 1.131395 0.254601 0.000000 0.000000 0.000000
1.476763 0.987934 0.375076 0.000000 0.000000 0.000000
1.262069 1.154742 0.243235 0.000000 0.000000 0.000000
1.239253 1.131239 0.255282 0.000000 0.000000 0.000000
1.246789 1.130110 0.250211 0.000000 0.000000 0.000000
1.358789 0.971024 0.345538 0.000000 0.000000 0.000000
1.239595 1.151376 0.248244 0.000000 0.000000 0.000000
1.291162 1.068890 0.273475 0.000000 0.000000 0.000000
1.236771 1.150127 0.244041 0.000000 0.000000 0.000000
1.228288 1.059408 0.262060 0.000000 0.000000 0.000000
1.243913 1.152242 0.240857 0.000000 0.000000 0.000000
1.578369 1.143385 0.386273 0.000000 0.000000 0.000000
1.575578 1.130571 0.391317 0.000000 0.000000 0.000000
1.223917 1.117816 0.254565 0.000000 0.000000 0.000000
1.412703 1.427047 0.343784 0.000000 0.000000 0.000000
1.224201 1.139490 0.252474 0.000000 0.000000 0.000000
1.233911 1.107420 0.259968 0.000000 0.000000 0.000000
1.443479 1.384838 0.310075 0.000000 0.000000 0.000000
1.302027 1.068647 0.275968 0.000000 0.000000 0.000000
1.250510 1.125944 0.248512 0.000000 0.000000 0.000000
1.382397 0.971521 0.347406 0.000000 0.000000 0.000000
1.279959 1.068756 0.268326 0.000000 0.000000 0.000000
1.224722 1.168674 0.239164 0.000000 0.000000 0.000000
1.365888 1.338578 0.259430 0.000000 0.000000 0.000000
1.218721 1.129540 0.249603 0.000000 0.000000 0.000000
1.369759 1.364613 0.263093 0.000000 0.000000 0.000000
1.259351 1.146682 0.243667 0.000000 0.000000 0.000000
1.298826 1.048405 0.284206 0.000000 0.000000 0.000000
1.501261 1.413054 0.388439 0.000000 0.000000 0.000000
1.357165 1.346946 0.243261 0.000000 0.000000 0.000000
1.263531 1.146963 0.244737 0.000000 0.000000 0.000000
1.257549 1.164871 0.245999 0.000000 0.000000 0.000000
1.339697 0.963711 0.339477 0.000000 0.000000 0.000000
1.237589 1.146589 0.247178 0.000000 0.000000 0.000000
1.513120 1.394209 0.380223 0.000000 0.000000 0.000000
1.565646 1.284436 0.362581 0.000000 0.000000 0.000000
1.569893 1.136322 0.386690 0.000000 0.000000 0.000000
1.237405 1.155999 0.242715 0.000000 0.000000 0.000000
1.578967 1.128049 0.390566 0.000000 0.000000 0.000000
1.222175 1.106613 0.251051 0.000000 0.000000 0.000000
1.431239 1.440372 0.356929 0.000000 0.000000 0.000000
1.293790 0.980692 0.331137 0.000000 0.000000 0.000000
1.288736 0.972891 0.329331 0.000000 0.000000 0.000000
1.571522 1.175185 0.389019 0.000000 0.000000 0.000000
1.364223 1.295729 0.258643 0.000000 0.000000 0.000000
1.356624 1.319139 0.251570 0.000000 0.000000 0.000000
1.300746 0.977015 0.334039 0.000000 0.000000 0.000000
1.360302 1.341531 0.258756 0.000000 0.000000 0.000000
1.294822 0.977324 0.326190 0.000000 0.000000 0.000000
1.356880 1.343448 0.256665 0.000000 0.000000 0.000000
1.356050 1.312345 0.255633 0.000000 0.000000 0.000000
1.409138 1.422254 0.339570 0.000000 0.000000 0.000000
1.468167 1.436433 0.381979 0.000000 0.000000 0.000000
1.300243 0.969494 0.329500 0.000000 0.000000 0.000000
1.305564 0.974532 0.331669 0.000000 0.000000 0.000000
1.364402 1.356048 0.257799 0.000000 0.000000 0.000000
1.285117 1.234209 0.228934 0.000000 0.000000 0.000000
1.562591 1.298113 0.351108 0.000000 0.000000 0.000000
1.328505 1.152215 0.252227 0.000000 0.000000 0.000000
1.237777 1.026054 0.277700 0.000000 0.000000 0.000000
1.312777 0.977319 0.332520 0.000000 0.000000 0.000000
1.439495 1.401864 0.319153 0.000000 0.000000 0.000000
1.405790 1.429603 0.339851 0.000000 0.000000 0.000000
1.347208 1.295036 0.249747 0.000000 0.000000 0.000000
1.356888 1.338374 0.251963 0.000000 0.000000 0.000000
1.583898 1.293026 0.359008 0.000000 0.000000 0.000000
1.342371 1.314246 0.248658 0.000000 0.000000 0.000000
1.231576 1.046131 0.266972 0.000000 0.000000 0.000000
1.350252 1.333751 0.244758 0.000000 0.000000 0.000000
1.570849 1.173393 0.388661 0.000000 0.000000 0.000000
1.226013 1.037453 0.270904 0.000000 0.000000 0.000000
1.398158 1.415564 0.314476 0.000000 0.000000 0.000000
1.402558 1.429648 0.334009 0.000000 0.000000 0.000000
1.409412 1.432488 0.334761 0.000000 0.000000 0.000000
1.503318 1.412335 0.395184 0.000000 0.000000 0.000000
1.296935 0.974065 0.331891 0.000000 0.000000 0.000000
1.343363 1.270180 0.249941 0.000000 0.000000 0.000000
1.294765 0.973635 0.332122 0.000000 0.000000 0.000000
1.358952 1.326625 0.257432 0.000000 0.000000 0.000000
1.342718 0.964494 0.339447 0.000000 0.000000 0.000000
1.360933 1.319381 0.255434 0.000000 0.000000 0.000000
1.407595 1.434191 0.344519 0.000000 0.000000 0.000000
1.417941 1.427987 0.343295 0.000000 0.000000 0.000000
1.298363 0.976928 0.329566 0.000000 0.000000 0.000000
1.471186 1.442833 0.398378 0.000000 0.000000 0.000000
1.306983 0.972736 0.332181 0.000000 0.000000 0.000000
1.283263 1.238544 0.229419 0.000000 0.000000 0.000000
1.360390 1.348837 0.259055 0.000000 0.000000 0.000000
1.570039 1.300057 0.369850 0.000000 0.000000 0.000000
1.311436 0.971253 0.333082 0.000000 0.000000 0.000000
1.428774 1.417644 0.333742 0.000000 0.000000 0.000000
1.352884 1.329590 0.249786 0.000000 0.000000 0.000000
1.359486 1.334801 0.252627 0.000000 0.000000 0.000000
1.350436 1.332909 0.249309 0.000000 0.000000 0.000000
1.233593 1.073880 0.262448 0.000000 0.000000 0.000000
1.571068 1.174016 0.386707 0.000000 0.000000 0.000000
1.434441 1.236747 0.286590 0.000000 0.000000 0.000000
1.230439 1.047383 0.267231 0.000000 0.000000 0.000000
1.395170 1.411585 0.311216 0.000000 0.000000 0.000000
1.402393 1.432525 0.323866 0.000000 0.000000 0.000000
1.416968 1.433760 0.339639 0.000000 0.000000 0.000000
1.515775 1.397508 0.386439 0.000000 0.000000 0.000000
1.508678 1.404974 0.387806 0.000000 0.000000 0.000000
1.441459 1.451868 0.395479 0.000000 0.000000 0.000000
1.351082 0.976203 0.340422 0.000000 0.000000 0.000000
1.345455 0.964466 0.331472 0.000000 0.000000 0.000000
1.263532 1.195649 0.239949 0.000000 0.000000 0.000000
1.252712 1.136955 0.267193 0.000000 0.000000 0.000000
1.572440 1.223745 0.367311 0.000000 0.000000 0.000000
1.574772 1.248494 0.364933 0.000000 0.000000 0.000000
1.250363 1.147788 0.253356 0.000000 0.000000 0.000000
1.574723 1.272160 0.362963 0.000000 0.000000 0.000000
1.573777 1.247415 0.367814 0.000000 0.000000 0.000000
1.279058 1.179865 0.241614 0.000000 0.000000 0.000000
1.571224 1.215827 0.368405 0.000000 0.000000 0.000000
1.337065 1.311050 0.245584 0.000000 0.000000 0.000000
1.342605 1.310018 0.241796 0.000000 0.000000 0.000000
1.348473 0.967810 0.338412 0.000000 0.000000 0.000000
1.343762 0.965723 0.339904 0.000000 0.000000 0.000000
1.314654 1.277885 0.242145 0.000000 0.000000 0.000000
1.254201 1.173379 0.247020 0.000000 0.000000 0.000000
1.260791 1.195292 0.237265 0.000000 0.000000 0.000000
1.267475 1.192875 0.235049 0.000000 0.000000 0.000000
1.572779 1.276238 0.363731 0.000000 0.000000 0.000000
1.569504 1.257778 0.361164 0.000000 0.000000 0.000000
1.254993 1.177273 0.248606 0.000000 0.000000 0.000000
1.361512 1.347546 0.259861 0.000000 0.000000 0.000000
1.250702 1.189501 0.233902 0.000000 0.000000 0.000000
1.368270 0.969653 0.342279 0.000000 0.000000 0.000000
1.573547 1.266195 0.367867 0.000000 0.000000 0.000000
1.563283 1.255662 0.361439 0.000000 0.000000 0.000000
1.336750 1.301367 0.243095 0.000000 0.000000 0.000000
1.341415 1.317465 0.246816 0.000000 0.000000 0.000000
1.357847 0.965201 0.341347 0.000000 0.000000 0.000000
1.367723 0.966941 0.343204 0.000000 0.000000 0.000000
1.318144 1.278014 0.243741 0.000000 0.000000 0.000000
1.426858 0.977980 0.356472 0.000000 0.000000 0.000000
1.411537 0.975234 0.353645 0.000000 0.000000 0.000000
1.417328 1.437245 0.352271 0.000000 0.000000 0.000000
1.572142 1.265480 0.362611 0.000000 0.000000 0.000000
1.435803 1.451592 0.383168 0.000000 0.000000 0.000000
1.413664 0.977923 0.356106 0.000000 0.000000 0.000000
1.576196 1.245298 0.358930 0.000000 0.000000 0.000000
1.575298 1.237263 0.368801 0.000000 0.000000 0.000000
1.289526 1.246661 0.240730 0.000000 0.000000 0.000000
1.574988 1.152340 0.389957 0.000000 0.000000 0.000000
1.281828 0.979244 0.326326 0.000000 0.000000 0.000000
1.575392 1.175432 0.387399 0.000000 0.000000 0.000000
1.559565 1.128793 0.377956 0.000000 0.000000 0.000000
1.284634 1.222801 0.239717 0.000000 0.000000 0.000000
1.374868 0.970932 0.343517 0.000000 0.000000 0.000000
1.571013 1.262450 0.363915 0.000000 0.000000 0.000000
1.566497 1.167334 0.381856 0.000000 0.000000 0.000000
1.433547 1.028759 0.355052 0.000000 0.000000 0.000000
1.580001 1.226997 0.367810 0.000000 0.000000 0.000000
1.572419 1.183468 0.379902 0.000000 0.000000 0.000000
1.415656 0.976685 0.354325 0.000000 0.000000 0.000000
1.408293 0.980528 0.351881 0.000000 0.000000 0.000000
1.561852 1.269459 0.345845 0.000000 0.000000 0.000000
1.573048 1.245217 0.367653 0.000000 0.000000 0.000000
1.401884 0.975758 0.352315 0.000000 0.000000 0.000000
1.432817 0.982800 0.361582 0.000000 0.000000 0.000000
1.529605 1.141500 0.333075 0.000000 0.000000 0.000000
1.567605 1.268079 0.353873 0.000000 0.000000 0.000000
1.430572 0.976817 0.359485 0.000000 0.000000 0.000000
1.385166 0.972668 0.345056 0.000000 0.000000 0.000000
1.418400 0.977335 0.354587 0.000000 0.000000 0.000000
1.387832 0.984059 0.344563 0.000000 0.000000 0.000000
1.280896 1.229582 0.241725 0.000000 0.000000 0.000000
1.569727 1.173243 0.383000 0.000000 0.000000 0.000000
1.384946 0.972078 0.345412 0.000000 0.000000 0.000000
1.575384 1.176305 0.383701 0.000000 0.000000 0.000000
1.446853 1.450776 0.393000 0.000000 0.000000 0.000000
1.443949 1.448357 0.397532 0.000000 0.000000 0.000000
1.570027 1.131678 0.389524 0.000000 0.000000 0.000000
1.330904 1.294799 0.239924 0.000000 0.000000 0.000000
1.581104 1.111941 0.395030 0.000000 0.000000 0.000000
1.565794 1.133301 0.384354 0.000000 0.000000 0.000000
1.288518 0.973018 0.328142 0.000000 0.000000 0.000000
1.577387 1.270478 0.364425 0.000000 0.000000 0.000000
1.572297 1.253969 0.363527 0.000000 0.000000 0.000000
1.566652 1.199350 0.368318 0.000000 0.000000 0.000000
1.288432 1.233383 0.242034 0.000000 0.000000 0.000000
1.379928 0.974638 0.342689 0.000000 0.000000 0.000000
1.554668 1.188619 0.351357 0.000000 0.000000 0.000000
1.563222 1.243296 0.359814 0.000000 0.000000 0.000000
1.567345 1.169865 0.374825 0.000000 0.000000 0.000000
1.495743 1.072848 0.358867 0.000000 0.000000 0.000000
1.563312 1.233052 0.365904 0.000000 0.000000 0.000000
1.570036 1.167880 0.382597 0.000000 0.000000 0.000000
1.418175 0.980962 0.351901 0.000000 0.000000 0.000000
1.417333 0.977851 0.352864 0.000000 0.000000 0.000000
1.555755 1.253086 0.352172 0.000000 0.000000 0.000000
1.572419 1.260233 0.366793 0.000000 0.000000 0.000000
1.425522 0.976664 0.356914 0.000000 0.000000 0.000000
1.423323 0.986415 0.354745 0.000000 0.000000 0.000000
1.520851 1.131122 0.339527 0.000000 0.000000 0.000000
1.574907 1.257091 0.363053 0.000000 0.000000 0.000000
1.569583 1.266055 0.352290 0.000000 0.000000 0.000000
1.572375 1.247992 0.366633 0.000000 0.000000 0.000000
1.432044 0.973256 0.357086 0.000000 0.000000 0.000000
1.400511 0.972353 0.349635 0.000000 0.000000 0.000000
1.436983 0.979942 0.358938 0.000000 0.000000 0.000000
1.390331 0.978508 0.346348 0.000000 0.000000 0.000000
1.277526 1.217929 0.242625 0.000000 0.000000 0.000000
1.571670 1.173719 0.381749 0.000000 0.000000 0.000000
1.392150 0.974862 0.347622 0.000000 0.000000 0.000000
1.566428 1.177066 0.379473 0.000000 0.000000 0.000000
1.454835 1.450645 0.404235 0.000000 0.000000 0.000000
1.440744 1.444456 0.387869 0.000000 0.000000 0.000000
1.570717 1.115076 0.393265 0.000000 0.000000 0.000000
1.576196 1.123697 0.391877 0.000000 0.000000 0.000000
1.575678 1.136768 0.388228 0.000000 0.000000 0.000000
1.578727 1.250041 0.358058 0.000000 0.000000 0.000000
1.247725 1.005887 0.297705 0.000000 0.000000 0.000000
1.353966 1.312558 0.247901 0.000000 0.000000 0.000000
1.570422 1.203829 0.368289 0.000000 0.000000 0.000000
1.347775 1.310604 0.248336 0.000000 0.000000 0.000000
1.341222 1.311120 0.248948 0.000000 0.000000 0.000000
1.577483 1.203586 0.376456 0.000000 0.000000 0.000000
1.352292 1.330778 0.250840 0.000000 0.000000 0.000000
1.574943 1.204527 0.377879 0.000000 0.000000 0.000000
1.577797 1.199428 0.381838 0.000000 0.000000 0.000000
1.334592 1.303296 0.241190 0.000000 0.000000 0.000000
1.440160 1.428454 0.354693 0.000000 0.000000 0.000000
1.259290 1.000392 0.301808 0.000000 0.000000 0.000000
1.526970 1.044682 0.349969 0.000000 0.000000 0.000000
1.418600 1.449138 0.363948 0.000000 0.000000 0.000000
1.577361 1.199331 0.375997 0.000000 0.000000 0.000000
1.572312 1.194981 0.373769 0.000000 0.000000 0.000000
1.545038 1.223042 0.335400 0.000000 0.000000 0.000000
1.531198 1.048599 0.352853 0.000000 0.000000 0.000000
1.343483 1.316326 0.247158 0.000000 0.000000 0.000000
1.257243 1.005271 0.295233 0.000000 0.000000 0.000000
1.246324 1.017126 0.284835 0.000000 0.000000 0.000000
1.579128 1.202075 0.377197 0.000000 0.000000 0.000000
1.575135 1.183707 0.383031 0.000000 0.000000 0.000000
1.567521 1.208629 0.363962 0.000000 0.000000 0.000000
1.566624 1.192644 0.368571 0.000000 0.000000 0.000000
1.262966 1.190439 0.251024 0.000000 0.000000 0.000000
1.264814 1.007906 0.297000 0.000000 0.000000 0.000000
1.529603 1.063431 0.363910 0.000000 0.000000 0.000000
1.418247 1.445029 0.361088 0.000000 0.000000 0.000000
1.575849 1.199244 0.371270 0.000000 0.000000 0.000000
1.575155 1.193558 0.379625 0.000000 0.000000 0.000000
1.564846 1.177603 0.369923 0.000000 0.000000 0.000000
1.542984 1.244881 0.335053 0.000000 0.000000 0.000000
1.347916 1.327338 0.244891 0.000000 0.000000 0.000000
1.270172 1.015917 0.297413 0.000000 0.000000 0.000000
1.575747 1.195348 0.380544 0.000000 0.000000 0.000000
1.571699 1.210612 0.366821 0.000000 0.000000 0.000000
1.571904 1.221642 0.366052 0.000000 0.000000 0.000000
1.266830 1.196911 0.244617 0.000000 0.000000 0.000000
1.582399 1.298241 0.353624 0.000000 0.000000 0.000000
1.405038 1.419310 0.332331 0.000000 0.000000 0.000000
1.396182 1.410729 0.300083 0.000000 0.000000 0.000000
1.558686 1.310457 0.367032 0.000000 0.000000 0.000000
1.392853 1.408301 0.304481 0.000000 0.000000 0.000000
1.322869 1.286725 0.235998 0.000000 0.000000 0.000000
1.481145 1.434937 0.403793 0.000000 0.000000 0.000000
1.399328 1.421866 0.322592 0.000000 0.000000 0.000000
1.377673 1.397756 0.294071 0.000000 0.000000 0.000000
1.402640 1.395710 0.292028 0.000000 0.000000 0.000000
1.403545 1.427547 0.336715 0.000000 0.000000 0.000000
1.478455 1.001489 0.371273 0.000000 0.000000 0.000000
1.388100 1.409914 0.305599 0.000000 0.000000 0.000000
1.472197 0.990846 0.367290 0.000000 0.000000 0.000000
1.404229 1.425583 0.327467 0.000000 0.000000 0.000000
1.578833 1.307044 0.352223 0.000000 0.000000 0.000000
1.576276 1.282786 0.368624 0.000000 0.000000 0.000000
1.566605 1.312472 0.351111 0.000000 0.000000 0.000000
1.239961 1.162172 0.243977 0.000000 0.000000 0.000000
1.235664 1.157931 0.241417 0.000000 0.000000 0.000000
1.401214 1.428364 0.331468 0.000000 0.000000 0.000000
1.276438 1.164439 0.234124 0.000000 0.000000 0.000000
1.404225 1.427487 0.330406 0.000000 0.000000 0.000000
1.372144 1.386973 0.281978 0.000000 0.000000 0.000000
1.572563 1.165678 0.388043 0.000000 0.000000 0.000000
1.407578 1.420566 0.326710 0.000000 0.000000 0.000000
1.379727 1.401002 0.296402 0.000000 0.000000 0.000000
1.402847 1.425095 0.332176 0.000000 0.000000 0.000000
1.470156 0.994714 0.368263 0.000000 0.000000 0.000000
1.463669 0.988695 0.365168 0.000000 0.000000 0.000000
1.468017 0.983620 0.368286 0.000000 0.000000 0.000000
1.397323 1.423326 0.325877 0.000000 0.000000 0.000000
1.396521 1.419242 0.318932 0.000000 0.000000 0.000000
1.573799 1.303933 0.348570 0.000000 0.000000 0.000000
1.575303 1.315949 0.348342 0.000000 0.000000 0.000000
1.247143 1.171094 0.238334 0.000000 0.000000 0.000000
1.228249 1.148569 0.241082 0.000000 0.000000 0.000000
1.271498 1.140656 0.235841 0.000000 0.000000 0.000000
1.408872 1.428181 0.329355 0.000000 0.000000 0.000000
1.573283 1.173754 0.387668 0.000000 0.000000 0.000000
1.228822 1.132036 0.254016 0.000000 0.000000 0.000000
1.441721 1.448043 0.381073 0.000000 0.000000 0.000000
1.576079 1.146516 0.391297 0.000000 0.000000 0.000000
1.577630 1.140222 0.392314 0.000000 0.000000 0.000000
1.579106 1.145673 0.390323 0.000000 0.000000 0.000000
1.366468 1.365546 0.262647 0.000000 0.000000 0.000000
1.577153 1.133592 0.388746 0.000000 0.000000 0.000000
1.513989 1.002985 0.384246 0.000000 0.000000 0.000000
1.563542 1.150398 0.375033 0.000000 0.000000 0.000000
1.554167 1.122965 0.372920 0.000000 0.000000 0.000000
1.512271 1.010863 0.385839 0.000000 0.000000 0.000000
1.369985 0.967015 0.344022 0.000000 0.000000 0.000000
1.544248 1.141707 0.360819 0.000000 0.000000 0.000000
1.315717 1.124730 0.266134 0.000000 0.000000 0.000000
1.564496 1.135719 0.382624 0.000000 0.000000 0.000000
1.571805 1.146687 0.390883 0.000000 0.000000 0.000000
1.411010 1.232459 0.268871 0.000000 0.000000 0.000000
1.580572 1.119259 0.390825 0.000000 0.000000 0.000000
1.568525 1.144561 0.378616 0.000000 0.000000 0.000000
1.568803 1.102069 0.393359 0.000000 0.000000 0.000000
1.369811 1.362790 0.263282 0.000000 0.000000 0.000000
1.318945 1.152204 0.246196 0.000000 0.000000 0.000000
1.276927 1.144674 0.256890 0.000000 0.000000 0.000000
1.366657 1.367815 0.267005 0.000000 0.000000 0.000000
1.507753 1.008487 0.377033 0.000000 0.000000 0.000000
1.564746 1.136200 0.380219 0.000000 0.000000 0.000000
1.539436 1.098150 0.361628 0.000000 0.000000 0.000000
1.506698 1.014578 0.386426 0.000000 0.000000 0.000000
1.291576 1.124930 0.245641 0.000000 0.000000 0.000000
1.370703 0.965894 0.341152 0.000000 0.000000 0.000000
1.553802 1.153269 0.361563 0.000000 0.000000 0.000000
1.323625 1.115373 0.278854 0.000000 0.000000 0.000000
1.565606 1.146090 0.380098 0.000000 0.000000 0.000000
1.567485 1.169278 0.387503 0.000000 0.000000 0.000000
1.385126 1.236158 0.263112 0.000000 0.000000 0.000000
1.553909 1.143504 0.371673 0.000000 0.000000 0.000000
1.567415 1.121274 0.384102 0.000000 0.000000 0.000000
1.365268 1.366218 0.267166 0.000000 0.000000 0.000000
1.466449 0.985325 0.370565 0.000000 0.000000 0.000000
1.308688 1.141012 0.256769 0.000000 0.000000 0.000000
