ply
format ascii 1.0
comment VCGLIB generated
obj_info Generated by SPFormer!
element vertex 884
property float x
property float y
property float z
property float nx
property float ny
property float nz
end_header
1.331683 1.299611 1.231966 0.000000 0.000000 0.000000
1.432456 1.524800 1.362429 0.000000 0.000000 0.000000
1.401902 1.434492 1.304960 0.000000 0.000000 0.000000
1.436817 1.547186 1.364864 0.000000 0.000000 0.000000
1.371750 1.677085 1.343133 0.000000 0.000000 0.000000
1.407003 1.754908 1.421453 0.000000 0.000000 0.000000
1.359134 1.295147 1.289523 0.000000 0.000000 0.000000
1.414585 1.740510 1.430835 0.000000 0.000000 0.000000
1.316648 1.302632 1.156162 0.000000 0.000000 0.000000
1.350012 1.294780 1.277222 0.000000 0.000000 0.000000
1.420688 1.711543 1.484258 0.000000 0.000000 0.000000
1.427084 1.508258 1.360335 0.000000 0.000000 0.000000
1.458242 1.585401 1.449338 0.000000 0.000000 0.000000
1.364983 1.659330 1.319840 0.000000 0.000000 0.000000
1.368846 1.669320 1.334137 0.000000 0.000000 0.000000
1.402532 1.736257 1.414100 0.000000 0.000000 0.000000
1.371078 1.570457 1.221149 0.000000 0.000000 0.000000
1.380607 1.657009 1.334270 0.000000 0.000000 0.000000
1.368874 1.665771 1.330300 0.000000 0.000000 0.000000
1.403280 1.765659 1.420880 0.000000 0.000000 0.000000
1.357829 1.400419 1.120428 0.000000 0.000000 0.000000
1.356306 1.680247 1.333007 0.000000 0.000000 0.000000
1.360965 1.672515 1.329224 0.000000 0.000000 0.000000
1.365402 1.583816 1.238753 0.000000 0.000000 0.000000
1.380034 1.644398 1.322749 0.000000 0.000000 0.000000
1.362128 1.691911 1.351424 0.000000 0.000000 0.000000
1.393126 1.752656 1.410829 0.000000 0.000000 0.000000
1.394247 1.724422 1.400146 0.000000 0.000000 0.000000
1.412432 1.752256 1.418983 0.000000 0.000000 0.000000
1.408606 1.756082 1.417179 0.000000 0.000000 0.000000
1.455869 1.484896 1.413493 0.000000 0.000000 0.000000
1.381808 1.666362 1.343560 0.000000 0.000000 0.000000
1.423203 1.726534 1.456772 0.000000 0.000000 0.000000
1.418294 1.755189 1.426961 0.000000 0.000000 0.000000
1.367736 1.673690 1.342680 0.000000 0.000000 0.000000
1.369044 1.445008 1.125326 0.000000 0.000000 0.000000
1.373124 1.595773 1.273216 0.000000 0.000000 0.000000
1.390003 1.558356 1.268943 0.000000 0.000000 0.000000
1.358197 1.695041 1.360991 0.000000 0.000000 0.000000
1.423085 1.726880 1.482681 0.000000 0.000000 0.000000
1.353067 1.390553 1.131436 0.000000 0.000000 0.000000
1.414945 1.739475 1.413626 0.000000 0.000000 0.000000
1.344370 1.382939 1.119820 0.000000 0.000000 0.000000
1.408635 1.782497 1.448888 0.000000 0.000000 0.000000
1.414145 1.781918 1.458924 0.000000 0.000000 0.000000
1.328603 1.300375 1.220308 0.000000 0.000000 0.000000
1.455129 1.449591 1.411892 0.000000 0.000000 0.000000
1.390062 1.341608 1.364931 0.000000 0.000000 0.000000
1.384400 1.417043 1.265637 0.000000 0.000000 0.000000
1.405687 1.363220 1.369433 0.000000 0.000000 0.000000
1.360925 1.507643 1.151712 0.000000 0.000000 0.000000
1.390199 1.323581 1.357483 0.000000 0.000000 0.000000
1.366713 1.312831 1.310828 0.000000 0.000000 0.000000
1.446986 1.644234 1.468568 0.000000 0.000000 0.000000
1.371378 1.696539 1.363142 0.000000 0.000000 0.000000
1.451348 1.502763 1.405220 0.000000 0.000000 0.000000
1.450277 1.648281 1.471744 0.000000 0.000000 0.000000
1.385842 1.338354 1.365828 0.000000 0.000000 0.000000
1.387280 1.726381 1.398602 0.000000 0.000000 0.000000
1.413349 1.575511 1.342860 0.000000 0.000000 0.000000
1.365643 1.505548 1.146072 0.000000 0.000000 0.000000
1.386933 1.331304 1.359673 0.000000 0.000000 0.000000
1.345787 1.300662 1.259824 0.000000 0.000000 0.000000
1.458145 1.633922 1.461980 0.000000 0.000000 0.000000
1.363680 1.674676 1.339720 0.000000 0.000000 0.000000
1.389845 1.348553 1.380741 0.000000 0.000000 0.000000
1.408450 1.770291 1.470228 0.000000 0.000000 0.000000
1.358857 1.425202 1.111209 0.000000 0.000000 0.000000
1.371225 1.445875 1.117396 0.000000 0.000000 0.000000
1.391433 1.347249 1.376620 0.000000 0.000000 0.000000
1.369441 1.442442 1.116606 0.000000 0.000000 0.000000
1.362109 1.520605 1.156557 0.000000 0.000000 0.000000
1.363461 1.412417 1.149067 0.000000 0.000000 0.000000
1.362098 1.496185 1.140346 0.000000 0.000000 0.000000
1.367579 1.467260 1.118089 0.000000 0.000000 0.000000
1.450410 1.488700 1.409605 0.000000 0.000000 0.000000
1.362928 1.451582 1.122847 0.000000 0.000000 0.000000
1.391629 1.345460 1.364910 0.000000 0.000000 0.000000
1.370414 1.504233 1.151769 0.000000 0.000000 0.000000
1.437950 1.676201 1.480985 0.000000 0.000000 0.000000
1.366540 1.491070 1.145238 0.000000 0.000000 0.000000
1.447424 1.463409 1.379097 0.000000 0.000000 0.000000
1.357982 1.672086 1.322304 0.000000 0.000000 0.000000
1.454897 1.440396 1.405017 0.000000 0.000000 0.000000
1.358531 1.671703 1.327830 0.000000 0.000000 0.000000
1.390750 1.388626 1.289001 0.000000 0.000000 0.000000
1.370557 1.677692 1.345757 0.000000 0.000000 0.000000
1.405201 1.406315 1.327780 0.000000 0.000000 0.000000
1.422264 1.394833 1.391822 0.000000 0.000000 0.000000
1.400143 1.361176 1.381777 0.000000 0.000000 0.000000
1.354392 1.669901 1.319790 0.000000 0.000000 0.000000
1.362623 1.457019 1.112545 0.000000 0.000000 0.000000
1.430910 1.518493 1.342975 0.000000 0.000000 0.000000
1.354627 1.675840 1.324454 0.000000 0.000000 0.000000
1.380832 1.675654 1.354366 0.000000 0.000000 0.000000
1.364313 1.655395 1.313388 0.000000 0.000000 0.000000
1.413849 1.383655 1.379887 0.000000 0.000000 0.000000
1.397136 1.432567 1.280537 0.000000 0.000000 0.000000
1.422539 1.525536 1.330039 0.000000 0.000000 0.000000
1.369761 1.663286 1.330432 0.000000 0.000000 0.000000
1.392612 1.410432 1.276318 0.000000 0.000000 0.000000
1.420490 1.393098 1.381833 0.000000 0.000000 0.000000
1.354697 1.670930 1.328195 0.000000 0.000000 0.000000
1.423605 1.399112 1.383341 0.000000 0.000000 0.000000
1.364621 1.506893 1.149922 0.000000 0.000000 0.000000
1.380255 1.336913 1.333033 0.000000 0.000000 0.000000
1.362090 1.524655 1.167180 0.000000 0.000000 0.000000
1.358844 1.531639 1.173722 0.000000 0.000000 0.000000
1.366302 1.514955 1.156622 0.000000 0.000000 0.000000
1.364382 1.569729 1.230478 0.000000 0.000000 0.000000
1.428263 1.653768 1.392039 0.000000 0.000000 0.000000
1.325726 1.319345 1.142318 0.000000 0.000000 0.000000
1.343505 1.278949 1.270325 0.000000 0.000000 0.000000
1.366248 1.440795 1.116520 0.000000 0.000000 0.000000
1.303988 1.282580 1.161206 0.000000 0.000000 0.000000
1.396685 1.352256 1.371855 0.000000 0.000000 0.000000
1.367747 1.562993 1.228769 0.000000 0.000000 0.000000
1.449691 1.444327 1.387095 0.000000 0.000000 0.000000
1.432798 1.616417 1.403820 0.000000 0.000000 0.000000
1.426074 1.709876 1.469194 0.000000 0.000000 0.000000
1.442350 1.674240 1.462817 0.000000 0.000000 0.000000
1.337770 1.275335 1.247820 0.000000 0.000000 0.000000
1.355847 1.410574 1.117419 0.000000 0.000000 0.000000
1.426029 1.684826 1.409956 0.000000 0.000000 0.000000
1.414063 1.386301 1.359808 0.000000 0.000000 0.000000
1.414537 1.781110 1.465351 0.000000 0.000000 0.000000
1.360356 1.345612 1.247567 0.000000 0.000000 0.000000
1.312615 1.285484 1.183327 0.000000 0.000000 0.000000
1.319150 1.277851 1.215106 0.000000 0.000000 0.000000
1.314801 1.297051 1.166723 0.000000 0.000000 0.000000
1.344291 1.316051 1.233285 0.000000 0.000000 0.000000
1.375251 1.501667 1.178349 0.000000 0.000000 0.000000
1.314256 1.293926 1.172500 0.000000 0.000000 0.000000
1.366491 1.550237 1.215152 0.000000 0.000000 0.000000
1.443700 1.659947 1.458025 0.000000 0.000000 0.000000
1.418525 1.393960 1.378805 0.000000 0.000000 0.000000
1.370821 1.716864 1.387822 0.000000 0.000000 0.000000
1.347365 1.328793 1.229455 0.000000 0.000000 0.000000
1.320158 1.309314 1.185536 0.000000 0.000000 0.000000
1.328729 1.330533 1.149089 0.000000 0.000000 0.000000
1.349581 1.302968 1.283593 0.000000 0.000000 0.000000
1.358972 1.586385 1.233666 0.000000 0.000000 0.000000
1.349432 1.292758 1.263619 0.000000 0.000000 0.000000
1.324466 1.318815 1.150219 0.000000 0.000000 0.000000
1.370879 1.301743 1.328720 0.000000 0.000000 0.000000
1.373914 1.463404 1.151750 0.000000 0.000000 0.000000
1.383870 1.736793 1.395935 0.000000 0.000000 0.000000
1.365418 1.418116 1.131258 0.000000 0.000000 0.000000
1.358430 1.406765 1.127696 0.000000 0.000000 0.000000
1.380592 1.685034 1.354698 0.000000 0.000000 0.000000
1.362436 1.576221 1.228217 0.000000 0.000000 0.000000
1.445911 1.497709 1.408477 0.000000 0.000000 0.000000
1.352630 1.387875 1.122576 0.000000 0.000000 0.000000
1.452603 1.569414 1.449197 0.000000 0.000000 0.000000
1.393640 1.573256 1.287269 0.000000 0.000000 0.000000
1.353316 1.282474 1.285614 0.000000 0.000000 0.000000
1.448816 1.539407 1.401115 0.000000 0.000000 0.000000
1.369348 1.676560 1.343283 0.000000 0.000000 0.000000
1.360562 1.571447 1.221585 0.000000 0.000000 0.000000
1.427565 1.691319 1.481278 0.000000 0.000000 0.000000
1.349345 1.283169 1.276973 0.000000 0.000000 0.000000
1.363526 1.556734 1.208772 0.000000 0.000000 0.000000
1.408275 1.750490 1.415725 0.000000 0.000000 0.000000
1.428410 1.732191 1.455855 0.000000 0.000000 0.000000
1.335202 1.343103 1.131784 0.000000 0.000000 0.000000
1.369671 1.708051 1.381169 0.000000 0.000000 0.000000
1.332096 1.275236 1.241789 0.000000 0.000000 0.000000
1.398216 1.362030 1.390364 0.000000 0.000000 0.000000
1.393560 1.349666 1.371647 0.000000 0.000000 0.000000
1.425314 1.731434 1.424652 0.000000 0.000000 0.000000
1.343941 1.359491 1.154651 0.000000 0.000000 0.000000
1.448368 1.667238 1.477674 0.000000 0.000000 0.000000
1.438819 1.687009 1.476311 0.000000 0.000000 0.000000
1.398560 1.761078 1.413864 0.000000 0.000000 0.000000
1.363783 1.677279 1.331511 0.000000 0.000000 0.000000
1.406158 1.768991 1.416844 0.000000 0.000000 0.000000
1.364593 1.300274 1.324953 0.000000 0.000000 0.000000
1.356427 1.411136 1.112491 0.000000 0.000000 0.000000
1.376793 1.306453 1.334936 0.000000 0.000000 0.000000
1.415714 1.736551 1.416557 0.000000 0.000000 0.000000
1.419257 1.745515 1.473439 0.000000 0.000000 0.000000
1.408515 1.770112 1.425932 0.000000 0.000000 0.000000
1.375164 1.315994 1.335044 0.000000 0.000000 0.000000
1.368712 1.305283 1.327191 0.000000 0.000000 0.000000
1.354727 1.674526 1.338218 0.000000 0.000000 0.000000
1.409536 1.780234 1.466472 0.000000 0.000000 0.000000
1.354209 1.677478 1.332754 0.000000 0.000000 0.000000
1.429073 1.408344 1.388650 0.000000 0.000000 0.000000
1.397389 1.749708 1.410166 0.000000 0.000000 0.000000
1.390236 1.752802 1.409471 0.000000 0.000000 0.000000
1.375420 1.669731 1.340772 0.000000 0.000000 0.000000
1.407611 1.734830 1.482274 0.000000 0.000000 0.000000
1.396144 1.345449 1.373948 0.000000 0.000000 0.000000
1.394697 1.761935 1.416848 0.000000 0.000000 0.000000
1.377515 1.313544 1.329141 0.000000 0.000000 0.000000
1.400455 1.758484 1.413858 0.000000 0.000000 0.000000
1.416180 1.765410 1.420876 0.000000 0.000000 0.000000
1.371291 1.305375 1.327868 0.000000 0.000000 0.000000
1.373741 1.308567 1.324286 0.000000 0.000000 0.000000
1.408763 1.780890 1.467531 0.000000 0.000000 0.000000
1.372675 1.303509 1.335881 0.000000 0.000000 0.000000
1.399476 1.760921 1.416872 0.000000 0.000000 0.000000
1.403116 1.763582 1.416570 0.000000 0.000000 0.000000
1.355086 1.666707 1.321061 0.000000 0.000000 0.000000
1.339192 1.353952 1.146577 0.000000 0.000000 0.000000
1.382720 1.665936 1.343405 0.000000 0.000000 0.000000
1.349579 1.597775 1.251333 0.000000 0.000000 0.000000
1.332374 1.335640 1.158303 0.000000 0.000000 0.000000
1.339536 1.289235 1.266668 0.000000 0.000000 0.000000
1.453858 1.535082 1.422251 0.000000 0.000000 0.000000
1.361067 1.575298 1.222061 0.000000 0.000000 0.000000
1.373162 1.328168 1.317317 0.000000 0.000000 0.000000
1.366962 1.721428 1.377995 0.000000 0.000000 0.000000
1.424795 1.412521 1.365174 0.000000 0.000000 0.000000
1.441107 1.411334 1.392342 0.000000 0.000000 0.000000
1.373123 1.315907 1.323870 0.000000 0.000000 0.000000
1.372617 1.326023 1.318967 0.000000 0.000000 0.000000
1.440521 1.428614 1.405033 0.000000 0.000000 0.000000
1.372053 1.371270 1.260726 0.000000 0.000000 0.000000
1.454278 1.590077 1.442299 0.000000 0.000000 0.000000
1.455564 1.538578 1.431281 0.000000 0.000000 0.000000
1.379032 1.547475 1.252918 0.000000 0.000000 0.000000
1.458406 1.630896 1.466110 0.000000 0.000000 0.000000
1.385743 1.465169 1.181069 0.000000 0.000000 0.000000
1.369557 1.440899 1.175556 0.000000 0.000000 0.000000
1.471947 1.622232 1.460106 0.000000 0.000000 0.000000
1.388354 1.344579 1.329115 0.000000 0.000000 0.000000
1.423581 1.746796 1.461733 0.000000 0.000000 0.000000
1.455018 1.519420 1.418019 0.000000 0.000000 0.000000
1.360472 1.480232 1.132650 0.000000 0.000000 0.000000
1.391761 1.355040 1.368987 0.000000 0.000000 0.000000
1.364193 1.307414 1.313323 0.000000 0.000000 0.000000
1.362250 1.526386 1.181609 0.000000 0.000000 0.000000
1.423866 1.399980 1.398782 0.000000 0.000000 0.000000
1.405925 1.479305 1.306419 0.000000 0.000000 0.000000
1.412101 1.533677 1.308311 0.000000 0.000000 0.000000
1.462915 1.601501 1.444976 0.000000 0.000000 0.000000
1.371099 1.409590 1.217756 0.000000 0.000000 0.000000
1.451547 1.506735 1.420547 0.000000 0.000000 0.000000
1.429089 1.697518 1.469739 0.000000 0.000000 0.000000
1.393288 1.381538 1.311420 0.000000 0.000000 0.000000
1.412385 1.380305 1.383546 0.000000 0.000000 0.000000
1.346766 1.385215 1.112877 0.000000 0.000000 0.000000
1.343075 1.379570 1.126729 0.000000 0.000000 0.000000
1.356987 1.401999 1.118462 0.000000 0.000000 0.000000
1.374737 1.305678 1.334895 0.000000 0.000000 0.000000
1.349927 1.351256 1.215474 0.000000 0.000000 0.000000
1.382852 1.450897 1.248799 0.000000 0.000000 0.000000
1.429267 1.409498 1.379747 0.000000 0.000000 0.000000
1.437788 1.423341 1.396677 0.000000 0.000000 0.000000
1.465297 1.446370 1.408047 0.000000 0.000000 0.000000
1.454684 1.558309 1.427395 0.000000 0.000000 0.000000
1.381372 1.347555 1.306671 0.000000 0.000000 0.000000
1.369096 1.330919 1.289909 0.000000 0.000000 0.000000
1.446759 1.435465 1.407547 0.000000 0.000000 0.000000
1.414897 1.417681 1.338665 0.000000 0.000000 0.000000
1.369787 1.448198 1.169894 0.000000 0.000000 0.000000
1.377782 1.314379 1.336887 0.000000 0.000000 0.000000
1.453442 1.639687 1.470294 0.000000 0.000000 0.000000
1.409265 1.419949 1.324559 0.000000 0.000000 0.000000
1.363760 1.548619 1.202957 0.000000 0.000000 0.000000
1.438328 1.585846 1.386516 0.000000 0.000000 0.000000
1.411114 1.770143 1.472543 0.000000 0.000000 0.000000
1.423624 1.758239 1.474071 0.000000 0.000000 0.000000
1.378455 1.328239 1.321000 0.000000 0.000000 0.000000
1.368368 1.454376 1.150633 0.000000 0.000000 0.000000
1.436981 1.490259 1.367068 0.000000 0.000000 0.000000
1.350721 1.299760 1.277091 0.000000 0.000000 0.000000
1.419510 1.760684 1.462178 0.000000 0.000000 0.000000
1.372081 1.464881 1.156825 0.000000 0.000000 0.000000
1.372068 1.466761 1.167476 0.000000 0.000000 0.000000
1.367056 1.298458 1.314298 0.000000 0.000000 0.000000
1.373506 1.531540 1.199589 0.000000 0.000000 0.000000
1.462057 1.462090 1.413695 0.000000 0.000000 0.000000
1.434735 1.421452 1.407854 0.000000 0.000000 0.000000
1.358141 1.377204 1.199683 0.000000 0.000000 0.000000
1.452165 1.564993 1.429325 0.000000 0.000000 0.000000
1.427444 1.692118 1.479108 0.000000 0.000000 0.000000
1.387445 1.385039 1.295346 0.000000 0.000000 0.000000
1.368432 1.467035 1.128736 0.000000 0.000000 0.000000
1.446849 1.666058 1.465656 0.000000 0.000000 0.000000
1.345509 1.386913 1.115147 0.000000 0.000000 0.000000
1.351083 1.382870 1.128007 0.000000 0.000000 0.000000
1.351513 1.388229 1.130627 0.000000 0.000000 0.000000
1.344884 1.349114 1.135219 0.000000 0.000000 0.000000
1.305166 1.283399 1.170961 0.000000 0.000000 0.000000
1.415068 1.786184 1.448603 0.000000 0.000000 0.000000
1.410081 1.779123 1.466263 0.000000 0.000000 0.000000
1.359627 1.568764 1.220200 0.000000 0.000000 0.000000
1.328098 1.329672 1.147801 0.000000 0.000000 0.000000
1.410078 1.779355 1.447576 0.000000 0.000000 0.000000
1.346276 1.326746 1.235780 0.000000 0.000000 0.000000
1.407495 1.501584 1.305768 0.000000 0.000000 0.000000
1.388684 1.483134 1.253933 0.000000 0.000000 0.000000
1.424349 1.750447 1.469648 0.000000 0.000000 0.000000
1.375500 1.589711 1.268740 0.000000 0.000000 0.000000
1.420064 1.760636 1.462991 0.000000 0.000000 0.000000
1.342844 1.291714 1.259643 0.000000 0.000000 0.000000
1.418375 1.768910 1.472010 0.000000 0.000000 0.000000
1.404703 1.517641 1.286790 0.000000 0.000000 0.000000
1.346344 1.286526 1.286283 0.000000 0.000000 0.000000
1.341265 1.355717 1.124879 0.000000 0.000000 0.000000
1.329363 1.322775 1.183437 0.000000 0.000000 0.000000
1.368137 1.515574 1.167954 0.000000 0.000000 0.000000
1.360490 1.575375 1.229873 0.000000 0.000000 0.000000
1.394952 1.533314 1.276717 0.000000 0.000000 0.000000
1.419717 1.758974 1.465655 0.000000 0.000000 0.000000
1.422222 1.587223 1.352856 0.000000 0.000000 0.000000
1.368192 1.587337 1.250705 0.000000 0.000000 0.000000
1.350252 1.314269 1.251050 0.000000 0.000000 0.000000
1.382743 1.565113 1.238235 0.000000 0.000000 0.000000
1.371561 1.498560 1.144546 0.000000 0.000000 0.000000
1.396033 1.502309 1.256655 0.000000 0.000000 0.000000
1.453910 1.668702 1.472695 0.000000 0.000000 0.000000
1.343268 1.278373 1.276277 0.000000 0.000000 0.000000
1.337446 1.344971 1.129010 0.000000 0.000000 0.000000
1.462210 1.456001 1.419614 0.000000 0.000000 0.000000
1.414776 1.621110 1.357551 0.000000 0.000000 0.000000
1.432762 1.582234 1.374463 0.000000 0.000000 0.000000
1.419166 1.555191 1.347139 0.000000 0.000000 0.000000
1.399309 1.718291 1.401337 0.000000 0.000000 0.000000
1.364823 1.693762 1.360587 0.000000 0.000000 0.000000
1.448851 1.442132 1.406481 0.000000 0.000000 0.000000
1.386156 1.743751 1.410021 0.000000 0.000000 0.000000
1.377643 1.693459 1.362067 0.000000 0.000000 0.000000
1.416582 1.716686 1.475056 0.000000 0.000000 0.000000
1.371444 1.690446 1.356735 0.000000 0.000000 0.000000
1.410053 1.450282 1.306391 0.000000 0.000000 0.000000
1.341367 1.361687 1.133518 0.000000 0.000000 0.000000
1.367575 1.455505 1.136273 0.000000 0.000000 0.000000
1.340117 1.358555 1.119872 0.000000 0.000000 0.000000
1.450361 1.668426 1.475601 0.000000 0.000000 0.000000
1.463201 1.453387 1.413658 0.000000 0.000000 0.000000
1.438179 1.568588 1.384110 0.000000 0.000000 0.000000
1.370803 1.479878 1.145780 0.000000 0.000000 0.000000
1.391684 1.750590 1.406823 0.000000 0.000000 0.000000
1.380634 1.737095 1.402220 0.000000 0.000000 0.000000
1.371821 1.691397 1.360047 0.000000 0.000000 0.000000
1.433977 1.420391 1.400592 0.000000 0.000000 0.000000
1.387407 1.748721 1.402940 0.000000 0.000000 0.000000
1.365305 1.707404 1.363743 0.000000 0.000000 0.000000
1.419180 1.723139 1.483044 0.000000 0.000000 0.000000
1.359803 1.695708 1.358138 0.000000 0.000000 0.000000
1.342095 1.282182 1.256384 0.000000 0.000000 0.000000
1.335514 1.348422 1.129763 0.000000 0.000000 0.000000
1.445115 1.667858 1.472900 0.000000 0.000000 0.000000
1.372618 1.449829 1.185364 0.000000 0.000000 0.000000
1.387248 1.346783 1.376968 0.000000 0.000000 0.000000
1.396508 1.736553 1.404789 0.000000 0.000000 0.000000
1.372692 1.478516 1.161269 0.000000 0.000000 0.000000
1.362019 1.686731 1.349566 0.000000 0.000000 0.000000
1.375245 1.309615 1.339703 0.000000 0.000000 0.000000
1.453935 1.646418 1.471497 0.000000 0.000000 0.000000
1.381430 1.330643 1.342332 0.000000 0.000000 0.000000
1.368394 1.452086 1.143222 0.000000 0.000000 0.000000
1.385835 1.335361 1.359085 0.000000 0.000000 0.000000
1.353258 1.668239 1.324861 0.000000 0.000000 0.000000
1.361003 1.299055 1.287552 0.000000 0.000000 0.000000
1.393772 1.345617 1.353846 0.000000 0.000000 0.000000
1.384282 1.573778 1.268641 0.000000 0.000000 0.000000
1.369388 1.307987 1.332676 0.000000 0.000000 0.000000
1.449076 1.521309 1.400797 0.000000 0.000000 0.000000
1.391396 1.343903 1.371562 0.000000 0.000000 0.000000
1.391856 1.584303 1.294933 0.000000 0.000000 0.000000
1.394555 1.351049 1.374153 0.000000 0.000000 0.000000
1.316967 1.305082 1.174453 0.000000 0.000000 0.000000
1.359940 1.565476 1.213348 0.000000 0.000000 0.000000
1.417237 1.384236 1.395395 0.000000 0.000000 0.000000
1.311323 1.293179 1.187113 0.000000 0.000000 0.000000
1.323082 1.288760 1.211941 0.000000 0.000000 0.000000
1.375383 1.329280 1.327495 0.000000 0.000000 0.000000
1.392281 1.554764 1.261823 0.000000 0.000000 0.000000
1.368324 1.300048 1.318510 0.000000 0.000000 0.000000
1.330994 1.276896 1.246084 0.000000 0.000000 0.000000
1.362342 1.559041 1.206918 0.000000 0.000000 0.000000
1.412585 1.379373 1.390523 0.000000 0.000000 0.000000
1.303594 1.281342 1.189073 0.000000 0.000000 0.000000
1.365720 1.292197 1.312970 0.000000 0.000000 0.000000
1.367372 1.466376 1.124761 0.000000 0.000000 0.000000
1.336140 1.354659 1.137002 0.000000 0.000000 0.000000
1.337724 1.278997 1.260306 0.000000 0.000000 0.000000
1.374019 1.299478 1.328005 0.000000 0.000000 0.000000
1.329049 1.280042 1.247360 0.000000 0.000000 0.000000
1.366869 1.605714 1.269746 0.000000 0.000000 0.000000
1.379497 1.613355 1.294607 0.000000 0.000000 0.000000
1.400276 1.762263 1.413811 0.000000 0.000000 0.000000
1.370881 1.607084 1.284203 0.000000 0.000000 0.000000
1.349000 1.395124 1.124765 0.000000 0.000000 0.000000
1.369215 1.622526 1.294175 0.000000 0.000000 0.000000
1.353583 1.607937 1.249374 0.000000 0.000000 0.000000
1.377079 1.618251 1.298177 0.000000 0.000000 0.000000
1.364642 1.613289 1.267732 0.000000 0.000000 0.000000
1.362688 1.431665 1.116230 0.000000 0.000000 0.000000
1.306624 1.287684 1.169302 0.000000 0.000000 0.000000
1.356646 1.618663 1.269708 0.000000 0.000000 0.000000
1.363948 1.694361 1.356620 0.000000 0.000000 0.000000
1.361487 1.597587 1.247659 0.000000 0.000000 0.000000
1.416459 1.374712 1.384399 0.000000 0.000000 0.000000
1.367003 1.444904 1.111838 0.000000 0.000000 0.000000
1.395630 1.355724 1.388545 0.000000 0.000000 0.000000
1.428240 1.700565 1.474444 0.000000 0.000000 0.000000
1.447109 1.577568 1.419917 0.000000 0.000000 0.000000
1.317660 1.289572 1.203196 0.000000 0.000000 0.000000
1.381585 1.726428 1.389949 0.000000 0.000000 0.000000
1.366159 1.477614 1.124195 0.000000 0.000000 0.000000
1.441443 1.680711 1.470161 0.000000 0.000000 0.000000
1.423471 1.407713 1.408853 0.000000 0.000000 0.000000
1.358721 1.595971 1.244037 0.000000 0.000000 0.000000
1.364901 1.297359 1.319071 0.000000 0.000000 0.000000
1.343949 1.344244 1.192876 0.000000 0.000000 0.000000
1.419163 1.777249 1.470725 0.000000 0.000000 0.000000
1.309118 1.281601 1.184684 0.000000 0.000000 0.000000
1.412883 1.741444 1.477486 0.000000 0.000000 0.000000
1.406803 1.769435 1.468075 0.000000 0.000000 0.000000
1.320037 1.282534 1.215889 0.000000 0.000000 0.000000
1.382789 1.744105 1.395211 0.000000 0.000000 0.000000
1.420453 1.395461 1.403110 0.000000 0.000000 0.000000
1.414931 1.394494 1.404754 0.000000 0.000000 0.000000
1.316713 1.297102 1.197643 0.000000 0.000000 0.000000
1.416823 1.387570 1.392908 0.000000 0.000000 0.000000
1.409396 1.788157 1.455749 0.000000 0.000000 0.000000
1.385454 1.735408 1.397326 0.000000 0.000000 0.000000
1.357583 1.385978 1.118211 0.000000 0.000000 0.000000
1.421364 1.395800 1.379104 0.000000 0.000000 0.000000
1.395931 1.506395 1.230363 0.000000 0.000000 0.000000
1.362574 1.297846 1.321988 0.000000 0.000000 0.000000
1.333475 1.345751 1.135591 0.000000 0.000000 0.000000
1.461177 1.629056 1.462843 0.000000 0.000000 0.000000
1.411876 1.773995 1.456140 0.000000 0.000000 0.000000
1.417254 1.732929 1.479240 0.000000 0.000000 0.000000
1.356953 1.392781 1.137600 0.000000 0.000000 0.000000
1.323643 1.307544 1.145059 0.000000 0.000000 0.000000
1.342071 1.277757 1.268270 0.000000 0.000000 0.000000
1.354365 1.299964 1.295213 0.000000 0.000000 0.000000
1.318252 1.271308 1.207707 0.000000 0.000000 0.000000
1.360428 1.412757 1.129247 0.000000 0.000000 0.000000
1.370037 1.439647 1.134784 0.000000 0.000000 0.000000
1.414859 1.744517 1.464365 0.000000 0.000000 0.000000
1.415135 1.717108 1.470974 0.000000 0.000000 0.000000
1.421707 1.737544 1.478434 0.000000 0.000000 0.000000
1.355069 1.418995 1.116753 0.000000 0.000000 0.000000
1.320798 1.310474 1.142559 0.000000 0.000000 0.000000
1.357888 1.402327 1.137108 0.000000 0.000000 0.000000
1.320436 1.275776 1.222699 0.000000 0.000000 0.000000
1.356874 1.628640 1.280316 0.000000 0.000000 0.000000
1.415533 1.390057 1.400032 0.000000 0.000000 0.000000
1.331272 1.331438 1.132214 0.000000 0.000000 0.000000
1.361494 1.597537 1.249448 0.000000 0.000000 0.000000
1.363952 1.621783 1.281937 0.000000 0.000000 0.000000
1.354049 1.628614 1.277053 0.000000 0.000000 0.000000
1.354372 1.616914 1.265096 0.000000 0.000000 0.000000
1.406849 1.380894 1.395057 0.000000 0.000000 0.000000
1.324880 1.274872 1.217368 0.000000 0.000000 0.000000
1.342273 1.351166 1.120842 0.000000 0.000000 0.000000
1.358231 1.626134 1.275571 0.000000 0.000000 0.000000
1.354345 1.621155 1.268144 0.000000 0.000000 0.000000
1.399647 1.363877 1.387722 0.000000 0.000000 0.000000
1.448731 1.563044 1.397679 0.000000 0.000000 0.000000
1.452914 1.542492 1.407258 0.000000 0.000000 0.000000
1.446413 1.585235 1.399579 0.000000 0.000000 0.000000
1.362218 1.565698 1.214895 0.000000 0.000000 0.000000
1.363226 1.566726 1.212249 0.000000 0.000000 0.000000
1.314226 1.288631 1.192332 0.000000 0.000000 0.000000
1.435908 1.595486 1.377307 0.000000 0.000000 0.000000
1.365590 1.532270 1.192869 0.000000 0.000000 0.000000
1.409052 1.775532 1.476386 0.000000 0.000000 0.000000
1.449324 1.572407 1.401835 0.000000 0.000000 0.000000
1.352141 1.410352 1.114942 0.000000 0.000000 0.000000
1.432065 1.606499 1.377733 0.000000 0.000000 0.000000
1.388841 1.347806 1.369554 0.000000 0.000000 0.000000
1.387559 1.339733 1.374126 0.000000 0.000000 0.000000
1.360163 1.557572 1.202758 0.000000 0.000000 0.000000
1.396190 1.354947 1.379923 0.000000 0.000000 0.000000
1.460301 1.600204 1.441888 0.000000 0.000000 0.000000
1.361193 1.539618 1.184127 0.000000 0.000000 0.000000
1.360482 1.553379 1.200147 0.000000 0.000000 0.000000
1.410282 1.572312 1.331476 0.000000 0.000000 0.000000
1.344521 1.290977 1.284838 0.000000 0.000000 0.000000
1.442850 1.562662 1.385155 0.000000 0.000000 0.000000
1.462173 1.576953 1.433720 0.000000 0.000000 0.000000
1.363300 1.560256 1.214786 0.000000 0.000000 0.000000
1.358674 1.553992 1.208212 0.000000 0.000000 0.000000
1.356244 1.616517 1.261570 0.000000 0.000000 0.000000
1.377414 1.520530 1.210490 0.000000 0.000000 0.000000
1.360154 1.554101 1.200094 0.000000 0.000000 0.000000
1.440125 1.552500 1.380316 0.000000 0.000000 0.000000
1.360074 1.421619 1.124495 0.000000 0.000000 0.000000
1.335729 1.344151 1.127011 0.000000 0.000000 0.000000
1.390573 1.344189 1.372343 0.000000 0.000000 0.000000
1.355376 1.597596 1.241267 0.000000 0.000000 0.000000
1.386929 1.337159 1.370747 0.000000 0.000000 0.000000
1.426698 1.676636 1.474349 0.000000 0.000000 0.000000
1.362712 1.533724 1.184518 0.000000 0.000000 0.000000
1.360808 1.539844 1.188835 0.000000 0.000000 0.000000
1.411212 1.506975 1.289579 0.000000 0.000000 0.000000
1.408388 1.534796 1.301843 0.000000 0.000000 0.000000
1.357189 1.654611 1.304879 0.000000 0.000000 0.000000
1.448712 1.475528 1.399421 0.000000 0.000000 0.000000
1.368162 1.498253 1.164329 0.000000 0.000000 0.000000
1.326116 1.272259 1.211990 0.000000 0.000000 0.000000
1.361133 1.446491 1.117006 0.000000 0.000000 0.000000
1.385983 1.344588 1.379272 0.000000 0.000000 0.000000
1.419764 1.393575 1.390441 0.000000 0.000000 0.000000
1.343098 1.274356 1.263879 0.000000 0.000000 0.000000
1.316198 1.267848 1.219283 0.000000 0.000000 0.000000
1.386887 1.338761 1.355090 0.000000 0.000000 0.000000
1.448957 1.466452 1.392939 0.000000 0.000000 0.000000
1.315677 1.273830 1.209521 0.000000 0.000000 0.000000
1.449700 1.597082 1.429761 0.000000 0.000000 0.000000
1.467206 1.465908 1.416565 0.000000 0.000000 0.000000
1.344007 1.273622 1.257485 0.000000 0.000000 0.000000
1.322780 1.307454 1.142380 0.000000 0.000000 0.000000
1.391889 1.349549 1.381316 0.000000 0.000000 0.000000
1.403982 1.779420 1.472297 0.000000 0.000000 0.000000
1.393694 1.351818 1.385549 0.000000 0.000000 0.000000
1.309781 1.289054 1.168935 0.000000 0.000000 0.000000
1.403585 1.775564 1.477303 0.000000 0.000000 0.000000
1.411055 1.384904 1.399169 0.000000 0.000000 0.000000
1.319342 1.306152 1.153746 0.000000 0.000000 0.000000
1.448540 1.656856 1.447582 0.000000 0.000000 0.000000
1.410041 1.374644 1.382530 0.000000 0.000000 0.000000
1.347454 1.382184 1.124433 0.000000 0.000000 0.000000
1.358492 1.549931 1.194138 0.000000 0.000000 0.000000
1.394402 1.354032 1.365203 0.000000 0.000000 0.000000
1.360335 1.517141 1.155279 0.000000 0.000000 0.000000
1.397321 1.354100 1.371104 0.000000 0.000000 0.000000
1.347412 1.377921 1.116991 0.000000 0.000000 0.000000
1.338137 1.350428 1.123696 0.000000 0.000000 0.000000
1.347332 1.380306 1.115126 0.000000 0.000000 0.000000
1.432892 1.707902 1.447078 0.000000 0.000000 0.000000
1.325921 1.324546 1.143896 0.000000 0.000000 0.000000
1.357555 1.545559 1.187808 0.000000 0.000000 0.000000
1.317950 1.287843 1.200028 0.000000 0.000000 0.000000
1.457082 1.478036 1.410508 0.000000 0.000000 0.000000
1.401217 1.370190 1.390682 0.000000 0.000000 0.000000
1.433842 1.621273 1.393010 0.000000 0.000000 0.000000
1.460406 1.552809 1.438561 0.000000 0.000000 0.000000
1.330861 1.333027 1.135459 0.000000 0.000000 0.000000
1.345145 1.391472 1.125393 0.000000 0.000000 0.000000
1.415459 1.775577 1.475027 0.000000 0.000000 0.000000
1.303396 1.285766 1.187913 0.000000 0.000000 0.000000
1.376763 1.319701 1.357396 0.000000 0.000000 0.000000
1.426869 1.700455 1.426220 0.000000 0.000000 0.000000
1.350039 1.613261 1.270059 0.000000 0.000000 0.000000
1.321211 1.310955 1.142514 0.000000 0.000000 0.000000
1.359466 1.547051 1.190957 0.000000 0.000000 0.000000
1.323330 1.295052 1.198744 0.000000 0.000000 0.000000
1.415678 1.791419 1.457298 0.000000 0.000000 0.000000
1.372485 1.486187 1.152203 0.000000 0.000000 0.000000
1.456469 1.454484 1.412440 0.000000 0.000000 0.000000
1.360756 1.420297 1.109437 0.000000 0.000000 0.000000
1.420077 1.393009 1.392160 0.000000 0.000000 0.000000
1.370403 1.461184 1.117605 0.000000 0.000000 0.000000
1.458287 1.558918 1.447764 0.000000 0.000000 0.000000
1.362819 1.470124 1.122531 0.000000 0.000000 0.000000
1.425619 1.405728 1.410983 0.000000 0.000000 0.000000
1.370285 1.448799 1.130386 0.000000 0.000000 0.000000
1.413584 1.486987 1.310387 0.000000 0.000000 0.000000
1.398983 1.421412 1.292618 0.000000 0.000000 0.000000
1.365335 1.422240 1.110819 0.000000 0.000000 0.000000
1.369606 1.508487 1.157494 0.000000 0.000000 0.000000
1.411745 1.460176 1.309046 0.000000 0.000000 0.000000
1.361368 1.550927 1.198417 0.000000 0.000000 0.000000
1.410573 1.786019 1.454930 0.000000 0.000000 0.000000
1.410364 1.767872 1.423582 0.000000 0.000000 0.000000
1.412356 1.789027 1.452354 0.000000 0.000000 0.000000
1.410694 1.773559 1.452307 0.000000 0.000000 0.000000
1.410493 1.777827 1.451322 0.000000 0.000000 0.000000
1.377235 1.562299 1.227208 0.000000 0.000000 0.000000
1.387806 1.538615 1.244959 0.000000 0.000000 0.000000
1.386301 1.338302 1.346169 0.000000 0.000000 0.000000
1.451487 1.658648 1.473913 0.000000 0.000000 0.000000
1.400235 1.513732 1.259273 0.000000 0.000000 0.000000
1.413502 1.747871 1.461777 0.000000 0.000000 0.000000
1.360425 1.308137 1.301909 0.000000 0.000000 0.000000
1.372343 1.549745 1.217183 0.000000 0.000000 0.000000
1.361709 1.628125 1.289106 0.000000 0.000000 0.000000
1.376780 1.544397 1.224843 0.000000 0.000000 0.000000
1.368796 1.576512 1.235724 0.000000 0.000000 0.000000
1.383142 1.321169 1.355014 0.000000 0.000000 0.000000
1.353030 1.600254 1.244603 0.000000 0.000000 0.000000
1.353082 1.606338 1.252707 0.000000 0.000000 0.000000
1.413027 1.785849 1.444409 0.000000 0.000000 0.000000
1.455409 1.617646 1.436970 0.000000 0.000000 0.000000
1.440617 1.536935 1.390965 0.000000 0.000000 0.000000
1.359749 1.524110 1.167375 0.000000 0.000000 0.000000
1.456490 1.626886 1.452421 0.000000 0.000000 0.000000
1.451846 1.650810 1.467390 0.000000 0.000000 0.000000
1.455929 1.642359 1.464090 0.000000 0.000000 0.000000
1.439031 1.652023 1.429116 0.000000 0.000000 0.000000
1.438657 1.670814 1.425793 0.000000 0.000000 0.000000
1.450566 1.639158 1.441816 0.000000 0.000000 0.000000
1.457069 1.629809 1.444733 0.000000 0.000000 0.000000
1.413716 1.783121 1.473532 0.000000 0.000000 0.000000
1.437466 1.626939 1.398512 0.000000 0.000000 0.000000
1.459824 1.629097 1.454660 0.000000 0.000000 0.000000
1.456854 1.622267 1.457556 0.000000 0.000000 0.000000
1.459020 1.634058 1.466340 0.000000 0.000000 0.000000
1.446995 1.627856 1.434418 0.000000 0.000000 0.000000
1.448445 1.629823 1.426752 0.000000 0.000000 0.000000
1.443871 1.668692 1.438799 0.000000 0.000000 0.000000
1.396960 1.720993 1.403557 0.000000 0.000000 0.000000
1.404882 1.783789 1.469930 0.000000 0.000000 0.000000
1.380699 1.738493 1.402890 0.000000 0.000000 0.000000
1.376347 1.672073 1.347284 0.000000 0.000000 0.000000
1.365225 1.679872 1.344730 0.000000 0.000000 0.000000
1.357453 1.685418 1.341085 0.000000 0.000000 0.000000
1.358733 1.639798 1.291423 0.000000 0.000000 0.000000
1.370248 1.712235 1.379520 0.000000 0.000000 0.000000
1.408234 1.693776 1.392371 0.000000 0.000000 0.000000
1.383206 1.737209 1.395896 0.000000 0.000000 0.000000
1.366599 1.507594 1.144368 0.000000 0.000000 0.000000
1.390164 1.725740 1.400837 0.000000 0.000000 0.000000
1.412830 1.757651 1.419150 0.000000 0.000000 0.000000
1.402179 1.540806 1.265752 0.000000 0.000000 0.000000
1.414102 1.774055 1.426993 0.000000 0.000000 0.000000
1.372077 1.701646 1.369947 0.000000 0.000000 0.000000
1.368369 1.494428 1.138293 0.000000 0.000000 0.000000
1.352650 1.405523 1.104704 0.000000 0.000000 0.000000
1.343161 1.363748 1.119030 0.000000 0.000000 0.000000
1.386452 1.734153 1.394215 0.000000 0.000000 0.000000
1.380420 1.722180 1.386887 0.000000 0.000000 0.000000
1.361919 1.507064 1.148871 0.000000 0.000000 0.000000
1.382518 1.714445 1.383640 0.000000 0.000000 0.000000
1.416796 1.763410 1.426796 0.000000 0.000000 0.000000
1.420386 1.753515 1.432804 0.000000 0.000000 0.000000
1.361824 1.687395 1.344935 0.000000 0.000000 0.000000
1.362131 1.495969 1.135004 0.000000 0.000000 0.000000
1.343556 1.367409 1.118358 0.000000 0.000000 0.000000
1.411926 1.777887 1.431154 0.000000 0.000000 0.000000
1.417033 1.780745 1.476285 0.000000 0.000000 0.000000
1.406088 1.764855 1.421967 0.000000 0.000000 0.000000
1.405734 1.779476 1.475990 0.000000 0.000000 0.000000
1.359320 1.671069 1.330657 0.000000 0.000000 0.000000
1.408515 1.766069 1.426687 0.000000 0.000000 0.000000
1.358958 1.521972 1.161655 0.000000 0.000000 0.000000
1.414481 1.557317 1.330753 0.000000 0.000000 0.000000
1.360342 1.655219 1.312210 0.000000 0.000000 0.000000
1.411055 1.772847 1.429422 0.000000 0.000000 0.000000
1.442430 1.690001 1.477766 0.000000 0.000000 0.000000
1.416009 1.770350 1.425190 0.000000 0.000000 0.000000
1.361277 1.508026 1.149718 0.000000 0.000000 0.000000
1.410428 1.787605 1.449744 0.000000 0.000000 0.000000
1.353328 1.587346 1.230539 0.000000 0.000000 0.000000
1.371912 1.510884 1.172547 0.000000 0.000000 0.000000
1.353159 1.656487 1.305079 0.000000 0.000000 0.000000
1.361448 1.659701 1.316178 0.000000 0.000000 0.000000
1.364689 1.507673 1.158988 0.000000 0.000000 0.000000
1.406419 1.759310 1.421948 0.000000 0.000000 0.000000
1.417646 1.537613 1.323114 0.000000 0.000000 0.000000
1.361233 1.646329 1.306665 0.000000 0.000000 0.000000
1.360667 1.652491 1.313600 0.000000 0.000000 0.000000
1.412106 1.777967 1.431071 0.000000 0.000000 0.000000
1.382574 1.427644 1.247678 0.000000 0.000000 0.000000
1.441996 1.670003 1.447419 0.000000 0.000000 0.000000
1.360846 1.523349 1.171025 0.000000 0.000000 0.000000
1.440025 1.682833 1.480969 0.000000 0.000000 0.000000
1.352648 1.622419 1.263916 0.000000 0.000000 0.000000
1.362996 1.498606 1.139077 0.000000 0.000000 0.000000
1.356384 1.533557 1.173438 0.000000 0.000000 0.000000
1.432892 1.413673 1.393711 0.000000 0.000000 0.000000
1.363492 1.483555 1.125835 0.000000 0.000000 0.000000
1.384491 1.341490 1.379585 0.000000 0.000000 0.000000
1.419758 1.393639 1.394861 0.000000 0.000000 0.000000
1.359793 1.542706 1.189672 0.000000 0.000000 0.000000
1.392580 1.749939 1.407358 0.000000 0.000000 0.000000
1.324864 1.315486 1.141078 0.000000 0.000000 0.000000
1.322881 1.312856 1.139988 0.000000 0.000000 0.000000
1.313479 1.297861 1.145505 0.000000 0.000000 0.000000
1.391530 1.347807 1.386302 0.000000 0.000000 0.000000
1.367479 1.398661 1.201795 0.000000 0.000000 0.000000
1.450235 1.638172 1.457979 0.000000 0.000000 0.000000
1.390601 1.729240 1.398371 0.000000 0.000000 0.000000
1.389362 1.740357 1.403372 0.000000 0.000000 0.000000
1.395837 1.351006 1.370909 0.000000 0.000000 0.000000
1.318579 1.304937 1.161595 0.000000 0.000000 0.000000
1.383494 1.432572 1.226235 0.000000 0.000000 0.000000
1.322717 1.312995 1.166663 0.000000 0.000000 0.000000
1.346982 1.375228 1.129754 0.000000 0.000000 0.000000
1.331155 1.334698 1.135846 0.000000 0.000000 0.000000
1.320408 1.310195 1.145985 0.000000 0.000000 0.000000
1.322494 1.316377 1.146333 0.000000 0.000000 0.000000
1.317909 1.301479 1.159560 0.000000 0.000000 0.000000
1.364548 1.477092 1.126235 0.000000 0.000000 0.000000
1.421137 1.400220 1.409414 0.000000 0.000000 0.000000
1.418979 1.466944 1.329075 0.000000 0.000000 0.000000
1.364084 1.390743 1.199022 0.000000 0.000000 0.000000
1.366964 1.464642 1.136931 0.000000 0.000000 0.000000
1.442800 1.648398 1.464005 0.000000 0.000000 0.000000
1.389983 1.745136 1.404153 0.000000 0.000000 0.000000
1.383543 1.731530 1.395519 0.000000 0.000000 0.000000
1.386378 1.337427 1.363475 0.000000 0.000000 0.000000
1.440570 1.652301 1.471969 0.000000 0.000000 0.000000
1.335001 1.342673 1.128336 0.000000 0.000000 0.000000
1.333706 1.339977 1.143346 0.000000 0.000000 0.000000
1.331664 1.334832 1.144753 0.000000 0.000000 0.000000
1.326655 1.322380 1.140943 0.000000 0.000000 0.000000
1.319576 1.305484 1.145536 0.000000 0.000000 0.000000
1.324717 1.318694 1.139179 0.000000 0.000000 0.000000
1.364456 1.487820 1.135159 0.000000 0.000000 0.000000
1.419057 1.468185 1.323426 0.000000 0.000000 0.000000
1.423731 1.400934 1.405054 0.000000 0.000000 0.000000
1.318245 1.301515 1.147732 0.000000 0.000000 0.000000
1.422348 1.399837 1.401471 0.000000 0.000000 0.000000
1.323532 1.315236 1.142062 0.000000 0.000000 0.000000
1.427002 1.404728 1.406169 0.000000 0.000000 0.000000
1.334910 1.311395 1.224713 0.000000 0.000000 0.000000
1.374695 1.471539 1.150128 0.000000 0.000000 0.000000
1.395443 1.566152 1.281804 0.000000 0.000000 0.000000
1.325873 1.322322 1.176845 0.000000 0.000000 0.000000
1.379075 1.559948 1.236280 0.000000 0.000000 0.000000
1.307647 1.289297 1.172451 0.000000 0.000000 0.000000
1.368196 1.495354 1.143991 0.000000 0.000000 0.000000
1.358935 1.561738 1.207520 0.000000 0.000000 0.000000
1.354601 1.660589 1.305123 0.000000 0.000000 0.000000
1.372695 1.312913 1.349507 0.000000 0.000000 0.000000
1.369162 1.444984 1.123612 0.000000 0.000000 0.000000
1.313797 1.300982 1.181592 0.000000 0.000000 0.000000
1.372365 1.554291 1.222124 0.000000 0.000000 0.000000
1.318740 1.307291 1.164254 0.000000 0.000000 0.000000
1.311156 1.295940 1.175251 0.000000 0.000000 0.000000
1.371702 1.488721 1.145239 0.000000 0.000000 0.000000
1.372529 1.578031 1.246276 0.000000 0.000000 0.000000
1.413106 1.786917 1.442024 0.000000 0.000000 0.000000
1.357888 1.553080 1.197133 0.000000 0.000000 0.000000
1.429737 1.411162 1.407644 0.000000 0.000000 0.000000
1.363928 1.687637 1.350137 0.000000 0.000000 0.000000
1.445331 1.435738 1.413613 0.000000 0.000000 0.000000
1.372798 1.320439 1.333606 0.000000 0.000000 0.000000
1.361482 1.294823 1.319146 0.000000 0.000000 0.000000
1.356564 1.663551 1.311940 0.000000 0.000000 0.000000
1.411655 1.772535 1.480969 0.000000 0.000000 0.000000
1.353665 1.671396 1.321964 0.000000 0.000000 0.000000
1.362411 1.702348 1.364833 0.000000 0.000000 0.000000
1.355689 1.661702 1.314607 0.000000 0.000000 0.000000
1.358976 1.541673 1.184507 0.000000 0.000000 0.000000
1.359747 1.324168 1.267712 0.000000 0.000000 0.000000
1.323757 1.318349 1.150063 0.000000 0.000000 0.000000
1.410926 1.784680 1.448637 0.000000 0.000000 0.000000
1.462055 1.549640 1.436507 0.000000 0.000000 0.000000
1.415217 1.719739 1.483812 0.000000 0.000000 0.000000
1.453863 1.532629 1.420161 0.000000 0.000000 0.000000
1.452522 1.658028 1.479948 0.000000 0.000000 0.000000
1.354648 1.317234 1.255207 0.000000 0.000000 0.000000
1.454381 1.575620 1.449803 0.000000 0.000000 0.000000
1.367431 1.704598 1.370442 0.000000 0.000000 0.000000
1.411505 1.744474 1.482359 0.000000 0.000000 0.000000
1.376129 1.720706 1.392971 0.000000 0.000000 0.000000
1.381187 1.725988 1.397961 0.000000 0.000000 0.000000
1.371489 1.712654 1.378554 0.000000 0.000000 0.000000
1.405799 1.783378 1.470300 0.000000 0.000000 0.000000
1.378356 1.740540 1.392150 0.000000 0.000000 0.000000
1.383788 1.741656 1.401124 0.000000 0.000000 0.000000
1.410893 1.385348 1.398151 0.000000 0.000000 0.000000
1.371195 1.706179 1.368552 0.000000 0.000000 0.000000
1.394517 1.733788 1.402734 0.000000 0.000000 0.000000
1.455867 1.499463 1.416164 0.000000 0.000000 0.000000
1.365588 1.695100 1.355129 0.000000 0.000000 0.000000
1.365155 1.706748 1.367267 0.000000 0.000000 0.000000
1.394055 1.717570 1.397491 0.000000 0.000000 0.000000
1.392482 1.751511 1.408847 0.000000 0.000000 0.000000
1.404672 1.553898 1.294636 0.000000 0.000000 0.000000
1.434917 1.416432 1.399248 0.000000 0.000000 0.000000
1.421431 1.769080 1.482447 0.000000 0.000000 0.000000
1.454157 1.649837 1.474007 0.000000 0.000000 0.000000
1.455712 1.631851 1.467329 0.000000 0.000000 0.000000
1.373159 1.309915 1.340255 0.000000 0.000000 0.000000
1.356190 1.586014 1.233386 0.000000 0.000000 0.000000
1.363938 1.694508 1.354007 0.000000 0.000000 0.000000
1.386326 1.691901 1.367026 0.000000 0.000000 0.000000
1.372986 1.713556 1.379250 0.000000 0.000000 0.000000
1.379200 1.722646 1.393187 0.000000 0.000000 0.000000
1.371413 1.706629 1.377077 0.000000 0.000000 0.000000
1.368819 1.687635 1.350416 0.000000 0.000000 0.000000
1.367016 1.706158 1.369882 0.000000 0.000000 0.000000
1.384201 1.738169 1.402497 0.000000 0.000000 0.000000
1.380129 1.713559 1.384242 0.000000 0.000000 0.000000
1.388770 1.594371 1.292096 0.000000 0.000000 0.000000
1.420727 1.780531 1.475880 0.000000 0.000000 0.000000
1.461479 1.628179 1.462936 0.000000 0.000000 0.000000
1.359955 1.305951 1.329750 0.000000 0.000000 0.000000
1.408254 1.772644 1.426041 0.000000 0.000000 0.000000
1.411579 1.386793 1.407018 0.000000 0.000000 0.000000
1.415111 1.626555 1.371508 0.000000 0.000000 0.000000
1.431713 1.581292 1.370842 0.000000 0.000000 0.000000
1.401495 1.587418 1.308971 0.000000 0.000000 0.000000
1.444179 1.621076 1.410475 0.000000 0.000000 0.000000
1.405130 1.622393 1.338712 0.000000 0.000000 0.000000
1.398752 1.556549 1.286320 0.000000 0.000000 0.000000
1.426910 1.592609 1.361902 0.000000 0.000000 0.000000
1.428736 1.563064 1.346829 0.000000 0.000000 0.000000
1.353821 1.562990 1.202888 0.000000 0.000000 0.000000
1.357213 1.292027 1.305242 0.000000 0.000000 0.000000
1.439184 1.662052 1.414918 0.000000 0.000000 0.000000
1.402882 1.658542 1.360460 0.000000 0.000000 0.000000
1.412104 1.633734 1.356033 0.000000 0.000000 0.000000
1.352889 1.614255 1.258584 0.000000 0.000000 0.000000
1.353905 1.611423 1.258392 0.000000 0.000000 0.000000
1.356538 1.606724 1.259636 0.000000 0.000000 0.000000
1.360791 1.418214 1.111060 0.000000 0.000000 0.000000
1.422961 1.612350 1.356568 0.000000 0.000000 0.000000
1.440541 1.620658 1.407296 0.000000 0.000000 0.000000
1.435555 1.538123 1.357150 0.000000 0.000000 0.000000
1.430849 1.583779 1.362232 0.000000 0.000000 0.000000
1.355266 1.570112 1.213764 0.000000 0.000000 0.000000
1.368163 1.422485 1.112660 0.000000 0.000000 0.000000
1.405529 1.603541 1.319191 0.000000 0.000000 0.000000
1.362511 1.304192 1.318542 0.000000 0.000000 0.000000
1.397731 1.356098 1.377486 0.000000 0.000000 0.000000
1.362681 1.300202 1.305449 0.000000 0.000000 0.000000
1.423482 1.624999 1.366471 0.000000 0.000000 0.000000
1.432704 1.562802 1.363363 0.000000 0.000000 0.000000
1.364335 1.496909 1.135402 0.000000 0.000000 0.000000
1.317943 1.307187 1.155400 0.000000 0.000000 0.000000
1.426643 1.619097 1.384011 0.000000 0.000000 0.000000
1.392111 1.656500 1.346255 0.000000 0.000000 0.000000
1.418700 1.604399 1.353186 0.000000 0.000000 0.000000
1.398638 1.560662 1.298738 0.000000 0.000000 0.000000
1.441044 1.627301 1.428620 0.000000 0.000000 0.000000
1.435240 1.619420 1.393502 0.000000 0.000000 0.000000
1.421238 1.570432 1.341098 0.000000 0.000000 0.000000
1.358814 1.561776 1.209135 0.000000 0.000000 0.000000
1.406030 1.374109 1.394633 0.000000 0.000000 0.000000
1.386436 1.347412 1.329286 0.000000 0.000000 0.000000
1.401553 1.548858 1.304378 0.000000 0.000000 0.000000
1.390040 1.627392 1.321591 0.000000 0.000000 0.000000
1.404273 1.626797 1.337613 0.000000 0.000000 0.000000
1.357063 1.619810 1.271430 0.000000 0.000000 0.000000
1.356651 1.585269 1.232396 0.000000 0.000000 0.000000
1.355386 1.389311 1.114683 0.000000 0.000000 0.000000
1.443956 1.651301 1.430311 0.000000 0.000000 0.000000
1.429742 1.602764 1.367935 0.000000 0.000000 0.000000
1.434009 1.611202 1.375779 0.000000 0.000000 0.000000
1.367507 1.434751 1.122359 0.000000 0.000000 0.000000
1.404273 1.580725 1.307260 0.000000 0.000000 0.000000
1.343545 1.360903 1.118609 0.000000 0.000000 0.000000
1.345046 1.369269 1.116354 0.000000 0.000000 0.000000
1.418543 1.640231 1.377339 0.000000 0.000000 0.000000
1.416885 1.596911 1.342913 0.000000 0.000000 0.000000
1.365853 1.480529 1.125137 0.000000 0.000000 0.000000
1.410843 1.790648 1.457466 0.000000 0.000000 0.000000
1.396891 1.358620 1.385671 0.000000 0.000000 0.000000
1.420102 1.391946 1.396793 0.000000 0.000000 0.000000
1.407009 1.796502 1.451133 0.000000 0.000000 0.000000
1.351910 1.582300 1.247792 0.000000 0.000000 0.000000
1.441880 1.665435 1.477481 0.000000 0.000000 0.000000
1.417178 1.732591 1.483828 0.000000 0.000000 0.000000
1.450408 1.651040 1.475098 0.000000 0.000000 0.000000
1.401056 1.364067 1.384864 0.000000 0.000000 0.000000
1.342278 1.363991 1.116305 0.000000 0.000000 0.000000
1.392111 1.356066 1.379579 0.000000 0.000000 0.000000
1.366841 1.299151 1.328183 0.000000 0.000000 0.000000
1.375838 1.526996 1.191328 0.000000 0.000000 0.000000
1.385141 1.511518 1.236678 0.000000 0.000000 0.000000
1.357061 1.614956 1.268491 0.000000 0.000000 0.000000
1.437885 1.681421 1.474921 0.000000 0.000000 0.000000
1.357408 1.570746 1.221120 0.000000 0.000000 0.000000
1.364205 1.292444 1.306222 0.000000 0.000000 0.000000
1.357539 1.600116 1.248846 0.000000 0.000000 0.000000
1.411906 1.771056 1.427852 0.000000 0.000000 0.000000
1.361772 1.293032 1.318653 0.000000 0.000000 0.000000
1.376643 1.525940 1.202576 0.000000 0.000000 0.000000
1.354446 1.609779 1.257987 0.000000 0.000000 0.000000
1.397603 1.359701 1.390567 0.000000 0.000000 0.000000
1.394511 1.354506 1.385670 0.000000 0.000000 0.000000
1.343366 1.373998 1.119448 0.000000 0.000000 0.000000
1.388054 1.341253 1.380773 0.000000 0.000000 0.000000
1.349686 1.377516 1.120293 0.000000 0.000000 0.000000
1.343157 1.371392 1.120639 0.000000 0.000000 0.000000
1.387789 1.341679 1.379822 0.000000 0.000000 0.000000
1.389645 1.344807 1.381541 0.000000 0.000000 0.000000
1.414142 1.776850 1.432862 0.000000 0.000000 0.000000
1.363428 1.403058 1.149588 0.000000 0.000000 0.000000
1.348196 1.378460 1.134047 0.000000 0.000000 0.000000
1.341322 1.368556 1.122093 0.000000 0.000000 0.000000
1.341100 1.357653 1.124127 0.000000 0.000000 0.000000
1.350499 1.381188 1.141194 0.000000 0.000000 0.000000
1.366965 1.299340 1.327145 0.000000 0.000000 0.000000
1.343140 1.364872 1.120094 0.000000 0.000000 0.000000
1.380933 1.411721 1.237155 0.000000 0.000000 0.000000
1.394643 1.352396 1.380141 0.000000 0.000000 0.000000
1.397740 1.471983 1.283933 0.000000 0.000000 0.000000
1.397019 1.535411 1.292125 0.000000 0.000000 0.000000
1.351097 1.406423 1.110130 0.000000 0.000000 0.000000
