ply
format ascii 1.0
comment VCGLIB generated
obj_info Generated by SPFormer!
element vertex 419
property float x
property float y
property float z
property float nx
property float ny
property float nz
end_header
0.249162 1.060951 2.472224 0.000000 0.000000 0.000000
-0.084704 0.970686 3.116964 0.000000 0.000000 0.000000
-0.118535 0.992289 3.086901 0.000000 0.000000 0.000000
-0.103281 0.978631 3.086216 0.000000 0.000000 0.000000
-0.101392 0.985466 3.095141 0.000000 0.000000 0.000000
-0.081204 0.960547 3.111379 0.000000 0.000000 0.000000
-0.111201 0.980835 3.083401 0.000000 0.000000 0.000000
-0.094027 0.980210 3.102694 0.000000 0.000000 0.000000
0.261742 1.063210 2.479653 0.000000 0.000000 0.000000
0.334675 1.261505 2.137929 0.000000 0.000000 0.000000
0.355234 1.253481 2.158920 0.000000 0.000000 0.000000
-0.111764 0.986654 3.086471 0.000000 0.000000 0.000000
-0.092591 0.976046 3.095906 0.000000 0.000000 0.000000
0.302231 1.046093 2.483574 0.000000 0.000000 0.000000
0.333764 1.264570 2.143435 0.000000 0.000000 0.000000
0.302679 1.064390 2.492789 0.000000 0.000000 0.000000
-0.102982 0.989333 3.097196 0.000000 0.000000 0.000000
0.337472 1.264343 2.147478 0.000000 0.000000 0.000000
-0.111216 0.985240 3.084546 0.000000 0.000000 0.000000
0.257379 1.060132 2.473884 0.000000 0.000000 0.000000
0.333497 1.265146 2.134806 0.000000 0.000000 0.000000
0.337214 1.258512 2.141293 0.000000 0.000000 0.000000
0.339811 1.258538 2.143798 0.000000 0.000000 0.000000
0.338506 1.264055 2.139618 0.000000 0.000000 0.000000
0.344021 1.260977 2.146606 0.000000 0.000000 0.000000
0.251349 1.064789 2.480785 0.000000 0.000000 0.000000
-0.113445 0.973121 3.075425 0.000000 0.000000 0.000000
-0.104425 0.985812 3.093553 0.000000 0.000000 0.000000
0.343605 1.260233 2.144543 0.000000 0.000000 0.000000
-0.109359 0.978829 3.081207 0.000000 0.000000 0.000000
-0.109455 0.988319 3.088577 0.000000 0.000000 0.000000
0.305050 1.058459 2.487450 0.000000 0.000000 0.000000
-0.102102 0.985422 3.094357 0.000000 0.000000 0.000000
-0.092771 0.977641 3.103693 0.000000 0.000000 0.000000
-0.105461 0.982707 3.092396 0.000000 0.000000 0.000000
0.353051 1.247388 2.150699 0.000000 0.000000 0.000000
-0.106805 0.990676 3.090664 0.000000 0.000000 0.000000
-0.106659 0.980940 3.083405 0.000000 0.000000 0.000000
-0.090853 0.966605 3.097540 0.000000 0.000000 0.000000
0.358557 1.242878 2.157834 0.000000 0.000000 0.000000
0.310957 1.041228 2.509316 0.000000 0.000000 0.000000
0.302235 1.054739 2.510917 0.000000 0.000000 0.000000
-0.112242 0.979981 3.081120 0.000000 0.000000 0.000000
-0.102716 0.988340 3.097326 0.000000 0.000000 0.000000
-0.109818 0.981494 3.081274 0.000000 0.000000 0.000000
0.250431 1.063482 2.473879 0.000000 0.000000 0.000000
0.260680 1.063406 2.483398 0.000000 0.000000 0.000000
0.303070 1.048466 2.515575 0.000000 0.000000 0.000000
0.339873 1.265620 2.133172 0.000000 0.000000 0.000000
-0.098108 0.979397 3.094462 0.000000 0.000000 0.000000
0.315596 1.041687 2.502286 0.000000 0.000000 0.000000
-0.104211 0.985143 3.093297 0.000000 0.000000 0.000000
-0.100828 0.984110 3.094054 0.000000 0.000000 0.000000
0.344665 1.259287 2.147904 0.000000 0.000000 0.000000
-0.096049 0.975094 3.086169 0.000000 0.000000 0.000000
0.342764 1.262800 2.149340 0.000000 0.000000 0.000000
0.339762 1.266424 2.156663 0.000000 0.000000 0.000000
0.342710 1.260483 2.148346 0.000000 0.000000 0.000000
0.335561 1.264408 2.146113 0.000000 0.000000 0.000000
0.363742 1.241510 2.155847 0.000000 0.000000 0.000000
0.302936 1.062665 2.507189 0.000000 0.000000 0.000000
0.336701 1.260765 2.139610 0.000000 0.000000 0.000000
-0.111946 0.984832 3.085473 0.000000 0.000000 0.000000
0.283486 1.066764 2.493851 0.000000 0.000000 0.000000
-0.096817 0.979830 3.098286 0.000000 0.000000 0.000000
-0.107211 0.985213 3.089897 0.000000 0.000000 0.000000
-0.101423 0.980510 3.101039 0.000000 0.000000 0.000000
-0.110684 0.989286 3.088824 0.000000 0.000000 0.000000
0.336519 1.257517 2.143985 0.000000 0.000000 0.000000
-0.109618 0.980505 3.080254 0.000000 0.000000 0.000000
0.314367 1.060837 2.493262 0.000000 0.000000 0.000000
-0.091401 0.976106 3.097786 0.000000 0.000000 0.000000
-0.105237 0.977821 3.076868 0.000000 0.000000 0.000000
-0.111439 0.990986 3.088251 0.000000 0.000000 0.000000
-0.099042 0.984556 3.099259 0.000000 0.000000 0.000000
-0.096138 0.981808 3.101743 0.000000 0.000000 0.000000
0.296821 1.064418 2.488237 0.000000 0.000000 0.000000
0.312947 1.052893 2.488493 0.000000 0.000000 0.000000
0.262989 1.061989 2.484073 0.000000 0.000000 0.000000
0.261562 1.058282 2.477861 0.000000 0.000000 0.000000
0.264063 1.063114 2.486964 0.000000 0.000000 0.000000
0.277305 1.059706 2.481776 0.000000 0.000000 0.000000
0.340245 1.263723 2.148675 0.000000 0.000000 0.000000
-0.110917 0.982330 3.088424 0.000000 0.000000 0.000000
0.344172 1.259683 2.155137 0.000000 0.000000 0.000000
0.253695 1.064819 2.484798 0.000000 0.000000 0.000000
0.336543 1.265002 2.144112 0.000000 0.000000 0.000000
0.317549 1.063595 2.519570 0.000000 0.000000 0.000000
0.337416 1.265793 2.150312 0.000000 0.000000 0.000000
-0.112531 0.989936 3.084954 0.000000 0.000000 0.000000
0.299273 1.044469 2.493988 0.000000 0.000000 0.000000
0.306137 1.050446 2.495079 0.000000 0.000000 0.000000
-0.111201 0.987993 3.083742 0.000000 0.000000 0.000000
0.306541 1.068277 2.492636 0.000000 0.000000 0.000000
0.319618 1.047497 2.500513 0.000000 0.000000 0.000000
0.285709 1.055904 2.481985 0.000000 0.000000 0.000000
0.333975 1.263286 2.143876 0.000000 0.000000 0.000000
-0.110520 0.979690 3.077169 0.000000 0.000000 0.000000
-0.080880 0.972610 3.117868 0.000000 0.000000 0.000000
-0.105225 0.983682 3.087466 0.000000 0.000000 0.000000
-0.109337 0.988281 3.089318 0.000000 0.000000 0.000000
0.340313 1.255663 2.148093 0.000000 0.000000 0.000000
0.357015 1.249681 2.157955 0.000000 0.000000 0.000000
-0.102062 0.981791 3.092538 0.000000 0.000000 0.000000
0.340951 1.262808 2.142818 0.000000 0.000000 0.000000
0.341242 1.260346 2.148880 0.000000 0.000000 0.000000
0.292577 1.041277 2.507721 0.000000 0.000000 0.000000
0.349594 1.256800 2.153876 0.000000 0.000000 0.000000
-0.107187 0.979299 3.081824 0.000000 0.000000 0.000000
-0.103012 0.979228 3.090461 0.000000 0.000000 0.000000
-0.108712 0.980653 3.084566 0.000000 0.000000 0.000000
0.316760 1.058330 2.510681 0.000000 0.000000 0.000000
0.298329 1.050156 2.508953 0.000000 0.000000 0.000000
0.339148 1.255513 2.146571 0.000000 0.000000 0.000000
0.337197 1.259482 2.144588 0.000000 0.000000 0.000000
0.337534 1.266132 2.141702 0.000000 0.000000 0.000000
-0.103299 0.975976 3.095829 0.000000 0.000000 0.000000
0.342832 1.262342 2.153128 0.000000 0.000000 0.000000
-0.105750 0.986452 3.094383 0.000000 0.000000 0.000000
-0.092823 0.979946 3.096325 0.000000 0.000000 0.000000
0.336322 1.263971 2.138999 0.000000 0.000000 0.000000
0.345825 1.253658 2.150241 0.000000 0.000000 0.000000
0.349995 1.251691 2.154060 0.000000 0.000000 0.000000
0.347625 1.265022 2.156564 0.000000 0.000000 0.000000
0.343559 1.261456 2.143122 0.000000 0.000000 0.000000
0.334612 1.263068 2.139967 0.000000 0.000000 0.000000
0.336659 1.263253 2.148880 0.000000 0.000000 0.000000
0.338971 1.262343 2.158101 0.000000 0.000000 0.000000
-0.111331 0.988538 3.089926 0.000000 0.000000 0.000000
0.260535 1.056244 2.486058 0.000000 0.000000 0.000000
0.246605 1.065624 2.481178 0.000000 0.000000 0.000000
0.248072 1.063205 2.471616 0.000000 0.000000 0.000000
0.337262 1.261391 2.138822 0.000000 0.000000 0.000000
0.335290 1.270474 2.137948 0.000000 0.000000 0.000000
0.338577 1.255534 2.148403 0.000000 0.000000 0.000000
-0.104722 0.982610 3.089386 0.000000 0.000000 0.000000
0.256051 1.060891 2.475157 0.000000 0.000000 0.000000
0.261248 1.057240 2.480372 0.000000 0.000000 0.000000
0.304418 1.058704 2.501787 0.000000 0.000000 0.000000
0.262641 1.060100 2.475258 0.000000 0.000000 0.000000
0.334330 1.265853 2.142024 0.000000 0.000000 0.000000
0.338565 1.264818 2.138782 0.000000 0.000000 0.000000
0.293974 1.058594 2.492678 0.000000 0.000000 0.000000
0.259427 1.065404 2.489591 0.000000 0.000000 0.000000
0.244059 1.069648 2.477013 0.000000 0.000000 0.000000
0.298627 1.063218 2.488409 0.000000 0.000000 0.000000
0.248256 1.058027 2.470355 0.000000 0.000000 0.000000
0.319752 1.046588 2.485066 0.000000 0.000000 0.000000
0.257800 1.062428 2.474874 0.000000 0.000000 0.000000
0.249185 1.062954 2.477834 0.000000 0.000000 0.000000
0.253765 1.062554 2.476056 0.000000 0.000000 0.000000
0.351737 1.252877 2.154796 0.000000 0.000000 0.000000
0.341825 1.260440 2.154534 0.000000 0.000000 0.000000
0.334778 1.263833 2.142945 0.000000 0.000000 0.000000
0.346073 1.259111 2.144542 0.000000 0.000000 0.000000
-0.118577 0.990764 3.079976 0.000000 0.000000 0.000000
0.338625 1.256007 2.147599 0.000000 0.000000 0.000000
0.343561 1.261373 2.154991 0.000000 0.000000 0.000000
0.340771 1.260346 2.145679 0.000000 0.000000 0.000000
0.263836 1.061830 2.485803 0.000000 0.000000 0.000000
0.341654 1.259969 2.147360 0.000000 0.000000 0.000000
0.347374 1.261309 2.154309 0.000000 0.000000 0.000000
0.335952 1.252547 2.149222 0.000000 0.000000 0.000000
0.251742 1.063068 2.476309 0.000000 0.000000 0.000000
0.355048 1.248964 2.159067 0.000000 0.000000 0.000000
-0.108242 0.988976 3.091924 0.000000 0.000000 0.000000
0.340568 1.261137 2.149484 0.000000 0.000000 0.000000
0.344368 1.262645 2.153708 0.000000 0.000000 0.000000
-0.115621 0.995047 3.078851 0.000000 0.000000 0.000000
0.287998 1.061012 2.493972 0.000000 0.000000 0.000000
0.286382 1.060932 2.487930 0.000000 0.000000 0.000000
-0.108513 0.985524 3.091093 0.000000 0.000000 0.000000
0.269990 1.059912 2.479549 0.000000 0.000000 0.000000
0.300926 1.067103 2.482764 0.000000 0.000000 0.000000
0.347755 1.257798 2.149194 0.000000 0.000000 0.000000
0.253801 1.063730 2.481860 0.000000 0.000000 0.000000
0.347769 1.256944 2.153879 0.000000 0.000000 0.000000
0.309859 1.048161 2.482779 0.000000 0.000000 0.000000
0.353652 1.254935 2.151067 0.000000 0.000000 0.000000
0.340190 1.258669 2.146052 0.000000 0.000000 0.000000
0.298273 1.045820 2.506430 0.000000 0.000000 0.000000
0.337661 1.257299 2.147785 0.000000 0.000000 0.000000
0.339435 1.258411 2.146145 0.000000 0.000000 0.000000
0.343783 1.257583 2.144079 0.000000 0.000000 0.000000
0.308548 1.055286 2.512592 0.000000 0.000000 0.000000
0.307759 1.048681 2.512953 0.000000 0.000000 0.000000
0.315422 1.054288 2.516258 0.000000 0.000000 0.000000
0.307511 1.058463 2.495588 0.000000 0.000000 0.000000
0.297265 1.052594 2.496994 0.000000 0.000000 0.000000
0.337248 1.259954 2.151056 0.000000 0.000000 0.000000
0.336276 1.262823 2.148285 0.000000 0.000000 0.000000
0.282901 1.060787 2.481369 0.000000 0.000000 0.000000
0.355907 1.244553 2.151772 0.000000 0.000000 0.000000
0.351384 1.250388 2.154484 0.000000 0.000000 0.000000
-0.109158 0.988528 3.093045 0.000000 0.000000 0.000000
0.246493 1.060412 2.479888 0.000000 0.000000 0.000000
0.339437 1.263137 2.154364 0.000000 0.000000 0.000000
0.296787 1.058758 2.483896 0.000000 0.000000 0.000000
0.352921 1.250790 2.153352 0.000000 0.000000 0.000000
0.337390 1.257301 2.145607 0.000000 0.000000 0.000000
-0.109624 0.990564 3.090130 0.000000 0.000000 0.000000
-0.105864 0.987940 3.094574 0.000000 0.000000 0.000000
-0.108923 0.989072 3.083999 0.000000 0.000000 0.000000
0.336747 1.257908 2.147472 0.000000 0.000000 0.000000
0.272498 1.060792 2.478666 0.000000 0.000000 0.000000
0.329335 1.261910 2.139960 0.000000 0.000000 0.000000
0.335921 1.262438 2.137936 0.000000 0.000000 0.000000
0.335913 1.248193 2.149978 0.000000 0.000000 0.000000
-0.113519 0.980271 3.077724 0.000000 0.000000 0.000000
0.353261 1.255769 2.154431 0.000000 0.000000 0.000000
-0.090230 0.975974 3.102768 0.000000 0.000000 0.000000
-0.107709 0.997836 3.093248 0.000000 0.000000 0.000000
-0.093115 0.978949 3.100575 0.000000 0.000000 0.000000
0.252026 1.063327 2.472701 0.000000 0.000000 0.000000
-0.097139 0.981770 3.096586 0.000000 0.000000 0.000000
-0.104757 0.980343 3.092032 0.000000 0.000000 0.000000
0.249814 1.066358 2.475525 0.000000 0.000000 0.000000
0.247570 1.064094 2.472968 0.000000 0.000000 0.000000
0.250430 1.064364 2.471947 0.000000 0.000000 0.000000
0.256035 1.063247 2.474195 0.000000 0.000000 0.000000
0.251245 1.063147 2.477466 0.000000 0.000000 0.000000
0.246491 1.062235 2.471256 0.000000 0.000000 0.000000
0.257255 1.059898 2.480770 0.000000 0.000000 0.000000
0.253530 1.065396 2.477189 0.000000 0.000000 0.000000
0.242132 1.065958 2.473649 0.000000 0.000000 0.000000
0.251325 1.060606 2.469692 0.000000 0.000000 0.000000
0.256444 1.061173 2.479295 0.000000 0.000000 0.000000
0.331635 1.264134 2.140945 0.000000 0.000000 0.000000
0.336506 1.251169 2.146935 0.000000 0.000000 0.000000
-0.111382 0.978145 3.080037 0.000000 0.000000 0.000000
-0.104220 0.978103 3.090187 0.000000 0.000000 0.000000
-0.111135 0.978837 3.077577 0.000000 0.000000 0.000000
-0.110797 0.982234 3.084087 0.000000 0.000000 0.000000
-0.101780 0.975753 3.084580 0.000000 0.000000 0.000000
0.256420 1.064167 2.477791 0.000000 0.000000 0.000000
0.263805 1.061389 2.478902 0.000000 0.000000 0.000000
0.336363 1.264280 2.137270 0.000000 0.000000 0.000000
0.347319 1.251522 2.148428 0.000000 0.000000 0.000000
0.349112 1.258804 2.155614 0.000000 0.000000 0.000000
0.343667 1.257313 2.151748 0.000000 0.000000 0.000000
0.343958 1.257492 2.149910 0.000000 0.000000 0.000000
0.337981 1.256098 2.152236 0.000000 0.000000 0.000000
0.273337 1.059610 2.479386 0.000000 0.000000 0.000000
0.267539 1.067780 2.479173 0.000000 0.000000 0.000000
-0.083417 0.982027 3.119761 0.000000 0.000000 0.000000
-0.110842 0.977033 3.084085 0.000000 0.000000 0.000000
0.264991 1.065455 2.478253 0.000000 0.000000 0.000000
0.341486 1.254228 2.147967 0.000000 0.000000 0.000000
0.304700 1.060360 2.491871 0.000000 0.000000 0.000000
-0.103898 0.977749 3.083563 0.000000 0.000000 0.000000
-0.110399 0.974951 3.083176 0.000000 0.000000 0.000000
-0.108251 0.989806 3.084824 0.000000 0.000000 0.000000
0.337949 1.255516 2.146280 0.000000 0.000000 0.000000
-0.104862 0.972248 3.075055 0.000000 0.000000 0.000000
0.341240 1.257501 2.148177 0.000000 0.000000 0.000000
0.268112 1.062295 2.481242 0.000000 0.000000 0.000000
0.341009 1.256425 2.144669 0.000000 0.000000 0.000000
0.299293 1.046193 2.501161 0.000000 0.000000 0.000000
0.308595 1.048462 2.501704 0.000000 0.000000 0.000000
0.277638 1.058887 2.478679 0.000000 0.000000 0.000000
-0.103647 0.978659 3.084070 0.000000 0.000000 0.000000
0.335481 1.258397 2.146364 0.000000 0.000000 0.000000
0.249944 1.063169 2.472123 0.000000 0.000000 0.000000
-0.091043 0.978530 3.097245 0.000000 0.000000 0.000000
-0.096704 0.977637 3.091624 0.000000 0.000000 0.000000
-0.099676 0.979277 3.091874 0.000000 0.000000 0.000000
-0.108892 0.982398 3.087426 0.000000 0.000000 0.000000
0.297410 1.052532 2.487069 0.000000 0.000000 0.000000
-0.101284 0.986380 3.096765 0.000000 0.000000 0.000000
-0.094774 0.974602 3.101395 0.000000 0.000000 0.000000
-0.099041 0.978447 3.091944 0.000000 0.000000 0.000000
0.306928 1.051755 2.493315 0.000000 0.000000 0.000000
0.335984 1.255858 2.148033 0.000000 0.000000 0.000000
0.346442 1.257937 2.149983 0.000000 0.000000 0.000000
0.289358 1.053183 2.486935 0.000000 0.000000 0.000000
0.337554 1.263200 2.138674 0.000000 0.000000 0.000000
0.254720 1.064342 2.474605 0.000000 0.000000 0.000000
0.252124 1.062495 2.477707 0.000000 0.000000 0.000000
0.251064 1.063099 2.473319 0.000000 0.000000 0.000000
0.254417 1.064488 2.480360 0.000000 0.000000 0.000000
0.345651 1.250796 2.146794 0.000000 0.000000 0.000000
0.291657 1.056211 2.488490 0.000000 0.000000 0.000000
0.286368 1.058131 2.484720 0.000000 0.000000 0.000000
0.259188 1.051788 2.480495 0.000000 0.000000 0.000000
-0.112521 0.993127 3.093235 0.000000 0.000000 0.000000
-0.108985 0.986703 3.092421 0.000000 0.000000 0.000000
0.357451 1.245271 2.155412 0.000000 0.000000 0.000000
0.347440 1.263386 2.155536 0.000000 0.000000 0.000000
0.362520 1.244201 2.156164 0.000000 0.000000 0.000000
0.318405 1.043397 2.486121 0.000000 0.000000 0.000000
0.354795 1.252253 2.157643 0.000000 0.000000 0.000000
0.356792 1.247774 2.157672 0.000000 0.000000 0.000000
0.350456 1.246997 2.152738 0.000000 0.000000 0.000000
0.346946 1.256744 2.155798 0.000000 0.000000 0.000000
0.359702 1.244777 2.157852 0.000000 0.000000 0.000000
0.279056 1.058116 2.481950 0.000000 0.000000 0.000000
0.357859 1.246274 2.156874 0.000000 0.000000 0.000000
0.305175 1.047293 2.486559 0.000000 0.000000 0.000000
0.282354 1.058314 2.482946 0.000000 0.000000 0.000000
0.312777 1.041320 2.482656 0.000000 0.000000 0.000000
-0.101387 0.986295 3.102191 0.000000 0.000000 0.000000
-0.106974 0.976033 3.084308 0.000000 0.000000 0.000000
-0.106873 0.979571 3.085304 0.000000 0.000000 0.000000
-0.100777 0.977707 3.082870 0.000000 0.000000 0.000000
-0.100669 0.977701 3.086370 0.000000 0.000000 0.000000
0.260478 1.053788 2.481128 0.000000 0.000000 0.000000
-0.105935 0.981796 3.089326 0.000000 0.000000 0.000000
-0.106603 0.989939 3.095840 0.000000 0.000000 0.000000
-0.106277 0.978111 3.083761 0.000000 0.000000 0.000000
-0.094138 0.971411 3.085584 0.000000 0.000000 0.000000
-0.105660 0.980314 3.084784 0.000000 0.000000 0.000000
0.266331 1.062588 2.484117 0.000000 0.000000 0.000000
-0.098001 0.978193 3.087112 0.000000 0.000000 0.000000
-0.100844 0.979777 3.094194 0.000000 0.000000 0.000000
0.275374 1.061615 2.479842 0.000000 0.000000 0.000000
0.282849 1.058588 2.485770 0.000000 0.000000 0.000000
0.279997 1.068144 2.495621 0.000000 0.000000 0.000000
-0.098985 0.978178 3.090993 0.000000 0.000000 0.000000
0.256191 1.062469 2.476675 0.000000 0.000000 0.000000
-0.111411 0.977051 3.092238 0.000000 0.000000 0.000000
-0.100777 0.979638 3.085801 0.000000 0.000000 0.000000
0.259762 1.064457 2.473868 0.000000 0.000000 0.000000
0.279581 1.060489 2.478268 0.000000 0.000000 0.000000
0.266312 1.061803 2.471429 0.000000 0.000000 0.000000
0.343663 1.264073 2.143582 0.000000 0.000000 0.000000
0.336141 1.270892 2.143738 0.000000 0.000000 0.000000
0.292759 1.052917 2.483591 0.000000 0.000000 0.000000
0.297740 1.050478 2.491004 0.000000 0.000000 0.000000
-0.083722 0.964411 3.107537 0.000000 0.000000 0.000000
0.272870 1.059981 2.475187 0.000000 0.000000 0.000000
-0.086425 0.968323 3.108117 0.000000 0.000000 0.000000
0.260011 1.059955 2.473885 0.000000 0.000000 0.000000
0.278548 1.056593 2.482876 0.000000 0.000000 0.000000
0.303746 1.044029 2.483880 0.000000 0.000000 0.000000
0.306143 1.043750 2.489083 0.000000 0.000000 0.000000
0.270889 1.056588 2.468530 0.000000 0.000000 0.000000
0.261231 1.059452 2.472019 0.000000 0.000000 0.000000
0.335660 1.266476 2.132795 0.000000 0.000000 0.000000
0.257143 1.060972 2.485430 0.000000 0.000000 0.000000
0.243262 1.063482 2.470347 0.000000 0.000000 0.000000
-0.112029 0.987020 3.076453 0.000000 0.000000 0.000000
0.264344 1.059714 2.483203 0.000000 0.000000 0.000000
0.256190 1.064211 2.480460 0.000000 0.000000 0.000000
-0.112283 0.980199 3.079699 0.000000 0.000000 0.000000
-0.114529 0.991075 3.090068 0.000000 0.000000 0.000000
-0.110890 0.977791 3.080148 0.000000 0.000000 0.000000
-0.114078 0.994253 3.085162 0.000000 0.000000 0.000000
-0.103396 0.981768 3.085644 0.000000 0.000000 0.000000
0.301863 1.067156 2.489343 0.000000 0.000000 0.000000
-0.110642 0.988025 3.081956 0.000000 0.000000 0.000000
0.357453 1.246671 2.151914 0.000000 0.000000 0.000000
-0.098564 0.971725 3.085000 0.000000 0.000000 0.000000
-0.107116 0.977940 3.080234 0.000000 0.000000 0.000000
0.347587 1.251766 2.149969 0.000000 0.000000 0.000000
0.354660 1.247466 2.156665 0.000000 0.000000 0.000000
0.336542 1.263840 2.135077 0.000000 0.000000 0.000000
0.333743 1.254042 2.143601 0.000000 0.000000 0.000000
0.342637 1.250710 2.148489 0.000000 0.000000 0.000000
-0.112512 0.991764 3.083110 0.000000 0.000000 0.000000
0.255644 1.063988 2.480560 0.000000 0.000000 0.000000
-0.096638 0.977917 3.096098 0.000000 0.000000 0.000000
0.332136 1.263657 2.143058 0.000000 0.000000 0.000000
-0.106240 0.971843 3.080535 0.000000 0.000000 0.000000
-0.112970 0.990752 3.083862 0.000000 0.000000 0.000000
-0.110351 0.978203 3.084625 0.000000 0.000000 0.000000
0.346882 1.255932 2.149540 0.000000 0.000000 0.000000
0.357031 1.252681 2.158766 0.000000 0.000000 0.000000
0.350053 1.257458 2.156188 0.000000 0.000000 0.000000
0.345817 1.257246 2.146787 0.000000 0.000000 0.000000
-0.096080 0.975764 3.085155 0.000000 0.000000 0.000000
0.346446 1.260246 2.146883 0.000000 0.000000 0.000000
-0.111611 0.987216 3.082870 0.000000 0.000000 0.000000
0.345611 1.252605 2.148993 0.000000 0.000000 0.000000
-0.111289 0.976949 3.086290 0.000000 0.000000 0.000000
0.356460 1.248821 2.157965 0.000000 0.000000 0.000000
-0.113922 0.982082 3.086037 0.000000 0.000000 0.000000
0.356986 1.248672 2.156788 0.000000 0.000000 0.000000
0.337615 1.264402 2.147558 0.000000 0.000000 0.000000
0.347167 1.258752 2.155489 0.000000 0.000000 0.000000
0.335675 1.267386 2.142896 0.000000 0.000000 0.000000
0.243314 1.059115 2.469409 0.000000 0.000000 0.000000
0.258501 1.065392 2.482548 0.000000 0.000000 0.000000
0.335230 1.261634 2.137586 0.000000 0.000000 0.000000
0.268277 1.061861 2.484680 0.000000 0.000000 0.000000
0.275397 1.059675 2.485122 0.000000 0.000000 0.000000
0.310533 1.059420 2.500849 0.000000 0.000000 0.000000
0.299790 1.048566 2.511168 0.000000 0.000000 0.000000
0.298979 1.053504 2.503288 0.000000 0.000000 0.000000
0.349036 1.260537 2.156576 0.000000 0.000000 0.000000
0.332202 1.264302 2.144257 0.000000 0.000000 0.000000
0.345587 1.253633 2.149042 0.000000 0.000000 0.000000
0.247922 1.068443 2.476895 0.000000 0.000000 0.000000
0.252570 1.061059 2.472572 0.000000 0.000000 0.000000
0.344992 1.262834 2.151117 0.000000 0.000000 0.000000
0.344992 1.260359 2.146144 0.000000 0.000000 0.000000
0.267156 1.059724 2.475171 0.000000 0.000000 0.000000
0.278283 1.058126 2.479407 0.000000 0.000000 0.000000
0.334874 1.262354 2.144523 0.000000 0.000000 0.000000
-0.111822 0.988698 3.086028 0.000000 0.000000 0.000000
0.334065 1.266881 2.143069 0.000000 0.000000 0.000000
0.336057 1.260512 2.137970 0.000000 0.000000 0.000000
-0.113005 0.992788 3.084273 0.000000 0.000000 0.000000
0.335533 1.266332 2.145296 0.000000 0.000000 0.000000
0.333552 1.269305 2.139724 0.000000 0.000000 0.000000
0.333722 1.264516 2.144263 0.000000 0.000000 0.000000
0.336874 1.259197 2.142283 0.000000 0.000000 0.000000
0.337378 1.269642 2.132640 0.000000 0.000000 0.000000
0.339027 1.258410 2.142887 0.000000 0.000000 0.000000
0.338158 1.263434 2.150074 0.000000 0.000000 0.000000
0.338589 1.257732 2.145124 0.000000 0.000000 0.000000
0.334428 1.263792 2.138225 0.000000 0.000000 0.000000
0.248456 1.066247 2.475477 0.000000 0.000000 0.000000
0.340963 1.250311 2.146125 0.000000 0.000000 0.000000
0.333292 1.260842 2.140471 0.000000 0.000000 0.000000
0.337362 1.255976 2.146917 0.000000 0.000000 0.000000
0.306444 1.043072 2.481777 0.000000 0.000000 0.000000
0.339882 1.256952 2.139120 0.000000 0.000000 0.000000
0.305231 1.046121 2.482102 0.000000 0.000000 0.000000
0.305120 1.040457 2.484389 0.000000 0.000000 0.000000
