ply
format ascii 1.0
comment VCGLIB generated
obj_info Generated by SPFormer!
element vertex 654
property float x
property float y
property float z
property float nx
property float ny
property float nz
end_header
-0.084704 0.970686 3.116964 0.000000 0.000000 0.000000
-0.118535 0.992289 3.086901 0.000000 0.000000 0.000000
-0.103281 0.978631 3.086216 0.000000 0.000000 0.000000
-0.101392 0.985466 3.095141 0.000000 0.000000 0.000000
-0.081204 0.960547 3.111379 0.000000 0.000000 0.000000
-0.111201 0.980835 3.083401 0.000000 0.000000 0.000000
-0.094027 0.980210 3.102694 0.000000 0.000000 0.000000
-0.111764 0.986654 3.086471 0.000000 0.000000 0.000000
0.664430 1.086088 1.053198 0.000000 0.000000 0.000000
-0.092591 0.976046 3.095906 0.000000 0.000000 0.000000
-0.102982 0.989333 3.097196 0.000000 0.000000 0.000000
0.658634 1.093285 1.045136 0.000000 0.000000 0.000000
-0.111216 0.985240 3.084546 0.000000 0.000000 0.000000
-0.113445 0.973121 3.075425 0.000000 0.000000 0.000000
-0.104425 0.985812 3.093553 0.000000 0.000000 0.000000
-0.109359 0.978829 3.081207 0.000000 0.000000 0.000000
-0.109455 0.988319 3.088577 0.000000 0.000000 0.000000
-0.102102 0.985422 3.094357 0.000000 0.000000 0.000000
-0.092771 0.977641 3.103693 0.000000 0.000000 0.000000
-0.105461 0.982707 3.092396 0.000000 0.000000 0.000000
-0.106805 0.990676 3.090664 0.000000 0.000000 0.000000
-0.106659 0.980940 3.083405 0.000000 0.000000 0.000000
-0.090853 0.966605 3.097540 0.000000 0.000000 0.000000
-0.112242 0.979981 3.081120 0.000000 0.000000 0.000000
-0.102716 0.988340 3.097326 0.000000 0.000000 0.000000
-0.109818 0.981494 3.081274 0.000000 0.000000 0.000000
-0.098108 0.979397 3.094462 0.000000 0.000000 0.000000
-0.104211 0.985143 3.093297 0.000000 0.000000 0.000000
-0.100828 0.984110 3.094054 0.000000 0.000000 0.000000
-0.096049 0.975094 3.086169 0.000000 0.000000 0.000000
0.648644 1.091342 1.056177 0.000000 0.000000 0.000000
-0.111946 0.984832 3.085473 0.000000 0.000000 0.000000
-0.096817 0.979830 3.098286 0.000000 0.000000 0.000000
-0.107211 0.985213 3.089897 0.000000 0.000000 0.000000
-0.101423 0.980510 3.101039 0.000000 0.000000 0.000000
-0.110684 0.989286 3.088824 0.000000 0.000000 0.000000
-0.109618 0.980505 3.080254 0.000000 0.000000 0.000000
-0.091401 0.976106 3.097786 0.000000 0.000000 0.000000
-0.105237 0.977821 3.076868 0.000000 0.000000 0.000000
-0.111439 0.990986 3.088251 0.000000 0.000000 0.000000
-0.099042 0.984556 3.099259 0.000000 0.000000 0.000000
0.666213 1.088571 1.054277 0.000000 0.000000 0.000000
0.674217 1.088236 1.061324 0.000000 0.000000 0.000000
-0.096138 0.981808 3.101743 0.000000 0.000000 0.000000
0.662777 1.083758 1.042824 0.000000 0.000000 0.000000
0.666476 1.089033 1.059847 0.000000 0.000000 0.000000
0.654935 1.099522 1.055954 0.000000 0.000000 0.000000
0.679882 1.078193 1.051610 0.000000 0.000000 0.000000
-0.110917 0.982330 3.088424 0.000000 0.000000 0.000000
0.659626 1.098252 1.055784 0.000000 0.000000 0.000000
0.663099 1.092166 1.055005 0.000000 0.000000 0.000000
0.659767 1.091995 1.048673 0.000000 0.000000 0.000000
0.652582 1.098601 1.046120 0.000000 0.000000 0.000000
-0.112531 0.989936 3.084954 0.000000 0.000000 0.000000
0.666714 1.087624 1.051747 0.000000 0.000000 0.000000
-0.111201 0.987993 3.083742 0.000000 0.000000 0.000000
0.668956 1.086344 1.048308 0.000000 0.000000 0.000000
0.669159 1.089508 1.061905 0.000000 0.000000 0.000000
0.650214 1.100087 1.042244 0.000000 0.000000 0.000000
-0.110520 0.979690 3.077169 0.000000 0.000000 0.000000
0.650140 1.108724 1.045137 0.000000 0.000000 0.000000
0.642486 1.105383 1.046713 0.000000 0.000000 0.000000
0.648019 1.097722 1.060169 0.000000 0.000000 0.000000
-0.080880 0.972610 3.117868 0.000000 0.000000 0.000000
0.648238 1.103025 1.054258 0.000000 0.000000 0.000000
-0.105225 0.983682 3.087466 0.000000 0.000000 0.000000
-0.109337 0.988281 3.089318 0.000000 0.000000 0.000000
0.645909 1.106362 1.050281 0.000000 0.000000 0.000000
0.645165 1.110407 1.043685 0.000000 0.000000 0.000000
-0.102062 0.981791 3.092538 0.000000 0.000000 0.000000
0.644236 1.104927 1.043707 0.000000 0.000000 0.000000
0.654733 1.095393 1.045538 0.000000 0.000000 0.000000
0.653449 1.100042 1.053959 0.000000 0.000000 0.000000
-0.107187 0.979299 3.081824 0.000000 0.000000 0.000000
-0.103012 0.979228 3.090461 0.000000 0.000000 0.000000
-0.108712 0.980653 3.084566 0.000000 0.000000 0.000000
-0.103299 0.975976 3.095829 0.000000 0.000000 0.000000
-0.105750 0.986452 3.094383 0.000000 0.000000 0.000000
0.657655 1.102663 1.041864 0.000000 0.000000 0.000000
0.647721 1.109213 1.049533 0.000000 0.000000 0.000000
0.658468 1.092924 1.040729 0.000000 0.000000 0.000000
-0.092823 0.979946 3.096325 0.000000 0.000000 0.000000
0.676447 1.083634 1.050191 0.000000 0.000000 0.000000
-0.111331 0.988538 3.089926 0.000000 0.000000 0.000000
0.658147 1.095668 1.042984 0.000000 0.000000 0.000000
0.656970 1.094853 1.041072 0.000000 0.000000 0.000000
0.641004 1.115130 1.046394 0.000000 0.000000 0.000000
0.674321 1.074434 1.056901 0.000000 0.000000 0.000000
0.670213 1.082861 1.060729 0.000000 0.000000 0.000000
0.649594 1.091225 1.041881 0.000000 0.000000 0.000000
0.670606 1.086485 1.051252 0.000000 0.000000 0.000000
-0.104722 0.982610 3.089386 0.000000 0.000000 0.000000
0.668417 1.081123 1.057750 0.000000 0.000000 0.000000
0.654026 1.094244 1.042804 0.000000 0.000000 0.000000
0.668961 1.084664 1.042966 0.000000 0.000000 0.000000
0.687596 1.080701 1.046036 0.000000 0.000000 0.000000
0.659232 1.089925 1.043729 0.000000 0.000000 0.000000
-0.118577 0.990764 3.079976 0.000000 0.000000 0.000000
0.669770 1.085877 1.078895 0.000000 0.000000 0.000000
0.657996 1.092426 1.041447 0.000000 0.000000 0.000000
0.669526 1.086938 1.051962 0.000000 0.000000 0.000000
0.673946 1.084773 1.055031 0.000000 0.000000 0.000000
-0.108242 0.988976 3.091924 0.000000 0.000000 0.000000
-0.115621 0.995047 3.078851 0.000000 0.000000 0.000000
0.667414 1.091184 1.041514 0.000000 0.000000 0.000000
0.661839 1.092438 1.040208 0.000000 0.000000 0.000000
-0.108513 0.985524 3.091093 0.000000 0.000000 0.000000
0.640815 1.107129 1.049214 0.000000 0.000000 0.000000
0.671796 1.089865 1.060282 0.000000 0.000000 0.000000
0.653812 1.094492 1.043328 0.000000 0.000000 0.000000
0.649654 1.101389 1.051583 0.000000 0.000000 0.000000
0.661977 1.090640 1.042149 0.000000 0.000000 0.000000
0.679912 1.080845 1.050133 0.000000 0.000000 0.000000
0.681257 1.080496 1.053888 0.000000 0.000000 0.000000
0.698862 1.081225 1.063275 0.000000 0.000000 0.000000
0.650248 1.100143 1.046195 0.000000 0.000000 0.000000
0.675181 1.082989 1.046805 0.000000 0.000000 0.000000
0.674997 1.084797 1.049423 0.000000 0.000000 0.000000
0.664824 1.090385 1.043386 0.000000 0.000000 0.000000
0.665804 1.085492 1.045241 0.000000 0.000000 0.000000
-0.109158 0.988528 3.093045 0.000000 0.000000 0.000000
0.663850 1.094641 1.042448 0.000000 0.000000 0.000000
0.655285 1.110642 1.055066 0.000000 0.000000 0.000000
-0.109624 0.990564 3.090130 0.000000 0.000000 0.000000
0.649756 1.097641 1.046035 0.000000 0.000000 0.000000
0.642702 1.108006 1.048156 0.000000 0.000000 0.000000
0.666744 1.087605 1.045567 0.000000 0.000000 0.000000
0.645069 1.104911 1.053816 0.000000 0.000000 0.000000
0.670752 1.089287 1.069652 0.000000 0.000000 0.000000
0.645043 1.104813 1.043076 0.000000 0.000000 0.000000
-0.105864 0.987940 3.094574 0.000000 0.000000 0.000000
0.670129 1.072443 1.065588 0.000000 0.000000 0.000000
-0.108923 0.989072 3.083999 0.000000 0.000000 0.000000
0.661883 1.091563 1.042941 0.000000 0.000000 0.000000
0.656422 1.087783 1.040712 0.000000 0.000000 0.000000
0.658763 1.093426 1.043494 0.000000 0.000000 0.000000
0.679228 1.090623 1.068287 0.000000 0.000000 0.000000
-0.113519 0.980271 3.077724 0.000000 0.000000 0.000000
-0.090230 0.975974 3.102768 0.000000 0.000000 0.000000
-0.107709 0.997836 3.093248 0.000000 0.000000 0.000000
-0.093115 0.978949 3.100575 0.000000 0.000000 0.000000
-0.097139 0.981770 3.096586 0.000000 0.000000 0.000000
-0.104757 0.980343 3.092032 0.000000 0.000000 0.000000
0.689402 1.088206 1.079631 0.000000 0.000000 0.000000
-0.111382 0.978145 3.080037 0.000000 0.000000 0.000000
-0.104220 0.978103 3.090187 0.000000 0.000000 0.000000
-0.111135 0.978837 3.077577 0.000000 0.000000 0.000000
0.678250 1.079375 1.070127 0.000000 0.000000 0.000000
-0.110797 0.982234 3.084087 0.000000 0.000000 0.000000
-0.101780 0.975753 3.084580 0.000000 0.000000 0.000000
0.675319 1.086918 1.049541 0.000000 0.000000 0.000000
0.642056 1.109318 1.048851 0.000000 0.000000 0.000000
0.671957 1.086486 1.063896 0.000000 0.000000 0.000000
0.686259 1.082968 1.071250 0.000000 0.000000 0.000000
0.674909 1.089836 1.065158 0.000000 0.000000 0.000000
0.669713 1.090005 1.058894 0.000000 0.000000 0.000000
0.666861 1.090132 1.059708 0.000000 0.000000 0.000000
0.658796 1.092027 1.050174 0.000000 0.000000 0.000000
0.671597 1.093107 1.062946 0.000000 0.000000 0.000000
0.685222 1.082246 1.073018 0.000000 0.000000 0.000000
0.676496 1.082359 1.066500 0.000000 0.000000 0.000000
-0.083417 0.982027 3.119761 0.000000 0.000000 0.000000
-0.110842 0.977033 3.084085 0.000000 0.000000 0.000000
0.654743 1.093427 1.043705 0.000000 0.000000 0.000000
0.641228 1.106650 1.057003 0.000000 0.000000 0.000000
0.677291 1.088485 1.043143 0.000000 0.000000 0.000000
0.662298 1.091595 1.076882 0.000000 0.000000 0.000000
0.676811 1.087294 1.066544 0.000000 0.000000 0.000000
0.641621 1.107070 1.062099 0.000000 0.000000 0.000000
0.673960 1.088971 1.077078 0.000000 0.000000 0.000000
0.657793 1.103844 1.069003 0.000000 0.000000 0.000000
0.664976 1.078973 1.044442 0.000000 0.000000 0.000000
0.684692 1.086393 1.070832 0.000000 0.000000 0.000000
0.650785 1.106403 1.070642 0.000000 0.000000 0.000000
0.686206 1.095576 1.072718 0.000000 0.000000 0.000000
0.661706 1.095786 1.056902 0.000000 0.000000 0.000000
0.655053 1.086074 1.042072 0.000000 0.000000 0.000000
0.656955 1.101850 1.073765 0.000000 0.000000 0.000000
-0.103898 0.977749 3.083563 0.000000 0.000000 0.000000
-0.110399 0.974951 3.083176 0.000000 0.000000 0.000000
0.669155 1.091389 1.064250 0.000000 0.000000 0.000000
0.659040 1.089278 1.050658 0.000000 0.000000 0.000000
-0.108251 0.989806 3.084824 0.000000 0.000000 0.000000
-0.104862 0.972248 3.075055 0.000000 0.000000 0.000000
0.666112 1.093473 1.069117 0.000000 0.000000 0.000000
0.668489 1.089598 1.073002 0.000000 0.000000 0.000000
0.661462 1.094139 1.060049 0.000000 0.000000 0.000000
0.676683 1.081737 1.054848 0.000000 0.000000 0.000000
0.691110 1.083970 1.079114 0.000000 0.000000 0.000000
0.656372 1.091413 1.044909 0.000000 0.000000 0.000000
0.662498 1.094787 1.055260 0.000000 0.000000 0.000000
0.676335 1.084350 1.061158 0.000000 0.000000 0.000000
0.676058 1.095693 1.065148 0.000000 0.000000 0.000000
0.662187 1.090943 1.048295 0.000000 0.000000 0.000000
0.648522 1.112240 1.054376 0.000000 0.000000 0.000000
0.675855 1.091218 1.071664 0.000000 0.000000 0.000000
0.682439 1.080005 1.063510 0.000000 0.000000 0.000000
0.658545 1.084144 1.064955 0.000000 0.000000 0.000000
-0.103647 0.978659 3.084070 0.000000 0.000000 0.000000
0.646749 1.105378 1.051775 0.000000 0.000000 0.000000
-0.091043 0.978530 3.097245 0.000000 0.000000 0.000000
0.673794 1.090397 1.064432 0.000000 0.000000 0.000000
0.686382 1.093286 1.061872 0.000000 0.000000 0.000000
0.676614 1.086007 1.063910 0.000000 0.000000 0.000000
-0.096704 0.977637 3.091624 0.000000 0.000000 0.000000
0.646719 1.106901 1.062525 0.000000 0.000000 0.000000
-0.099676 0.979277 3.091874 0.000000 0.000000 0.000000
-0.108892 0.982398 3.087426 0.000000 0.000000 0.000000
-0.101284 0.986380 3.096765 0.000000 0.000000 0.000000
0.652944 1.083132 1.053460 0.000000 0.000000 0.000000
-0.094774 0.974602 3.101395 0.000000 0.000000 0.000000
-0.099041 0.978447 3.091944 0.000000 0.000000 0.000000
0.648771 1.085531 1.054702 0.000000 0.000000 0.000000
0.641909 1.090239 1.040122 0.000000 0.000000 0.000000
0.651295 1.106157 1.054756 0.000000 0.000000 0.000000
0.668161 1.078590 1.038490 0.000000 0.000000 0.000000
0.666457 1.091328 1.060775 0.000000 0.000000 0.000000
0.647751 1.090859 1.050989 0.000000 0.000000 0.000000
0.658070 1.083881 1.040007 0.000000 0.000000 0.000000
0.672114 1.092258 1.063376 0.000000 0.000000 0.000000
0.691502 1.080348 1.065304 0.000000 0.000000 0.000000
-0.112521 0.993127 3.093235 0.000000 0.000000 0.000000
0.650418 1.104586 1.055114 0.000000 0.000000 0.000000
0.657827 1.098920 1.071157 0.000000 0.000000 0.000000
0.660331 1.096787 1.075066 0.000000 0.000000 0.000000
0.655198 1.085413 1.044012 0.000000 0.000000 0.000000
0.671874 1.101771 1.069901 0.000000 0.000000 0.000000
0.650476 1.099139 1.048187 0.000000 0.000000 0.000000
-0.108985 0.986703 3.092421 0.000000 0.000000 0.000000
0.657821 1.089971 1.047343 0.000000 0.000000 0.000000
0.667316 1.095286 1.064204 0.000000 0.000000 0.000000
0.659228 1.097067 1.060538 0.000000 0.000000 0.000000
-0.101387 0.986295 3.102191 0.000000 0.000000 0.000000
-0.106974 0.976033 3.084308 0.000000 0.000000 0.000000
-0.106873 0.979571 3.085304 0.000000 0.000000 0.000000
-0.100777 0.977707 3.082870 0.000000 0.000000 0.000000
-0.100669 0.977701 3.086370 0.000000 0.000000 0.000000
-0.105935 0.981796 3.089326 0.000000 0.000000 0.000000
-0.106603 0.989939 3.095840 0.000000 0.000000 0.000000
-0.106277 0.978111 3.083761 0.000000 0.000000 0.000000
-0.094138 0.971411 3.085584 0.000000 0.000000 0.000000
-0.105660 0.980314 3.084784 0.000000 0.000000 0.000000
-0.098001 0.978193 3.087112 0.000000 0.000000 0.000000
-0.100844 0.979777 3.094194 0.000000 0.000000 0.000000
0.645056 1.107029 1.066609 0.000000 0.000000 0.000000
-0.098985 0.978178 3.090993 0.000000 0.000000 0.000000
-0.111411 0.977051 3.092238 0.000000 0.000000 0.000000
0.658455 1.088791 1.040055 0.000000 0.000000 0.000000
-0.100777 0.979638 3.085801 0.000000 0.000000 0.000000
0.668962 1.089686 1.061264 0.000000 0.000000 0.000000
0.658730 1.077106 1.046540 0.000000 0.000000 0.000000
0.671988 1.094533 1.067218 0.000000 0.000000 0.000000
0.684996 1.086874 1.074018 0.000000 0.000000 0.000000
0.675259 1.087611 1.060934 0.000000 0.000000 0.000000
0.648553 1.099006 1.040721 0.000000 0.000000 0.000000
0.675862 1.084481 1.071681 0.000000 0.000000 0.000000
0.642551 1.107720 1.046053 0.000000 0.000000 0.000000
0.647115 1.103087 1.054573 0.000000 0.000000 0.000000
0.653839 1.098785 1.050145 0.000000 0.000000 0.000000
-0.083722 0.964411 3.107537 0.000000 0.000000 0.000000
-0.086425 0.968323 3.108117 0.000000 0.000000 0.000000
0.642406 1.111702 1.045361 0.000000 0.000000 0.000000
0.664343 1.092926 1.066755 0.000000 0.000000 0.000000
-0.112029 0.987020 3.076453 0.000000 0.000000 0.000000
0.665725 1.079659 1.068460 0.000000 0.000000 0.000000
-0.112283 0.980199 3.079699 0.000000 0.000000 0.000000
-0.114529 0.991075 3.090068 0.000000 0.000000 0.000000
-0.110890 0.977791 3.080148 0.000000 0.000000 0.000000
-0.114078 0.994253 3.085162 0.000000 0.000000 0.000000
-0.103396 0.981768 3.085644 0.000000 0.000000 0.000000
0.649106 1.105078 1.054053 0.000000 0.000000 0.000000
0.675624 1.083462 1.048571 0.000000 0.000000 0.000000
0.671726 1.086721 1.045485 0.000000 0.000000 0.000000
0.682263 1.081501 1.047896 0.000000 0.000000 0.000000
-0.110642 0.988025 3.081956 0.000000 0.000000 0.000000
-0.098564 0.971725 3.085000 0.000000 0.000000 0.000000
-0.107116 0.977940 3.080234 0.000000 0.000000 0.000000
0.682224 1.091761 1.064117 0.000000 0.000000 0.000000
0.651843 1.096226 1.047437 0.000000 0.000000 0.000000
0.673486 1.114084 1.055347 0.000000 0.000000 0.000000
-0.112512 0.991764 3.083110 0.000000 0.000000 0.000000
0.673982 1.090410 1.045079 0.000000 0.000000 0.000000
0.642241 1.095871 1.047748 0.000000 0.000000 0.000000
0.667231 1.096516 1.060017 0.000000 0.000000 0.000000
0.687957 1.082667 1.076962 0.000000 0.000000 0.000000
0.691177 1.081120 1.075857 0.000000 0.000000 0.000000
0.678179 1.090460 1.069582 0.000000 0.000000 0.000000
-0.096638 0.977917 3.096098 0.000000 0.000000 0.000000
0.647623 1.101860 1.041326 0.000000 0.000000 0.000000
0.673545 1.078782 1.047494 0.000000 0.000000 0.000000
0.641778 1.107361 1.043448 0.000000 0.000000 0.000000
0.651822 1.081687 1.046228 0.000000 0.000000 0.000000
0.643563 1.109100 1.050614 0.000000 0.000000 0.000000
0.676850 1.076151 1.048469 0.000000 0.000000 0.000000
0.645310 1.104074 1.043083 0.000000 0.000000 0.000000
0.670624 1.077400 1.049042 0.000000 0.000000 0.000000
0.641497 1.108183 1.044339 0.000000 0.000000 0.000000
0.679904 1.077848 1.048373 0.000000 0.000000 0.000000
0.648114 1.103642 1.049125 0.000000 0.000000 0.000000
0.643855 1.104700 1.047853 0.000000 0.000000 0.000000
0.667574 1.087388 1.045406 0.000000 0.000000 0.000000
-0.106240 0.971843 3.080535 0.000000 0.000000 0.000000
-0.112970 0.990752 3.083862 0.000000 0.000000 0.000000
-0.110351 0.978203 3.084625 0.000000 0.000000 0.000000
0.661571 1.085143 1.044638 0.000000 0.000000 0.000000
0.675460 1.085920 1.082053 0.000000 0.000000 0.000000
0.649599 1.104744 1.054062 0.000000 0.000000 0.000000
0.688288 1.081761 1.043480 0.000000 0.000000 0.000000
-0.096080 0.975764 3.085155 0.000000 0.000000 0.000000
0.665924 1.094228 1.059621 0.000000 0.000000 0.000000
0.661529 1.094691 1.060099 0.000000 0.000000 0.000000
0.665735 1.092160 1.058349 0.000000 0.000000 0.000000
0.655699 1.092072 1.044670 0.000000 0.000000 0.000000
-0.111611 0.987216 3.082870 0.000000 0.000000 0.000000
0.647593 1.086299 1.044442 0.000000 0.000000 0.000000
0.655271 1.103988 1.065419 0.000000 0.000000 0.000000
0.676477 1.083903 1.067604 0.000000 0.000000 0.000000
0.675820 1.082435 1.075986 0.000000 0.000000 0.000000
-0.111289 0.976949 3.086290 0.000000 0.000000 0.000000
0.654574 1.097343 1.048549 0.000000 0.000000 0.000000
0.664792 1.091481 1.063905 0.000000 0.000000 0.000000
0.647489 1.104419 1.058499 0.000000 0.000000 0.000000
0.652810 1.104596 1.054758 0.000000 0.000000 0.000000
0.677560 1.092115 1.076910 0.000000 0.000000 0.000000
0.665092 1.091250 1.064117 0.000000 0.000000 0.000000
-0.113922 0.982082 3.086037 0.000000 0.000000 0.000000
0.667317 1.088660 1.059610 0.000000 0.000000 0.000000
0.645721 1.110242 1.048423 0.000000 0.000000 0.000000
0.652814 1.103629 1.053976 0.000000 0.000000 0.000000
0.666606 1.097561 1.076195 0.000000 0.000000 0.000000
0.642259 1.110844 1.040701 0.000000 0.000000 0.000000
0.672243 1.084263 1.044283 0.000000 0.000000 0.000000
0.660112 1.089514 1.043830 0.000000 0.000000 0.000000
0.663791 1.089639 1.041572 0.000000 0.000000 0.000000
0.669626 1.087012 1.045054 0.000000 0.000000 0.000000
0.660891 1.101873 1.058687 0.000000 0.000000 0.000000
0.654172 1.090295 1.042869 0.000000 0.000000 0.000000
0.677970 1.092175 1.067977 0.000000 0.000000 0.000000
0.658816 1.081837 1.041567 0.000000 0.000000 0.000000
0.679518 1.095602 1.083221 0.000000 0.000000 0.000000
0.693679 1.082088 1.079774 0.000000 0.000000 0.000000
0.661476 1.085105 1.045056 0.000000 0.000000 0.000000
0.664909 1.090873 1.061808 0.000000 0.000000 0.000000
0.664718 1.079854 1.050705 0.000000 0.000000 0.000000
0.687535 1.086273 1.072131 0.000000 0.000000 0.000000
0.661543 1.084676 1.050312 0.000000 0.000000 0.000000
0.678514 1.078072 1.065584 0.000000 0.000000 0.000000
0.667487 1.096698 1.063214 0.000000 0.000000 0.000000
0.672482 1.100784 1.067833 0.000000 0.000000 0.000000
0.660001 1.085036 1.049575 0.000000 0.000000 0.000000
0.657666 1.087092 1.043531 0.000000 0.000000 0.000000
0.689033 1.081912 1.071110 0.000000 0.000000 0.000000
0.698175 1.080053 1.073702 0.000000 0.000000 0.000000
0.679121 1.087243 1.072366 0.000000 0.000000 0.000000
0.667071 1.098791 1.062086 0.000000 0.000000 0.000000
0.667554 1.100008 1.070195 0.000000 0.000000 0.000000
0.672431 1.092217 1.064693 0.000000 0.000000 0.000000
0.682773 1.085130 1.068093 0.000000 0.000000 0.000000
0.671195 1.091428 1.062626 0.000000 0.000000 0.000000
0.673845 1.089771 1.065672 0.000000 0.000000 0.000000
0.672082 1.092097 1.071464 0.000000 0.000000 0.000000
0.673473 1.091037 1.065359 0.000000 0.000000 0.000000
0.645645 1.105259 1.064855 0.000000 0.000000 0.000000
0.665153 1.097570 1.061551 0.000000 0.000000 0.000000
0.661340 1.094469 1.061824 0.000000 0.000000 0.000000
0.660036 1.098586 1.057245 0.000000 0.000000 0.000000
0.666926 1.092880 1.065351 0.000000 0.000000 0.000000
0.673963 1.094290 1.067603 0.000000 0.000000 0.000000
0.652069 1.097246 1.069468 0.000000 0.000000 0.000000
0.648079 1.104562 1.068932 0.000000 0.000000 0.000000
-0.111822 0.988698 3.086028 0.000000 0.000000 0.000000
-0.113005 0.992788 3.084273 0.000000 0.000000 0.000000
0.683875 1.080040 1.048576 0.000000 0.000000 0.000000
0.672342 1.072545 1.044238 0.000000 0.000000 0.000000
0.679444 1.070703 1.063807 0.000000 0.000000 0.000000
0.677345 1.071395 1.053176 0.000000 0.000000 0.000000
0.676229 1.067904 1.044984 0.000000 0.000000 0.000000
0.678775 1.067671 1.052105 0.000000 0.000000 0.000000
0.674378 1.076758 1.052184 0.000000 0.000000 0.000000
0.675338 1.069698 1.049603 0.000000 0.000000 0.000000
-0.208984 1.203131 3.693789 0.000000 0.000000 0.000000
-0.157476 1.199874 3.705560 0.000000 0.000000 0.000000
-0.239822 1.216779 3.666780 0.000000 0.000000 0.000000
-0.214438 1.237951 3.684619 0.000000 0.000000 0.000000
-0.233239 1.237051 3.682821 0.000000 0.000000 0.000000
-0.214513 1.238448 3.688144 0.000000 0.000000 0.000000
-0.130434 1.193961 3.689431 0.000000 0.000000 0.000000
-0.178712 1.196070 3.672557 0.000000 0.000000 0.000000
-0.201381 1.199771 3.688868 0.000000 0.000000 0.000000
-0.231109 1.223025 3.692177 0.000000 0.000000 0.000000
-0.219479 1.216094 3.693306 0.000000 0.000000 0.000000
-0.187740 1.214704 3.676676 0.000000 0.000000 0.000000
-0.221073 1.200602 3.665722 0.000000 0.000000 0.000000
-0.189050 1.187047 3.676955 0.000000 0.000000 0.000000
-0.184747 1.205571 3.704897 0.000000 0.000000 0.000000
-0.198345 1.192338 3.695054 0.000000 0.000000 0.000000
-0.221545 1.211804 3.688799 0.000000 0.000000 0.000000
-0.201996 1.217721 3.703465 0.000000 0.000000 0.000000
-0.241685 1.222576 3.668674 0.000000 0.000000 0.000000
-0.141267 1.195141 3.685179 0.000000 0.000000 0.000000
-0.171167 1.209188 3.688665 0.000000 0.000000 0.000000
-0.208968 1.186855 3.689522 0.000000 0.000000 0.000000
-0.215786 1.228496 3.677620 0.000000 0.000000 0.000000
-0.195550 1.224281 3.702266 0.000000 0.000000 0.000000
-0.184000 1.202153 3.671399 0.000000 0.000000 0.000000
-0.184310 1.195611 3.692393 0.000000 0.000000 0.000000
-0.124101 1.162558 3.662917 0.000000 0.000000 0.000000
-0.217343 1.203728 3.670283 0.000000 0.000000 0.000000
-0.151144 1.183910 3.671639 0.000000 0.000000 0.000000
-0.216655 1.237478 3.675452 0.000000 0.000000 0.000000
-0.213370 1.217798 3.700748 0.000000 0.000000 0.000000
-0.215012 1.228246 3.679050 0.000000 0.000000 0.000000
-0.216385 1.189387 3.675693 0.000000 0.000000 0.000000
-0.224979 1.205679 3.673502 0.000000 0.000000 0.000000
-0.194975 1.188291 3.685347 0.000000 0.000000 0.000000
-0.146306 1.180339 3.667893 0.000000 0.000000 0.000000
-0.154844 1.188661 3.672516 0.000000 0.000000 0.000000
-0.221167 1.232412 3.688603 0.000000 0.000000 0.000000
-0.219811 1.216942 3.669202 0.000000 0.000000 0.000000
-0.200020 1.200523 3.700166 0.000000 0.000000 0.000000
-0.107453 1.163306 3.672517 0.000000 0.000000 0.000000
-0.164890 1.191014 3.702066 0.000000 0.000000 0.000000
-0.198359 1.200892 3.666296 0.000000 0.000000 0.000000
-0.157681 1.181838 3.667643 0.000000 0.000000 0.000000
-0.212910 1.197201 3.681005 0.000000 0.000000 0.000000
-0.194010 1.207392 3.669160 0.000000 0.000000 0.000000
-0.153043 1.176003 3.682042 0.000000 0.000000 0.000000
-0.229353 1.213481 3.681231 0.000000 0.000000 0.000000
-0.208930 1.194723 3.687064 0.000000 0.000000 0.000000
-0.219304 1.204132 3.684938 0.000000 0.000000 0.000000
-0.211769 1.203342 3.683238 0.000000 0.000000 0.000000
-0.137903 1.182216 3.672252 0.000000 0.000000 0.000000
-0.189323 1.189351 3.671186 0.000000 0.000000 0.000000
-0.245231 1.221710 3.671536 0.000000 0.000000 0.000000
-0.131340 1.185308 3.677457 0.000000 0.000000 0.000000
-0.207379 1.201267 3.669317 0.000000 0.000000 0.000000
-0.122486 1.177009 3.675593 0.000000 0.000000 0.000000
-0.248237 1.214648 3.671536 0.000000 0.000000 0.000000
-0.147478 1.168254 3.671680 0.000000 0.000000 0.000000
-0.165484 1.197384 3.679055 0.000000 0.000000 0.000000
-0.215454 1.202305 3.671194 0.000000 0.000000 0.000000
-0.144515 1.171783 3.667453 0.000000 0.000000 0.000000
-0.252233 1.219342 3.664227 0.000000 0.000000 0.000000
-0.175841 1.195382 3.688093 0.000000 0.000000 0.000000
-0.156138 1.182198 3.674797 0.000000 0.000000 0.000000
-0.201683 1.200366 3.681257 0.000000 0.000000 0.000000
-0.132941 1.155281 3.669983 0.000000 0.000000 0.000000
-0.157315 1.168366 3.685597 0.000000 0.000000 0.000000
-0.234410 1.218685 3.684101 0.000000 0.000000 0.000000
-0.155887 1.187871 3.673693 0.000000 0.000000 0.000000
-0.239108 1.213246 3.678441 0.000000 0.000000 0.000000
-0.221041 1.234421 3.682274 0.000000 0.000000 0.000000
-0.237606 1.218651 3.678916 0.000000 0.000000 0.000000
-0.243416 1.218165 3.671758 0.000000 0.000000 0.000000
-0.241674 1.226769 3.680421 0.000000 0.000000 0.000000
-0.130515 1.160556 3.692986 0.000000 0.000000 0.000000
-0.222391 1.208214 3.669078 0.000000 0.000000 0.000000
-0.233010 1.209405 3.676196 0.000000 0.000000 0.000000
-0.139069 1.164994 3.668094 0.000000 0.000000 0.000000
-0.163904 1.172119 3.686278 0.000000 0.000000 0.000000
-0.114952 1.170972 3.665989 0.000000 0.000000 0.000000
-0.245243 1.221574 3.667794 0.000000 0.000000 0.000000
-0.233402 1.213614 3.670544 0.000000 0.000000 0.000000
-0.241472 1.230820 3.681341 0.000000 0.000000 0.000000
-0.139390 1.186328 3.710706 0.000000 0.000000 0.000000
-0.209525 1.231341 3.698691 0.000000 0.000000 0.000000
-0.154101 1.179217 3.687842 0.000000 0.000000 0.000000
-0.246468 1.224443 3.678412 0.000000 0.000000 0.000000
-0.220718 1.234650 3.696752 0.000000 0.000000 0.000000
-0.154591 1.207507 3.700252 0.000000 0.000000 0.000000
-0.196098 1.234948 3.696920 0.000000 0.000000 0.000000
-0.183282 1.208062 3.703134 0.000000 0.000000 0.000000
-0.237960 1.232262 3.686050 0.000000 0.000000 0.000000
-0.139094 1.188202 3.703738 0.000000 0.000000 0.000000
-0.225612 1.214143 3.667668 0.000000 0.000000 0.000000
-0.233379 1.213434 3.665551 0.000000 0.000000 0.000000
-0.192252 1.198554 3.673476 0.000000 0.000000 0.000000
-0.123597 1.162620 3.683318 0.000000 0.000000 0.000000
-0.156811 1.176985 3.693810 0.000000 0.000000 0.000000
-0.148110 1.173822 3.694502 0.000000 0.000000 0.000000
-0.242945 1.229515 3.672807 0.000000 0.000000 0.000000
-0.240469 1.215576 3.668414 0.000000 0.000000 0.000000
-0.173051 1.216954 3.694947 0.000000 0.000000 0.000000
-0.224490 1.242247 3.688574 0.000000 0.000000 0.000000
-0.206647 1.193803 3.673850 0.000000 0.000000 0.000000
-0.247825 1.220963 3.668911 0.000000 0.000000 0.000000
-0.232447 1.230449 3.686196 0.000000 0.000000 0.000000
-0.245968 1.229298 3.676967 0.000000 0.000000 0.000000
-0.206111 1.208292 3.691092 0.000000 0.000000 0.000000
-0.180806 1.189235 3.696830 0.000000 0.000000 0.000000
-0.225344 1.207674 3.670129 0.000000 0.000000 0.000000
-0.234898 1.228202 3.683169 0.000000 0.000000 0.000000
-0.245117 1.225349 3.671531 0.000000 0.000000 0.000000
-0.169782 1.217520 3.701772 0.000000 0.000000 0.000000
-0.128064 1.159283 3.683611 0.000000 0.000000 0.000000
-0.242934 1.210842 3.663923 0.000000 0.000000 0.000000
-0.147055 1.182007 3.699970 0.000000 0.000000 0.000000
-0.130695 1.189889 3.697178 0.000000 0.000000 0.000000
-0.246057 1.218246 3.666065 0.000000 0.000000 0.000000
-0.127932 1.160586 3.687473 0.000000 0.000000 0.000000
-0.138620 1.175378 3.693826 0.000000 0.000000 0.000000
-0.122634 1.158138 3.685723 0.000000 0.000000 0.000000
-0.242369 1.221640 3.678407 0.000000 0.000000 0.000000
-0.178399 1.180047 3.677198 0.000000 0.000000 0.000000
-0.142414 1.165785 3.687010 0.000000 0.000000 0.000000
-0.251030 1.220313 3.673953 0.000000 0.000000 0.000000
-0.242899 1.214538 3.664658 0.000000 0.000000 0.000000
-0.128786 1.174132 3.702519 0.000000 0.000000 0.000000
-0.217218 1.202302 3.667197 0.000000 0.000000 0.000000
-0.245363 1.227654 3.677510 0.000000 0.000000 0.000000
-0.228588 1.210471 3.670176 0.000000 0.000000 0.000000
-0.199748 1.187610 3.675432 0.000000 0.000000 0.000000
-0.214380 1.223425 3.696762 0.000000 0.000000 0.000000
-0.216918 1.240106 3.692415 0.000000 0.000000 0.000000
-0.204628 1.200776 3.676473 0.000000 0.000000 0.000000
-0.210733 1.236382 3.695186 0.000000 0.000000 0.000000
-0.152027 1.194968 3.682258 0.000000 0.000000 0.000000
-0.151030 1.173351 3.670869 0.000000 0.000000 0.000000
-0.167859 1.181579 3.671367 0.000000 0.000000 0.000000
-0.241601 1.207467 3.672629 0.000000 0.000000 0.000000
-0.126536 1.179207 3.668055 0.000000 0.000000 0.000000
-0.144929 1.169382 3.666690 0.000000 0.000000 0.000000
-0.147176 1.170396 3.665016 0.000000 0.000000 0.000000
-0.238578 1.211597 3.669827 0.000000 0.000000 0.000000
-0.227334 1.197063 3.674777 0.000000 0.000000 0.000000
-0.124883 1.171165 3.698206 0.000000 0.000000 0.000000
-0.136316 1.169111 3.664899 0.000000 0.000000 0.000000
-0.134902 1.172628 3.666351 0.000000 0.000000 0.000000
-0.214489 1.200351 3.672196 0.000000 0.000000 0.000000
-0.215029 1.200521 3.666364 0.000000 0.000000 0.000000
-0.172322 1.184093 3.696721 0.000000 0.000000 0.000000
-0.133259 1.178771 3.664119 0.000000 0.000000 0.000000
-0.125409 1.152734 3.665653 0.000000 0.000000 0.000000
-0.227570 1.207445 3.666920 0.000000 0.000000 0.000000
-0.128882 1.153609 3.674466 0.000000 0.000000 0.000000
-0.143154 1.161515 3.677354 0.000000 0.000000 0.000000
-0.145261 1.162888 3.667161 0.000000 0.000000 0.000000
-0.231600 1.236997 3.688870 0.000000 0.000000 0.000000
-0.166405 1.178096 3.668200 0.000000 0.000000 0.000000
-0.144936 1.203954 3.698600 0.000000 0.000000 0.000000
-0.174947 1.177384 3.668638 0.000000 0.000000 0.000000
-0.166949 1.183824 3.667934 0.000000 0.000000 0.000000
-0.160567 1.182670 3.667369 0.000000 0.000000 0.000000
-0.136645 1.160335 3.663605 0.000000 0.000000 0.000000
-0.242213 1.215170 3.662992 0.000000 0.000000 0.000000
-0.242621 1.214990 3.667793 0.000000 0.000000 0.000000
-0.219894 1.204155 3.663652 0.000000 0.000000 0.000000
-0.189959 1.185383 3.670733 0.000000 0.000000 0.000000
-0.211669 1.202162 3.665887 0.000000 0.000000 0.000000
-0.204212 1.194279 3.668965 0.000000 0.000000 0.000000
-0.200309 1.190888 3.667398 0.000000 0.000000 0.000000
-0.167637 1.175544 3.681208 0.000000 0.000000 0.000000
-0.133378 1.185213 3.711667 0.000000 0.000000 0.000000
-0.158025 1.172996 3.672047 0.000000 0.000000 0.000000
-0.181407 1.179108 3.676881 0.000000 0.000000 0.000000
-0.131433 1.155909 3.665378 0.000000 0.000000 0.000000
-0.152274 1.173023 3.667506 0.000000 0.000000 0.000000
-0.137181 1.162726 3.668842 0.000000 0.000000 0.000000
-0.178018 1.190790 3.671240 0.000000 0.000000 0.000000
-0.150351 1.159990 3.664949 0.000000 0.000000 0.000000
-0.158770 1.161616 3.670935 0.000000 0.000000 0.000000
-0.158487 1.172551 3.668084 0.000000 0.000000 0.000000
-0.149954 1.171524 3.674444 0.000000 0.000000 0.000000
-0.128792 1.169282 3.675634 0.000000 0.000000 0.000000
-0.165383 1.171022 3.677464 0.000000 0.000000 0.000000
-0.119628 1.162305 3.669440 0.000000 0.000000 0.000000
-0.155634 1.173220 3.666704 0.000000 0.000000 0.000000
-0.126485 1.159088 3.675258 0.000000 0.000000 0.000000
-0.207348 1.232333 3.678169 0.000000 0.000000 0.000000
-0.179005 1.206364 3.679978 0.000000 0.000000 0.000000
-0.219294 1.222135 3.673881 0.000000 0.000000 0.000000
-0.244073 1.224545 3.675642 0.000000 0.000000 0.000000
-0.197044 1.223316 3.681031 0.000000 0.000000 0.000000
-0.151515 1.170181 3.680924 0.000000 0.000000 0.000000
-0.211219 1.225961 3.673613 0.000000 0.000000 0.000000
-0.182915 1.217226 3.686598 0.000000 0.000000 0.000000
-0.215873 1.221130 3.670588 0.000000 0.000000 0.000000
-0.219080 1.207647 3.665931 0.000000 0.000000 0.000000
-0.198140 1.231366 3.686382 0.000000 0.000000 0.000000
-0.158858 1.160612 3.678417 0.000000 0.000000 0.000000
-0.107662 1.174645 3.669888 0.000000 0.000000 0.000000
-0.122268 1.164715 3.696608 0.000000 0.000000 0.000000
-0.172215 1.182741 3.672758 0.000000 0.000000 0.000000
-0.166801 1.176053 3.670120 0.000000 0.000000 0.000000
-0.182504 1.226887 3.697847 0.000000 0.000000 0.000000
-0.220263 1.226830 3.672386 0.000000 0.000000 0.000000
-0.183528 1.229513 3.691491 0.000000 0.000000 0.000000
-0.184406 1.224257 3.689029 0.000000 0.000000 0.000000
-0.123324 1.201516 3.701050 0.000000 0.000000 0.000000
-0.129583 1.197179 3.702895 0.000000 0.000000 0.000000
-0.196285 1.196770 3.666032 0.000000 0.000000 0.000000
-0.141522 1.158756 3.662068 0.000000 0.000000 0.000000
-0.192897 1.198481 3.668434 0.000000 0.000000 0.000000
-0.160263 1.170817 3.667877 0.000000 0.000000 0.000000
-0.134153 1.150075 3.684939 0.000000 0.000000 0.000000
-0.151268 1.163524 3.695264 0.000000 0.000000 0.000000
-0.193551 1.226931 3.679488 0.000000 0.000000 0.000000
-0.223134 1.232675 3.681692 0.000000 0.000000 0.000000
-0.206874 1.238977 3.695419 0.000000 0.000000 0.000000
-0.197311 1.234688 3.691523 0.000000 0.000000 0.000000
-0.203149 1.201457 3.672378 0.000000 0.000000 0.000000
-0.181745 1.185350 3.667264 0.000000 0.000000 0.000000
-0.175182 1.183788 3.669925 0.000000 0.000000 0.000000
-0.206637 1.232961 3.684655 0.000000 0.000000 0.000000
-0.191252 1.188153 3.668347 0.000000 0.000000 0.000000
-0.120101 1.183444 3.677139 0.000000 0.000000 0.000000
-0.185759 1.187906 3.683323 0.000000 0.000000 0.000000
-0.194935 1.214350 3.673472 0.000000 0.000000 0.000000
-0.160149 1.205197 3.693469 0.000000 0.000000 0.000000
-0.236088 1.226068 3.672103 0.000000 0.000000 0.000000
-0.193540 1.197921 3.694845 0.000000 0.000000 0.000000
-0.222882 1.231122 3.677504 0.000000 0.000000 0.000000
-0.237175 1.232375 3.676286 0.000000 0.000000 0.000000
-0.234152 1.231974 3.676993 0.000000 0.000000 0.000000
-0.131617 1.198504 3.679648 0.000000 0.000000 0.000000
-0.180180 1.231730 3.699764 0.000000 0.000000 0.000000
-0.126461 1.194159 3.693099 0.000000 0.000000 0.000000
-0.211779 1.212296 3.668005 0.000000 0.000000 0.000000
-0.178233 1.214586 3.699935 0.000000 0.000000 0.000000
-0.229693 1.232109 3.675791 0.000000 0.000000 0.000000
-0.146785 1.199937 3.692277 0.000000 0.000000 0.000000
-0.222675 1.214405 3.672621 0.000000 0.000000 0.000000
-0.231068 1.223875 3.671649 0.000000 0.000000 0.000000
-0.134652 1.200460 3.701274 0.000000 0.000000 0.000000
-0.242450 1.231384 3.676992 0.000000 0.000000 0.000000
-0.234956 1.220020 3.671366 0.000000 0.000000 0.000000
-0.142812 1.194507 3.678892 0.000000 0.000000 0.000000
-0.173205 1.220980 3.702663 0.000000 0.000000 0.000000
-0.199234 1.201266 3.665974 0.000000 0.000000 0.000000
-0.150824 1.209002 3.703583 0.000000 0.000000 0.000000
-0.105405 1.171680 3.676465 0.000000 0.000000 0.000000
-0.139489 1.154167 3.662640 0.000000 0.000000 0.000000
-0.131897 1.152884 3.662135 0.000000 0.000000 0.000000
-0.124161 1.147640 3.659502 0.000000 0.000000 0.000000
-0.235156 1.219949 3.666565 0.000000 0.000000 0.000000
-0.218227 1.204204 3.667691 0.000000 0.000000 0.000000
-0.208071 1.203234 3.666391 0.000000 0.000000 0.000000
-0.223179 1.208394 3.660815 0.000000 0.000000 0.000000
-0.224767 1.211178 3.660812 0.000000 0.000000 0.000000
-0.218991 1.204757 3.666475 0.000000 0.000000 0.000000
-0.217249 1.221211 3.670920 0.000000 0.000000 0.000000
-0.213897 1.213589 3.698304 0.000000 0.000000 0.000000
-0.225266 1.231291 3.696855 0.000000 0.000000 0.000000
-0.222552 1.209949 3.694907 0.000000 0.000000 0.000000
-0.219774 1.223710 3.699608 0.000000 0.000000 0.000000
-0.149781 1.163549 3.667652 0.000000 0.000000 0.000000
-0.207745 1.187995 3.668715 0.000000 0.000000 0.000000
-0.233398 1.224238 3.676017 0.000000 0.000000 0.000000
-0.212814 1.198144 3.668649 0.000000 0.000000 0.000000
-0.239354 1.215761 3.665790 0.000000 0.000000 0.000000
-0.173095 1.179464 3.691087 0.000000 0.000000 0.000000
-0.181210 1.192805 3.701931 0.000000 0.000000 0.000000
-0.179865 1.181864 3.691192 0.000000 0.000000 0.000000
-0.190059 1.194782 3.698585 0.000000 0.000000 0.000000
