ply
format ascii 1.0
comment VCGLIB generated
obj_info Generated by SPFormer!
element vertex 884
property float x
property float y
property float z
property float nx
property float ny
property float nz
end_header
0.654696 0.872054 2.723290 0.000000 0.000000 0.000000
0.614201 1.008349 2.732323 0.000000 0.000000 0.000000
0.606220 1.070730 2.959062 0.000000 0.000000 0.000000
0.627927 1.030264 2.895593 0.000000 0.000000 0.000000
0.622177 1.033967 2.835397 0.000000 0.000000 0.000000
0.650107 0.927683 2.761037 0.000000 0.000000 0.000000
0.648742 0.973757 2.801679 0.000000 0.000000 0.000000
0.637386 1.007032 2.798989 0.000000 0.000000 0.000000
0.666112 0.885978 2.772873 0.000000 0.000000 0.000000
0.664846 0.837255 2.965978 0.000000 0.000000 0.000000
0.641621 0.892830 3.005853 0.000000 0.000000 0.000000
0.647399 0.978859 2.877073 0.000000 0.000000 0.000000
0.625632 1.018125 2.776213 0.000000 0.000000 0.000000
0.635819 0.939854 3.027941 0.000000 0.000000 0.000000
0.630941 0.939480 2.713366 0.000000 0.000000 0.000000
0.616313 1.052345 2.907305 0.000000 0.000000 0.000000
0.655522 0.932851 2.780103 0.000000 0.000000 0.000000
0.628141 0.963430 2.716355 0.000000 0.000000 0.000000
0.608322 1.070265 2.861100 0.000000 0.000000 0.000000
0.666618 0.864646 2.816648 0.000000 0.000000 0.000000
0.609137 1.068043 2.926781 0.000000 0.000000 0.000000
0.638433 1.004297 2.815201 0.000000 0.000000 0.000000
0.638609 1.005241 2.810162 0.000000 0.000000 0.000000
0.567757 1.078344 3.051092 0.000000 0.000000 0.000000
0.618466 1.051759 2.821684 0.000000 0.000000 0.000000
0.629290 0.966627 2.721935 0.000000 0.000000 0.000000
0.609677 1.068495 2.788033 0.000000 0.000000 0.000000
0.615846 1.053860 2.825448 0.000000 0.000000 0.000000
0.657861 0.897241 2.981331 0.000000 0.000000 0.000000
0.654128 0.971577 2.822928 0.000000 0.000000 0.000000
0.646770 0.964344 2.866091 0.000000 0.000000 0.000000
0.636641 1.011611 2.893657 0.000000 0.000000 0.000000
0.630764 1.022676 2.852442 0.000000 0.000000 0.000000
0.653890 0.908227 2.927125 0.000000 0.000000 0.000000
0.640134 0.998092 2.900927 0.000000 0.000000 0.000000
0.636948 0.960445 2.742624 0.000000 0.000000 0.000000
0.642526 0.971931 2.769758 0.000000 0.000000 0.000000
0.649318 0.946148 2.888954 0.000000 0.000000 0.000000
0.619818 1.036399 2.778261 0.000000 0.000000 0.000000
0.650210 0.878462 2.718017 0.000000 0.000000 0.000000
0.622828 0.978298 2.725080 0.000000 0.000000 0.000000
0.663263 0.874171 2.921282 0.000000 0.000000 0.000000
0.635166 1.008721 2.807409 0.000000 0.000000 0.000000
0.645039 0.951029 2.756119 0.000000 0.000000 0.000000
0.614397 1.038683 2.759624 0.000000 0.000000 0.000000
0.612724 1.060303 2.769384 0.000000 0.000000 0.000000
0.620900 0.964924 2.706327 0.000000 0.000000 0.000000
0.608433 1.062677 2.783382 0.000000 0.000000 0.000000
0.617510 1.050413 2.830687 0.000000 0.000000 0.000000
0.628107 0.932341 2.703760 0.000000 0.000000 0.000000
0.638935 0.909863 2.722349 0.000000 0.000000 0.000000
0.641749 0.917555 2.725985 0.000000 0.000000 0.000000
0.620805 1.033744 2.990145 0.000000 0.000000 0.000000
0.622536 0.959996 2.703200 0.000000 0.000000 0.000000
0.631549 0.921144 2.802616 0.000000 0.000000 0.000000
0.612964 1.036693 2.743494 0.000000 0.000000 0.000000
0.614416 1.056238 2.774081 0.000000 0.000000 0.000000
0.656075 0.949163 2.840512 0.000000 0.000000 0.000000
0.621641 1.013613 2.753517 0.000000 0.000000 0.000000
0.611245 1.044080 2.750088 0.000000 0.000000 0.000000
0.614778 1.040466 2.747161 0.000000 0.000000 0.000000
0.554975 1.090563 3.046777 0.000000 0.000000 0.000000
0.647416 0.963435 2.884405 0.000000 0.000000 0.000000
0.633767 1.022212 2.840072 0.000000 0.000000 0.000000
0.608557 1.055183 2.752554 0.000000 0.000000 0.000000
0.657179 0.923199 2.800175 0.000000 0.000000 0.000000
0.560385 1.104907 2.999021 0.000000 0.000000 0.000000
0.639851 0.947398 2.967072 0.000000 0.000000 0.000000
0.628224 0.954089 2.710413 0.000000 0.000000 0.000000
0.633646 0.894610 2.706438 0.000000 0.000000 0.000000
0.627897 1.027106 2.820038 0.000000 0.000000 0.000000
0.635759 0.910813 2.709959 0.000000 0.000000 0.000000
0.629068 0.924339 2.702549 0.000000 0.000000 0.000000
0.634653 0.952359 2.729234 0.000000 0.000000 0.000000
0.642702 0.896372 2.721687 0.000000 0.000000 0.000000
0.624098 1.026708 2.973355 0.000000 0.000000 0.000000
0.676056 0.818294 2.941100 0.000000 0.000000 0.000000
0.618698 0.966589 2.697365 0.000000 0.000000 0.000000
0.600055 1.095671 2.877629 0.000000 0.000000 0.000000
0.632985 0.890428 2.771613 0.000000 0.000000 0.000000
0.611472 1.051454 2.781121 0.000000 0.000000 0.000000
0.606579 1.079030 2.802035 0.000000 0.000000 0.000000
0.615379 1.034164 2.764533 0.000000 0.000000 0.000000
0.610053 1.050219 2.746927 0.000000 0.000000 0.000000
0.659186 0.896253 2.821591 0.000000 0.000000 0.000000
0.561901 1.078305 3.070118 0.000000 0.000000 0.000000
0.644687 0.979330 2.828248 0.000000 0.000000 0.000000
0.649501 0.967697 2.848068 0.000000 0.000000 0.000000
0.656436 0.936915 2.821694 0.000000 0.000000 0.000000
0.609327 1.072176 2.913962 0.000000 0.000000 0.000000
0.627959 0.932690 2.690042 0.000000 0.000000 0.000000
0.626743 0.956342 3.052689 0.000000 0.000000 0.000000
0.563607 1.116383 2.988521 0.000000 0.000000 0.000000
0.666166 0.852935 2.956215 0.000000 0.000000 0.000000
0.603625 1.085914 2.836165 0.000000 0.000000 0.000000
0.627478 1.022426 2.781681 0.000000 0.000000 0.000000
0.671690 0.815804 2.934778 0.000000 0.000000 0.000000
0.673892 0.825087 2.954677 0.000000 0.000000 0.000000
0.673344 0.828182 2.942734 0.000000 0.000000 0.000000
0.632027 1.020731 2.894894 0.000000 0.000000 0.000000
0.572889 1.118961 2.964856 0.000000 0.000000 0.000000
0.667776 0.831454 2.959798 0.000000 0.000000 0.000000
0.672983 0.824932 2.963924 0.000000 0.000000 0.000000
0.609242 1.064086 2.778366 0.000000 0.000000 0.000000
0.613708 1.051266 2.780752 0.000000 0.000000 0.000000
0.607572 1.068085 2.764967 0.000000 0.000000 0.000000
0.595221 1.067133 3.015478 0.000000 0.000000 0.000000
0.608620 1.072054 2.783000 0.000000 0.000000 0.000000
0.640312 0.920519 2.726327 0.000000 0.000000 0.000000
0.677792 0.791498 2.900255 0.000000 0.000000 0.000000
0.671022 0.851490 2.831759 0.000000 0.000000 0.000000
0.627564 1.035211 2.956882 0.000000 0.000000 0.000000
0.624720 1.022825 2.991313 0.000000 0.000000 0.000000
0.637101 0.982755 2.956794 0.000000 0.000000 0.000000
0.592036 1.080283 2.940266 0.000000 0.000000 0.000000
0.609397 1.075141 2.987174 0.000000 0.000000 0.000000
0.620782 1.019402 3.014098 0.000000 0.000000 0.000000
0.668857 0.833950 2.814855 0.000000 0.000000 0.000000
0.628642 1.035911 2.955601 0.000000 0.000000 0.000000
0.620434 1.018545 2.985625 0.000000 0.000000 0.000000
0.593437 1.101274 2.875674 0.000000 0.000000 0.000000
0.588114 1.106174 2.930299 0.000000 0.000000 0.000000
0.663893 0.851732 2.988627 0.000000 0.000000 0.000000
0.597746 1.095118 2.885447 0.000000 0.000000 0.000000
0.585984 1.105467 2.869586 0.000000 0.000000 0.000000
0.599992 1.087643 2.867480 0.000000 0.000000 0.000000
0.639462 0.928643 3.048435 0.000000 0.000000 0.000000
0.615907 0.979061 3.071379 0.000000 0.000000 0.000000
0.608114 1.070473 2.838466 0.000000 0.000000 0.000000
0.640460 0.929080 3.044007 0.000000 0.000000 0.000000
0.636568 0.969149 2.754544 0.000000 0.000000 0.000000
0.569378 1.127139 2.946689 0.000000 0.000000 0.000000
0.609084 1.073834 2.838120 0.000000 0.000000 0.000000
0.562177 1.107243 2.990644 0.000000 0.000000 0.000000
0.631884 0.936014 2.711107 0.000000 0.000000 0.000000
0.682041 0.801465 2.932880 0.000000 0.000000 0.000000
0.626500 0.960066 2.712151 0.000000 0.000000 0.000000
0.616359 0.951029 2.688788 0.000000 0.000000 0.000000
0.625433 0.934214 2.694457 0.000000 0.000000 0.000000
0.679628 0.812756 2.936249 0.000000 0.000000 0.000000
0.626821 0.943665 2.701579 0.000000 0.000000 0.000000
0.682516 0.797337 2.925260 0.000000 0.000000 0.000000
0.617632 1.005609 2.725849 0.000000 0.000000 0.000000
0.619192 0.965012 2.703087 0.000000 0.000000 0.000000
0.622285 0.957297 2.695024 0.000000 0.000000 0.000000
0.628858 0.956290 2.734104 0.000000 0.000000 0.000000
0.620238 0.961775 2.698390 0.000000 0.000000 0.000000
0.564501 1.113388 3.015097 0.000000 0.000000 0.000000
0.562707 1.101090 3.005842 0.000000 0.000000 0.000000
0.561595 1.109624 3.014140 0.000000 0.000000 0.000000
0.671600 0.825806 2.972272 0.000000 0.000000 0.000000
0.620745 0.983270 2.706949 0.000000 0.000000 0.000000
0.621647 0.989877 2.719809 0.000000 0.000000 0.000000
0.566979 1.092258 3.004234 0.000000 0.000000 0.000000
0.558114 1.100311 3.026834 0.000000 0.000000 0.000000
0.566750 1.108100 3.002976 0.000000 0.000000 0.000000
0.564911 1.103358 3.019498 0.000000 0.000000 0.000000
0.620864 0.996956 2.718923 0.000000 0.000000 0.000000
0.620197 1.001674 2.735254 0.000000 0.000000 0.000000
0.610059 1.052953 2.746002 0.000000 0.000000 0.000000
0.675580 0.808973 2.937788 0.000000 0.000000 0.000000
0.676020 0.771552 2.853416 0.000000 0.000000 0.000000
0.668361 0.789187 2.774980 0.000000 0.000000 0.000000
0.677241 0.775507 2.867436 0.000000 0.000000 0.000000
0.612720 1.038345 2.731243 0.000000 0.000000 0.000000
0.677859 0.814880 2.899578 0.000000 0.000000 0.000000
0.682731 0.772994 2.854788 0.000000 0.000000 0.000000
0.677947 0.774811 2.858279 0.000000 0.000000 0.000000
0.554814 1.087164 3.066063 0.000000 0.000000 0.000000
0.674604 0.832590 2.929828 0.000000 0.000000 0.000000
0.671296 0.829483 2.902503 0.000000 0.000000 0.000000
0.676391 0.795232 2.907465 0.000000 0.000000 0.000000
0.669531 0.829228 2.899568 0.000000 0.000000 0.000000
0.675921 0.813608 2.928853 0.000000 0.000000 0.000000
0.680080 0.814149 2.919320 0.000000 0.000000 0.000000
0.680642 0.804127 2.925659 0.000000 0.000000 0.000000
0.674346 0.800238 2.876129 0.000000 0.000000 0.000000
0.675980 0.799389 2.926809 0.000000 0.000000 0.000000
0.679025 0.769458 2.849418 0.000000 0.000000 0.000000
0.670556 0.790301 2.798667 0.000000 0.000000 0.000000
0.610821 1.074691 2.800244 0.000000 0.000000 0.000000
0.610178 1.083644 2.808987 0.000000 0.000000 0.000000
0.677548 0.781834 2.843296 0.000000 0.000000 0.000000
0.570289 1.061434 3.083939 0.000000 0.000000 0.000000
0.658194 0.904069 2.927094 0.000000 0.000000 0.000000
0.623084 0.964352 3.073571 0.000000 0.000000 0.000000
0.613585 1.063532 2.798407 0.000000 0.000000 0.000000
0.554009 1.099541 3.047308 0.000000 0.000000 0.000000
0.577955 1.049556 3.081259 0.000000 0.000000 0.000000
0.624594 0.961725 3.062187 0.000000 0.000000 0.000000
0.677616 0.819011 2.925121 0.000000 0.000000 0.000000
0.681153 0.774599 2.866066 0.000000 0.000000 0.000000
0.679265 0.777021 2.858740 0.000000 0.000000 0.000000
0.675433 0.825398 2.946827 0.000000 0.000000 0.000000
0.677792 0.823049 2.917779 0.000000 0.000000 0.000000
0.679266 0.793415 2.896652 0.000000 0.000000 0.000000
0.679843 0.798693 2.910798 0.000000 0.000000 0.000000
0.673903 0.827251 2.907668 0.000000 0.000000 0.000000
0.675431 0.805518 2.933719 0.000000 0.000000 0.000000
0.674541 0.796494 2.892617 0.000000 0.000000 0.000000
0.675623 0.795699 2.918444 0.000000 0.000000 0.000000
0.680052 0.789214 2.880090 0.000000 0.000000 0.000000
0.677086 0.805885 2.928659 0.000000 0.000000 0.000000
0.676635 0.768646 2.843044 0.000000 0.000000 0.000000
0.611420 1.071268 2.786613 0.000000 0.000000 0.000000
0.676266 0.789961 2.870504 0.000000 0.000000 0.000000
0.675832 0.771754 2.828132 0.000000 0.000000 0.000000
0.608658 1.076536 2.796041 0.000000 0.000000 0.000000
0.609561 1.079885 2.804305 0.000000 0.000000 0.000000
0.677001 0.774238 2.827749 0.000000 0.000000 0.000000
0.669615 0.849040 2.901647 0.000000 0.000000 0.000000
0.589804 1.035906 3.075051 0.000000 0.000000 0.000000
0.611722 1.068666 2.801364 0.000000 0.000000 0.000000
0.548666 1.093795 3.066999 0.000000 0.000000 0.000000
0.573587 1.061019 3.075149 0.000000 0.000000 0.000000
0.608810 1.078249 2.809893 0.000000 0.000000 0.000000
0.628311 1.024883 2.849928 0.000000 0.000000 0.000000
0.619777 1.047722 2.830451 0.000000 0.000000 0.000000
0.617215 1.002256 2.721295 0.000000 0.000000 0.000000
0.610550 1.074276 2.789815 0.000000 0.000000 0.000000
0.658390 0.865960 2.991300 0.000000 0.000000 0.000000
0.624033 1.038442 2.843925 0.000000 0.000000 0.000000
0.632670 0.958036 2.738737 0.000000 0.000000 0.000000
0.653264 0.841411 2.737655 0.000000 0.000000 0.000000
0.612440 1.048111 2.801751 0.000000 0.000000 0.000000
0.624365 1.000498 2.741561 0.000000 0.000000 0.000000
0.610773 1.073816 2.806478 0.000000 0.000000 0.000000
0.615802 1.050943 2.812882 0.000000 0.000000 0.000000
0.609437 1.037098 2.736230 0.000000 0.000000 0.000000
0.614827 1.016545 2.732262 0.000000 0.000000 0.000000
0.616020 0.997174 2.711326 0.000000 0.000000 0.000000
0.609010 1.034668 2.731486 0.000000 0.000000 0.000000
0.623608 0.968897 2.715748 0.000000 0.000000 0.000000
0.622326 0.976191 2.707774 0.000000 0.000000 0.000000
0.559103 1.081929 3.069736 0.000000 0.000000 0.000000
0.626748 1.051126 2.964762 0.000000 0.000000 0.000000
0.633622 0.951764 2.723307 0.000000 0.000000 0.000000
0.620956 0.981084 2.712920 0.000000 0.000000 0.000000
0.556040 1.087234 3.063127 0.000000 0.000000 0.000000
0.612356 1.002261 2.710171 0.000000 0.000000 0.000000
0.562075 1.071476 3.080359 0.000000 0.000000 0.000000
0.597633 1.104204 2.881316 0.000000 0.000000 0.000000
0.609537 1.055762 2.751629 0.000000 0.000000 0.000000
0.599873 1.096996 2.855854 0.000000 0.000000 0.000000
0.620097 0.978257 2.696200 0.000000 0.000000 0.000000
0.648625 0.872234 2.708133 0.000000 0.000000 0.000000
0.600395 1.099065 2.848435 0.000000 0.000000 0.000000
0.617721 0.981356 2.692490 0.000000 0.000000 0.000000
0.620154 0.979296 2.703994 0.000000 0.000000 0.000000
0.650282 0.825279 2.732866 0.000000 0.000000 0.000000
0.611687 1.027743 2.740449 0.000000 0.000000 0.000000
0.622910 1.011970 2.752778 0.000000 0.000000 0.000000
0.556689 1.108215 3.014917 0.000000 0.000000 0.000000
0.575862 1.059956 3.065487 0.000000 0.000000 0.000000
0.632433 0.949349 3.053541 0.000000 0.000000 0.000000
0.651420 0.865587 2.739677 0.000000 0.000000 0.000000
0.561479 1.081678 3.063780 0.000000 0.000000 0.000000
0.665132 0.800543 2.766971 0.000000 0.000000 0.000000
0.671542 0.784320 2.791903 0.000000 0.000000 0.000000
0.560058 1.114547 3.009519 0.000000 0.000000 0.000000
0.566370 1.072226 3.069071 0.000000 0.000000 0.000000
0.566407 1.070616 3.070113 0.000000 0.000000 0.000000
0.592339 1.028711 3.084356 0.000000 0.000000 0.000000
0.648589 0.859662 2.715778 0.000000 0.000000 0.000000
0.611924 1.035673 2.736209 0.000000 0.000000 0.000000
0.613041 1.022860 2.730019 0.000000 0.000000 0.000000
0.616875 1.019221 2.739088 0.000000 0.000000 0.000000
0.627637 1.000619 2.747609 0.000000 0.000000 0.000000
0.614770 1.036097 2.739614 0.000000 0.000000 0.000000
0.615085 1.043859 2.762307 0.000000 0.000000 0.000000
0.613556 1.039059 2.737755 0.000000 0.000000 0.000000
0.611326 1.021367 2.735229 0.000000 0.000000 0.000000
0.619644 1.024312 2.749263 0.000000 0.000000 0.000000
0.625061 1.000887 2.746815 0.000000 0.000000 0.000000
0.611893 1.046001 2.740035 0.000000 0.000000 0.000000
0.612449 1.040330 2.746032 0.000000 0.000000 0.000000
0.616120 1.021869 2.731717 0.000000 0.000000 0.000000
0.608129 1.066124 2.772748 0.000000 0.000000 0.000000
0.610449 1.048368 2.765594 0.000000 0.000000 0.000000
0.621128 0.944471 2.689409 0.000000 0.000000 0.000000
0.557520 1.116473 3.019883 0.000000 0.000000 0.000000
0.610709 1.064371 2.767097 0.000000 0.000000 0.000000
0.617270 0.963636 2.692375 0.000000 0.000000 0.000000
0.554876 1.088080 3.082461 0.000000 0.000000 0.000000
0.681654 0.809199 2.933745 0.000000 0.000000 0.000000
0.678420 0.772233 2.860664 0.000000 0.000000 0.000000
0.674653 0.801884 2.920473 0.000000 0.000000 0.000000
0.613005 1.026570 2.736407 0.000000 0.000000 0.000000
0.650472 0.899380 3.018221 0.000000 0.000000 0.000000
0.682420 0.777335 2.878682 0.000000 0.000000 0.000000
0.680305 0.782722 2.881959 0.000000 0.000000 0.000000
0.677536 0.780567 2.878850 0.000000 0.000000 0.000000
0.585479 1.039200 3.081547 0.000000 0.000000 0.000000
0.591880 1.095372 2.902964 0.000000 0.000000 0.000000
0.582280 1.115216 2.929112 0.000000 0.000000 0.000000
0.590193 1.108487 2.897996 0.000000 0.000000 0.000000
0.680433 0.812121 2.923909 0.000000 0.000000 0.000000
0.682925 0.782252 2.873927 0.000000 0.000000 0.000000
0.679357 0.783999 2.862366 0.000000 0.000000 0.000000
0.676626 0.782146 2.842024 0.000000 0.000000 0.000000
0.678945 0.780061 2.888513 0.000000 0.000000 0.000000
0.646289 0.914323 3.039120 0.000000 0.000000 0.000000
0.595305 1.090336 2.905287 0.000000 0.000000 0.000000
0.674132 0.787057 2.885494 0.000000 0.000000 0.000000
0.602783 1.007514 3.087044 0.000000 0.000000 0.000000
0.620526 0.968067 3.070833 0.000000 0.000000 0.000000
0.596458 1.083434 2.926708 0.000000 0.000000 0.000000
0.677953 0.803897 2.938421 0.000000 0.000000 0.000000
0.678704 0.781470 2.852613 0.000000 0.000000 0.000000
0.681812 0.778786 2.866574 0.000000 0.000000 0.000000
0.680041 0.786175 2.873679 0.000000 0.000000 0.000000
0.599427 1.088891 2.854413 0.000000 0.000000 0.000000
0.600626 1.087067 2.855736 0.000000 0.000000 0.000000
0.600548 1.088224 2.884390 0.000000 0.000000 0.000000
0.669493 0.833420 2.974503 0.000000 0.000000 0.000000
0.654508 0.891995 2.998055 0.000000 0.000000 0.000000
0.598088 1.092754 2.860162 0.000000 0.000000 0.000000
0.596685 1.097322 2.865885 0.000000 0.000000 0.000000
0.668076 0.795469 2.788677 0.000000 0.000000 0.000000
0.652982 0.887996 3.016824 0.000000 0.000000 0.000000
0.652394 0.901493 3.000954 0.000000 0.000000 0.000000
0.645169 0.924821 3.010882 0.000000 0.000000 0.000000
0.609277 1.045465 3.009633 0.000000 0.000000 0.000000
0.679224 0.771485 2.841781 0.000000 0.000000 0.000000
0.598619 1.095150 2.850198 0.000000 0.000000 0.000000
0.597779 1.093232 2.859324 0.000000 0.000000 0.000000
0.673564 0.784080 2.805835 0.000000 0.000000 0.000000
0.659448 0.891876 2.987293 0.000000 0.000000 0.000000
0.651261 0.894926 3.013229 0.000000 0.000000 0.000000
0.598332 1.102600 2.874529 0.000000 0.000000 0.000000
0.620781 0.972687 3.074283 0.000000 0.000000 0.000000
0.587052 1.111081 2.910478 0.000000 0.000000 0.000000
0.603292 1.002054 3.090172 0.000000 0.000000 0.000000
0.642424 0.920191 3.042466 0.000000 0.000000 0.000000
0.592347 1.100986 2.886317 0.000000 0.000000 0.000000
0.626832 0.963999 3.066046 0.000000 0.000000 0.000000
0.614161 0.998178 2.705166 0.000000 0.000000 0.000000
0.589868 1.114565 2.908516 0.000000 0.000000 0.000000
0.616285 0.983532 3.071332 0.000000 0.000000 0.000000
0.586647 1.105137 2.907830 0.000000 0.000000 0.000000
0.610359 1.026826 2.725407 0.000000 0.000000 0.000000
0.614103 1.006808 2.715009 0.000000 0.000000 0.000000
0.643782 0.862642 2.699880 0.000000 0.000000 0.000000
0.549119 1.106186 3.049137 0.000000 0.000000 0.000000
0.615522 0.978037 2.693516 0.000000 0.000000 0.000000
0.660927 0.809841 2.758109 0.000000 0.000000 0.000000
0.553869 1.089909 3.030185 0.000000 0.000000 0.000000
0.591968 1.097535 2.892211 0.000000 0.000000 0.000000
0.563458 1.109559 3.002074 0.000000 0.000000 0.000000
0.659326 0.825420 2.761605 0.000000 0.000000 0.000000
0.670807 0.790671 2.785151 0.000000 0.000000 0.000000
0.665609 0.801975 2.772504 0.000000 0.000000 0.000000
0.592629 1.095896 2.880529 0.000000 0.000000 0.000000
0.681701 0.776767 2.873761 0.000000 0.000000 0.000000
0.620044 1.051717 2.960693 0.000000 0.000000 0.000000
0.574937 1.120309 2.966890 0.000000 0.000000 0.000000
0.577154 1.109429 2.961922 0.000000 0.000000 0.000000
0.606783 1.048024 2.899556 0.000000 0.000000 0.000000
0.611612 1.061517 2.831432 0.000000 0.000000 0.000000
0.607444 0.992393 3.089527 0.000000 0.000000 0.000000
0.611570 1.064827 2.824593 0.000000 0.000000 0.000000
0.638612 1.002754 2.838438 0.000000 0.000000 0.000000
0.676430 0.778545 2.805414 0.000000 0.000000 0.000000
0.674707 0.782936 2.854295 0.000000 0.000000 0.000000
0.609033 1.075271 2.865015 0.000000 0.000000 0.000000
0.607671 1.066448 2.968113 0.000000 0.000000 0.000000
0.630261 1.018496 2.886659 0.000000 0.000000 0.000000
0.607241 1.076640 2.822471 0.000000 0.000000 0.000000
0.610119 1.067192 2.839509 0.000000 0.000000 0.000000
0.631038 1.015179 2.840572 0.000000 0.000000 0.000000
0.611939 1.072979 2.817680 0.000000 0.000000 0.000000
0.583033 1.108684 2.928978 0.000000 0.000000 0.000000
0.664437 0.854528 2.991164 0.000000 0.000000 0.000000
0.604599 1.082770 2.828478 0.000000 0.000000 0.000000
0.678951 0.791008 2.869536 0.000000 0.000000 0.000000
0.577184 1.110235 2.976682 0.000000 0.000000 0.000000
0.602097 1.080333 2.872446 0.000000 0.000000 0.000000
0.657377 0.878508 2.995706 0.000000 0.000000 0.000000
0.641169 0.887708 2.700887 0.000000 0.000000 0.000000
0.655516 0.887613 3.002020 0.000000 0.000000 0.000000
0.657490 0.888813 3.016946 0.000000 0.000000 0.000000
0.657274 0.876164 3.014174 0.000000 0.000000 0.000000
0.652319 0.884278 3.009969 0.000000 0.000000 0.000000
0.663116 0.861337 2.980891 0.000000 0.000000 0.000000
0.654774 0.904484 2.998208 0.000000 0.000000 0.000000
0.655760 0.880827 3.011639 0.000000 0.000000 0.000000
0.649229 0.908364 3.021985 0.000000 0.000000 0.000000
0.659706 0.811224 2.748484 0.000000 0.000000 0.000000
0.592932 1.106159 2.875167 0.000000 0.000000 0.000000
0.596336 1.101602 2.871386 0.000000 0.000000 0.000000
0.592056 1.099906 2.869663 0.000000 0.000000 0.000000
0.610248 1.068171 2.759691 0.000000 0.000000 0.000000
0.579241 1.113514 2.936611 0.000000 0.000000 0.000000
0.608750 1.057401 2.774424 0.000000 0.000000 0.000000
0.610469 1.059268 2.760691 0.000000 0.000000 0.000000
0.592484 1.103943 2.880538 0.000000 0.000000 0.000000
0.592833 1.099231 2.864165 0.000000 0.000000 0.000000
0.596169 1.090962 2.871162 0.000000 0.000000 0.000000
0.568994 1.106508 2.960023 0.000000 0.000000 0.000000
0.639538 0.944419 2.970297 0.000000 0.000000 0.000000
0.614317 1.026850 2.729006 0.000000 0.000000 0.000000
0.593597 1.103030 2.867929 0.000000 0.000000 0.000000
0.568036 1.110689 2.969602 0.000000 0.000000 0.000000
0.639472 0.940208 2.989171 0.000000 0.000000 0.000000
0.596006 1.092492 2.869768 0.000000 0.000000 0.000000
0.585902 1.108013 2.930758 0.000000 0.000000 0.000000
0.608674 0.990533 3.082497 0.000000 0.000000 0.000000
0.595260 1.092338 2.850969 0.000000 0.000000 0.000000
0.608324 1.070266 2.776997 0.000000 0.000000 0.000000
0.597601 1.099434 2.859217 0.000000 0.000000 0.000000
0.678082 0.789687 2.906264 0.000000 0.000000 0.000000
0.614528 0.992896 2.697998 0.000000 0.000000 0.000000
0.594925 1.099099 2.859283 0.000000 0.000000 0.000000
0.611112 1.045529 2.734292 0.000000 0.000000 0.000000
0.609021 1.038678 2.741864 0.000000 0.000000 0.000000
0.606692 1.038948 2.731358 0.000000 0.000000 0.000000
0.642219 0.942275 2.949238 0.000000 0.000000 0.000000
0.608084 1.047208 2.737033 0.000000 0.000000 0.000000
0.610217 1.030765 2.726836 0.000000 0.000000 0.000000
0.643761 0.941819 2.942847 0.000000 0.000000 0.000000
0.616633 1.028088 2.750255 0.000000 0.000000 0.000000
0.674430 0.814332 2.949720 0.000000 0.000000 0.000000
0.609319 1.041812 2.733526 0.000000 0.000000 0.000000
0.626694 0.943010 2.697082 0.000000 0.000000 0.000000
0.653381 0.985483 2.823418 0.000000 0.000000 0.000000
0.632175 0.908629 2.692792 0.000000 0.000000 0.000000
0.628578 0.925398 2.706901 0.000000 0.000000 0.000000
0.568653 1.121719 2.989367 0.000000 0.000000 0.000000
0.615408 0.982199 3.066590 0.000000 0.000000 0.000000
0.611625 0.992606 3.068342 0.000000 0.000000 0.000000
0.640956 0.928036 3.031451 0.000000 0.000000 0.000000
0.654786 0.881585 3.016397 0.000000 0.000000 0.000000
0.622898 0.955958 3.028986 0.000000 0.000000 0.000000
0.645061 0.935408 2.963214 0.000000 0.000000 0.000000
0.663941 0.794213 2.873989 0.000000 0.000000 0.000000
0.631623 1.000882 2.958317 0.000000 0.000000 0.000000
0.635184 0.914476 2.729903 0.000000 0.000000 0.000000
0.608300 0.992213 3.077151 0.000000 0.000000 0.000000
0.621370 0.972266 3.062701 0.000000 0.000000 0.000000
0.658338 0.894199 2.797947 0.000000 0.000000 0.000000
0.667720 0.829777 2.859164 0.000000 0.000000 0.000000
0.661831 0.902920 2.872877 0.000000 0.000000 0.000000
0.647995 0.963290 2.849461 0.000000 0.000000 0.000000
0.653466 0.942717 2.816449 0.000000 0.000000 0.000000
0.654285 0.910485 2.772273 0.000000 0.000000 0.000000
0.616454 0.951285 2.981005 0.000000 0.000000 0.000000
0.615656 0.983181 3.079264 0.000000 0.000000 0.000000
0.655123 0.883075 2.997603 0.000000 0.000000 0.000000
0.639390 0.954929 2.958185 0.000000 0.000000 0.000000
0.659272 0.885200 2.806765 0.000000 0.000000 0.000000
0.655857 0.939931 2.798608 0.000000 0.000000 0.000000
0.652288 0.849389 2.752143 0.000000 0.000000 0.000000
0.657270 0.901343 2.917422 0.000000 0.000000 0.000000
0.659703 0.915924 2.799778 0.000000 0.000000 0.000000
0.639089 0.960009 2.983703 0.000000 0.000000 0.000000
0.646539 0.932339 2.941721 0.000000 0.000000 0.000000
0.668866 0.877681 2.867942 0.000000 0.000000 0.000000
0.639683 0.889087 2.738444 0.000000 0.000000 0.000000
0.667454 0.858508 2.824867 0.000000 0.000000 0.000000
0.650612 0.909981 2.975448 0.000000 0.000000 0.000000
0.647548 0.931155 2.928742 0.000000 0.000000 0.000000
0.654621 0.945644 2.819738 0.000000 0.000000 0.000000
0.649737 0.940722 2.882056 0.000000 0.000000 0.000000
0.615719 1.046150 2.996250 0.000000 0.000000 0.000000
0.649495 0.978561 2.826151 0.000000 0.000000 0.000000
0.645178 0.916123 3.034125 0.000000 0.000000 0.000000
0.659903 0.877158 2.982537 0.000000 0.000000 0.000000
0.648025 0.911362 3.037861 0.000000 0.000000 0.000000
0.641598 0.925714 3.042470 0.000000 0.000000 0.000000
0.554985 1.087231 3.068007 0.000000 0.000000 0.000000
0.611742 0.993814 2.699921 0.000000 0.000000 0.000000
0.654110 0.892389 3.025615 0.000000 0.000000 0.000000
0.635864 0.942663 2.726431 0.000000 0.000000 0.000000
0.552235 1.072741 3.078904 0.000000 0.000000 0.000000
0.665471 0.844819 2.985508 0.000000 0.000000 0.000000
0.658453 0.881307 3.013832 0.000000 0.000000 0.000000
0.646113 0.884083 3.002389 0.000000 0.000000 0.000000
0.656561 0.882767 3.012789 0.000000 0.000000 0.000000
0.647856 0.833702 2.723924 0.000000 0.000000 0.000000
0.639155 0.926439 2.963977 0.000000 0.000000 0.000000
0.635147 0.955846 2.996881 0.000000 0.000000 0.000000
0.661729 0.807928 2.893400 0.000000 0.000000 0.000000
0.643900 0.952419 2.915880 0.000000 0.000000 0.000000
0.650123 0.924108 2.747571 0.000000 0.000000 0.000000
0.609923 0.994988 3.078558 0.000000 0.000000 0.000000
0.607970 0.998820 3.079641 0.000000 0.000000 0.000000
0.663366 0.809217 2.855011 0.000000 0.000000 0.000000
0.659498 0.908149 2.856501 0.000000 0.000000 0.000000
0.662492 0.827837 2.796374 0.000000 0.000000 0.000000
0.660206 0.900502 2.869272 0.000000 0.000000 0.000000
0.655006 0.955747 2.840133 0.000000 0.000000 0.000000
0.646020 0.974513 2.893966 0.000000 0.000000 0.000000
0.655786 0.934491 2.791912 0.000000 0.000000 0.000000
0.636391 0.965014 2.962637 0.000000 0.000000 0.000000
0.678994 0.783541 2.904330 0.000000 0.000000 0.000000
0.653004 0.890878 3.011424 0.000000 0.000000 0.000000
0.625985 0.993521 3.027943 0.000000 0.000000 0.000000
0.669882 0.863880 2.856334 0.000000 0.000000 0.000000
0.657530 0.927843 2.819124 0.000000 0.000000 0.000000
0.654597 0.889830 2.965328 0.000000 0.000000 0.000000
0.656966 0.919613 2.758316 0.000000 0.000000 0.000000
0.645292 0.934734 2.916695 0.000000 0.000000 0.000000
0.652237 0.920193 2.911205 0.000000 0.000000 0.000000
0.653714 0.908723 2.840659 0.000000 0.000000 0.000000
0.645838 0.906079 2.771907 0.000000 0.000000 0.000000
0.667445 0.878783 2.816470 0.000000 0.000000 0.000000
0.655104 0.908832 2.899519 0.000000 0.000000 0.000000
0.653726 0.899714 2.953975 0.000000 0.000000 0.000000
0.655897 0.973113 2.829209 0.000000 0.000000 0.000000
0.645190 0.938723 2.928428 0.000000 0.000000 0.000000
0.605684 1.059504 3.005864 0.000000 0.000000 0.000000
0.616301 1.049083 2.800545 0.000000 0.000000 0.000000
0.650389 0.906262 3.027061 0.000000 0.000000 0.000000
0.670013 0.829314 2.884527 0.000000 0.000000 0.000000
0.637993 0.932408 3.042420 0.000000 0.000000 0.000000
0.653151 0.895443 3.023469 0.000000 0.000000 0.000000
0.549663 1.092558 3.068329 0.000000 0.000000 0.000000
0.650004 0.908562 3.035271 0.000000 0.000000 0.000000
0.622947 0.992880 2.729643 0.000000 0.000000 0.000000
0.652492 0.896851 3.027824 0.000000 0.000000 0.000000
0.618927 0.984383 2.704211 0.000000 0.000000 0.000000
0.609312 1.076487 2.787725 0.000000 0.000000 0.000000
0.557759 1.082584 3.086719 0.000000 0.000000 0.000000
0.659156 0.865025 2.990172 0.000000 0.000000 0.000000
0.667032 0.903700 2.739069 0.000000 0.000000 0.000000
0.652771 0.907456 2.981305 0.000000 0.000000 0.000000
0.637565 0.991659 2.925023 0.000000 0.000000 0.000000
0.642467 0.843366 2.726002 0.000000 0.000000 0.000000
0.641015 0.973791 2.917670 0.000000 0.000000 0.000000
0.665447 0.826316 2.877281 0.000000 0.000000 0.000000
0.646390 0.938554 2.899421 0.000000 0.000000 0.000000
0.656908 0.884631 2.977655 0.000000 0.000000 0.000000
0.624921 1.026323 2.968161 0.000000 0.000000 0.000000
0.649275 0.858104 2.755211 0.000000 0.000000 0.000000
0.659881 0.865095 3.004295 0.000000 0.000000 0.000000
0.657436 0.882285 3.017021 0.000000 0.000000 0.000000
0.653943 0.887772 3.012970 0.000000 0.000000 0.000000
0.647594 0.909578 3.030115 0.000000 0.000000 0.000000
0.658753 0.883712 3.024945 0.000000 0.000000 0.000000
0.660343 0.868182 2.971716 0.000000 0.000000 0.000000
0.661167 0.927839 2.813415 0.000000 0.000000 0.000000
0.643512 0.952149 2.882801 0.000000 0.000000 0.000000
0.651657 0.894728 3.011081 0.000000 0.000000 0.000000
0.626335 1.008559 2.939773 0.000000 0.000000 0.000000
0.644168 0.838839 2.721545 0.000000 0.000000 0.000000
0.639170 0.993001 2.917523 0.000000 0.000000 0.000000
0.657189 0.851754 2.937279 0.000000 0.000000 0.000000
0.646302 0.932919 2.908268 0.000000 0.000000 0.000000
0.642458 0.921823 3.034333 0.000000 0.000000 0.000000
0.628838 1.004421 2.965265 0.000000 0.000000 0.000000
0.656509 0.830597 2.752548 0.000000 0.000000 0.000000
0.660632 0.866836 3.011838 0.000000 0.000000 0.000000
0.647754 0.957306 2.867770 0.000000 0.000000 0.000000
0.654431 0.886870 3.021487 0.000000 0.000000 0.000000
0.659108 0.920118 2.816672 0.000000 0.000000 0.000000
0.647911 0.914540 3.033928 0.000000 0.000000 0.000000
0.655052 0.891634 3.022624 0.000000 0.000000 0.000000
0.650407 0.853611 2.734123 0.000000 0.000000 0.000000
0.613036 1.012389 2.720565 0.000000 0.000000 0.000000
0.619917 0.995311 2.714476 0.000000 0.000000 0.000000
0.628693 0.915092 2.689124 0.000000 0.000000 0.000000
0.623870 0.945073 2.693012 0.000000 0.000000 0.000000
0.603190 1.017090 2.709969 0.000000 0.000000 0.000000
0.613083 1.011945 2.717526 0.000000 0.000000 0.000000
0.623463 0.928544 2.684667 0.000000 0.000000 0.000000
0.666004 0.858525 2.935318 0.000000 0.000000 0.000000
0.612605 1.010863 2.716519 0.000000 0.000000 0.000000
0.616187 0.999995 2.717338 0.000000 0.000000 0.000000
0.665343 0.801470 2.757850 0.000000 0.000000 0.000000
0.613210 1.008726 2.724466 0.000000 0.000000 0.000000
0.663553 0.942189 2.784536 0.000000 0.000000 0.000000
0.651604 0.848799 2.746267 0.000000 0.000000 0.000000
0.643615 0.968736 2.892144 0.000000 0.000000 0.000000
0.648152 0.848357 2.721334 0.000000 0.000000 0.000000
0.614602 1.007267 2.713169 0.000000 0.000000 0.000000
0.668110 0.832379 2.876411 0.000000 0.000000 0.000000
0.625023 0.945724 2.701887 0.000000 0.000000 0.000000
0.610323 1.020359 2.723167 0.000000 0.000000 0.000000
0.615265 0.996288 2.702171 0.000000 0.000000 0.000000
0.620424 0.938709 2.685689 0.000000 0.000000 0.000000
0.624377 0.940514 2.691202 0.000000 0.000000 0.000000
0.614266 0.995978 2.703609 0.000000 0.000000 0.000000
0.662418 0.867678 2.960599 0.000000 0.000000 0.000000
0.613609 1.021263 2.727822 0.000000 0.000000 0.000000
0.624126 0.987078 2.731776 0.000000 0.000000 0.000000
0.649202 0.842147 2.725129 0.000000 0.000000 0.000000
0.613639 0.953690 2.687126 0.000000 0.000000 0.000000
0.610030 1.007094 2.712947 0.000000 0.000000 0.000000
0.620297 0.969805 2.700112 0.000000 0.000000 0.000000
0.665768 0.928866 2.764427 0.000000 0.000000 0.000000
0.646707 0.844598 2.738296 0.000000 0.000000 0.000000
0.648532 0.947362 2.874176 0.000000 0.000000 0.000000
0.648897 0.848391 2.730202 0.000000 0.000000 0.000000
0.608344 1.063448 2.764575 0.000000 0.000000 0.000000
0.602488 1.087149 2.840139 0.000000 0.000000 0.000000
0.655906 0.876264 3.014307 0.000000 0.000000 0.000000
0.632935 0.943140 3.058764 0.000000 0.000000 0.000000
0.641074 0.875325 2.696837 0.000000 0.000000 0.000000
0.603477 1.000562 3.094152 0.000000 0.000000 0.000000
0.657054 0.870370 2.998872 0.000000 0.000000 0.000000
0.599799 1.097339 2.873970 0.000000 0.000000 0.000000
0.606854 1.066273 2.754888 0.000000 0.000000 0.000000
0.643447 0.856332 2.711314 0.000000 0.000000 0.000000
0.600353 1.085580 2.840791 0.000000 0.000000 0.000000
0.604324 1.086195 2.841707 0.000000 0.000000 0.000000
0.625657 0.960779 3.066234 0.000000 0.000000 0.000000
0.608818 1.067671 2.767753 0.000000 0.000000 0.000000
0.647798 0.865130 2.706802 0.000000 0.000000 0.000000
0.606310 0.999797 3.085860 0.000000 0.000000 0.000000
0.660609 0.861225 2.997802 0.000000 0.000000 0.000000
0.596156 1.096801 2.893705 0.000000 0.000000 0.000000
0.555131 1.090330 3.066839 0.000000 0.000000 0.000000
0.549996 1.088881 3.076577 0.000000 0.000000 0.000000
0.656910 0.875562 3.011509 0.000000 0.000000 0.000000
0.597638 1.099070 2.853936 0.000000 0.000000 0.000000
0.656203 0.880300 3.002249 0.000000 0.000000 0.000000
0.664907 0.864070 2.968328 0.000000 0.000000 0.000000
0.661225 0.864675 2.995447 0.000000 0.000000 0.000000
0.655567 0.878542 2.995098 0.000000 0.000000 0.000000
0.658980 0.867842 3.004766 0.000000 0.000000 0.000000
0.552850 1.086133 3.074019 0.000000 0.000000 0.000000
0.560832 1.075279 3.074591 0.000000 0.000000 0.000000
0.670979 0.837130 2.966717 0.000000 0.000000 0.000000
0.657840 0.882622 3.014790 0.000000 0.000000 0.000000
0.656358 0.876628 3.008528 0.000000 0.000000 0.000000
0.658598 0.866450 3.007409 0.000000 0.000000 0.000000
0.661164 0.857766 2.987446 0.000000 0.000000 0.000000
0.655041 0.883603 2.989521 0.000000 0.000000 0.000000
0.660470 0.865225 2.997779 0.000000 0.000000 0.000000
0.660627 0.867281 3.009100 0.000000 0.000000 0.000000
0.555852 1.097481 3.055756 0.000000 0.000000 0.000000
0.551074 1.085848 3.074263 0.000000 0.000000 0.000000
0.616927 0.984045 2.702615 0.000000 0.000000 0.000000
0.659883 0.866347 3.007359 0.000000 0.000000 0.000000
0.661017 0.870893 3.007762 0.000000 0.000000 0.000000
0.655214 0.880624 3.007010 0.000000 0.000000 0.000000
0.656431 0.875262 3.013641 0.000000 0.000000 0.000000
0.656950 0.870859 3.011814 0.000000 0.000000 0.000000
0.622062 0.941197 2.689065 0.000000 0.000000 0.000000
0.624474 0.917136 2.690459 0.000000 0.000000 0.000000
0.626329 0.920431 2.688272 0.000000 0.000000 0.000000
0.666361 0.792428 2.763638 0.000000 0.000000 0.000000
0.570856 1.059311 3.092289 0.000000 0.000000 0.000000
0.670992 0.797043 2.785904 0.000000 0.000000 0.000000
0.567317 1.061535 3.091131 0.000000 0.000000 0.000000
0.655172 0.920689 2.832814 0.000000 0.000000 0.000000
0.611572 1.005943 2.708213 0.000000 0.000000 0.000000
0.613828 1.014523 2.721127 0.000000 0.000000 0.000000
0.622198 0.934292 2.686676 0.000000 0.000000 0.000000
0.670648 0.790383 2.779944 0.000000 0.000000 0.000000
0.568166 1.065566 3.087639 0.000000 0.000000 0.000000
0.656982 0.866360 2.764381 0.000000 0.000000 0.000000
0.614148 1.016221 2.719989 0.000000 0.000000 0.000000
0.612693 1.024131 2.724685 0.000000 0.000000 0.000000
0.618032 0.990453 2.697027 0.000000 0.000000 0.000000
0.618252 0.953901 2.688197 0.000000 0.000000 0.000000
0.621737 0.943314 2.691438 0.000000 0.000000 0.000000
0.653729 0.830798 2.740013 0.000000 0.000000 0.000000
0.658459 0.816702 2.746341 0.000000 0.000000 0.000000
0.627526 1.047461 2.930640 0.000000 0.000000 0.000000
0.580573 1.042426 3.085612 0.000000 0.000000 0.000000
0.617380 0.969645 2.691245 0.000000 0.000000 0.000000
0.586799 1.037614 3.092064 0.000000 0.000000 0.000000
0.592864 1.107943 2.881184 0.000000 0.000000 0.000000
0.651599 0.901585 3.007522 0.000000 0.000000 0.000000
0.655800 0.887053 2.787289 0.000000 0.000000 0.000000
0.651424 0.838736 2.734887 0.000000 0.000000 0.000000
0.658081 0.817786 2.751075 0.000000 0.000000 0.000000
0.653613 0.824374 2.742426 0.000000 0.000000 0.000000
0.619683 1.058045 2.930606 0.000000 0.000000 0.000000
0.588463 1.037939 3.082403 0.000000 0.000000 0.000000
0.616998 0.968581 2.692084 0.000000 0.000000 0.000000
0.590345 1.108275 2.889611 0.000000 0.000000 0.000000
0.649374 0.906544 3.034519 0.000000 0.000000 0.000000
0.655946 0.878239 2.781192 0.000000 0.000000 0.000000
0.590630 1.105212 2.881046 0.000000 0.000000 0.000000
0.679535 0.828766 2.977169 0.000000 0.000000 0.000000
0.591713 1.098753 2.921587 0.000000 0.000000 0.000000
0.645496 0.918674 3.036177 0.000000 0.000000 0.000000
0.574692 1.052585 3.088248 0.000000 0.000000 0.000000
0.591363 1.101385 2.909626 0.000000 0.000000 0.000000
0.581600 1.041792 3.092738 0.000000 0.000000 0.000000
0.590212 1.103603 2.884753 0.000000 0.000000 0.000000
0.682307 0.779452 2.883961 0.000000 0.000000 0.000000
0.649246 0.871913 2.728239 0.000000 0.000000 0.000000
0.646743 0.853167 2.714800 0.000000 0.000000 0.000000
0.570971 1.059871 3.085101 0.000000 0.000000 0.000000
0.672129 0.830387 2.974756 0.000000 0.000000 0.000000
0.586059 1.100544 2.883123 0.000000 0.000000 0.000000
0.643759 0.920040 3.027389 0.000000 0.000000 0.000000
0.569024 1.065726 3.075375 0.000000 0.000000 0.000000
0.592898 1.104646 2.882788 0.000000 0.000000 0.000000
0.592526 1.101020 2.885365 0.000000 0.000000 0.000000
0.610560 1.071091 2.779939 0.000000 0.000000 0.000000
0.681195 0.781666 2.893661 0.000000 0.000000 0.000000
0.650471 0.856805 2.727541 0.000000 0.000000 0.000000
0.573945 1.073937 3.051382 0.000000 0.000000 0.000000
0.554266 1.096838 3.052359 0.000000 0.000000 0.000000
0.556141 1.086341 3.051901 0.000000 0.000000 0.000000
0.564079 1.086247 3.043599 0.000000 0.000000 0.000000
0.565926 1.078432 3.061059 0.000000 0.000000 0.000000
0.629854 1.012833 2.777159 0.000000 0.000000 0.000000
0.553048 1.089938 3.061297 0.000000 0.000000 0.000000
0.549786 1.100128 3.036859 0.000000 0.000000 0.000000
0.546157 1.105402 3.053673 0.000000 0.000000 0.000000
0.596391 1.097914 2.852499 0.000000 0.000000 0.000000
0.548034 1.098687 3.056405 0.000000 0.000000 0.000000
0.547231 1.091888 3.050211 0.000000 0.000000 0.000000
0.677870 0.783530 2.896433 0.000000 0.000000 0.000000
0.572279 1.083383 3.033104 0.000000 0.000000 0.000000
0.549208 1.102869 3.055041 0.000000 0.000000 0.000000
0.562594 1.080559 3.044990 0.000000 0.000000 0.000000
0.558830 1.082078 3.052325 0.000000 0.000000 0.000000
0.554315 1.087552 3.036837 0.000000 0.000000 0.000000
0.632819 0.994810 2.766262 0.000000 0.000000 0.000000
0.554836 1.109346 3.031153 0.000000 0.000000 0.000000
0.551204 1.109276 3.033562 0.000000 0.000000 0.000000
0.551285 1.113975 3.035571 0.000000 0.000000 0.000000
0.670972 0.828614 2.970945 0.000000 0.000000 0.000000
0.601043 1.094251 2.843528 0.000000 0.000000 0.000000
0.548798 1.100366 3.044604 0.000000 0.000000 0.000000
0.545477 1.095567 3.047142 0.000000 0.000000 0.000000
0.618289 0.964715 2.695536 0.000000 0.000000 0.000000
0.669435 0.835464 2.973205 0.000000 0.000000 0.000000
0.674166 0.819382 2.960460 0.000000 0.000000 0.000000
0.675259 0.823661 2.958391 0.000000 0.000000 0.000000
0.686667 0.772105 2.868369 0.000000 0.000000 0.000000
0.669972 0.832182 2.973865 0.000000 0.000000 0.000000
0.672764 0.823692 2.937476 0.000000 0.000000 0.000000
0.663161 0.848031 2.994378 0.000000 0.000000 0.000000
0.670043 0.829507 2.968081 0.000000 0.000000 0.000000
0.663857 0.853708 2.996428 0.000000 0.000000 0.000000
0.687342 0.777927 2.883817 0.000000 0.000000 0.000000
0.671671 0.828082 2.973692 0.000000 0.000000 0.000000
0.664517 0.848259 2.988674 0.000000 0.000000 0.000000
0.613598 1.029845 2.734309 0.000000 0.000000 0.000000
0.613204 1.016670 2.728027 0.000000 0.000000 0.000000
0.611030 1.034754 2.725753 0.000000 0.000000 0.000000
0.673832 0.777944 2.795110 0.000000 0.000000 0.000000
0.678967 0.769714 2.861789 0.000000 0.000000 0.000000
0.668130 0.838628 2.986418 0.000000 0.000000 0.000000
0.683878 0.774246 2.878988 0.000000 0.000000 0.000000
0.606164 1.071115 2.769288 0.000000 0.000000 0.000000
0.608342 1.071058 2.776504 0.000000 0.000000 0.000000
0.613703 1.013666 2.716672 0.000000 0.000000 0.000000
0.608792 1.019716 2.718876 0.000000 0.000000 0.000000
0.616947 0.986192 2.699698 0.000000 0.000000 0.000000
0.621293 0.965146 2.691392 0.000000 0.000000 0.000000
0.669029 0.845521 2.985115 0.000000 0.000000 0.000000
0.673913 0.774631 2.808378 0.000000 0.000000 0.000000
0.669004 0.847651 2.969388 0.000000 0.000000 0.000000
0.572853 1.116770 2.967482 0.000000 0.000000 0.000000
0.646788 0.879750 2.701509 0.000000 0.000000 0.000000
0.573685 1.116943 2.963407 0.000000 0.000000 0.000000
0.577645 1.120830 2.957776 0.000000 0.000000 0.000000
0.619505 0.958575 2.692693 0.000000 0.000000 0.000000
0.666028 0.845547 2.983481 0.000000 0.000000 0.000000
0.669236 0.839146 2.979868 0.000000 0.000000 0.000000
0.665740 0.842436 2.982791 0.000000 0.000000 0.000000
0.678500 0.814259 2.950366 0.000000 0.000000 0.000000
0.669822 0.835631 2.980795 0.000000 0.000000 0.000000
0.672793 0.827618 2.974912 0.000000 0.000000 0.000000
0.576502 1.115093 2.953708 0.000000 0.000000 0.000000
0.637156 0.888081 2.710890 0.000000 0.000000 0.000000
0.630167 0.956739 3.070004 0.000000 0.000000 0.000000
0.617861 0.971462 2.694431 0.000000 0.000000 0.000000
0.578314 1.117588 2.949628 0.000000 0.000000 0.000000
0.583239 1.116909 2.946310 0.000000 0.000000 0.000000
0.655467 0.868934 2.743525 0.000000 0.000000 0.000000
0.663326 0.857052 2.994526 0.000000 0.000000 0.000000
0.667099 0.846315 2.992184 0.000000 0.000000 0.000000
0.667482 0.833056 2.980860 0.000000 0.000000 0.000000
0.674403 0.825437 2.960889 0.000000 0.000000 0.000000
0.665018 0.847435 2.980125 0.000000 0.000000 0.000000
0.626723 0.952812 3.070882 0.000000 0.000000 0.000000
0.612929 1.066290 2.909642 0.000000 0.000000 0.000000
0.645117 0.990158 2.869753 0.000000 0.000000 0.000000
0.663057 0.806955 2.754452 0.000000 0.000000 0.000000
0.636551 0.943989 3.068059 0.000000 0.000000 0.000000
0.625607 1.046186 2.900266 0.000000 0.000000 0.000000
0.642389 1.008077 2.878651 0.000000 0.000000 0.000000
0.665751 0.791960 2.770113 0.000000 0.000000 0.000000
0.564679 1.068397 3.085139 0.000000 0.000000 0.000000
0.661834 0.809827 2.753374 0.000000 0.000000 0.000000
0.679067 0.799327 2.909871 0.000000 0.000000 0.000000
0.678249 0.786815 2.907773 0.000000 0.000000 0.000000
0.681746 0.806472 2.914490 0.000000 0.000000 0.000000
0.679261 0.795172 2.915244 0.000000 0.000000 0.000000
0.678559 0.794951 2.921822 0.000000 0.000000 0.000000
0.679698 0.807264 2.903028 0.000000 0.000000 0.000000
0.608882 1.058267 2.766866 0.000000 0.000000 0.000000
0.611067 1.069079 2.791821 0.000000 0.000000 0.000000
0.679388 0.787299 2.912702 0.000000 0.000000 0.000000
0.616441 0.985810 3.078590 0.000000 0.000000 0.000000
0.680569 0.807063 2.903874 0.000000 0.000000 0.000000
0.683339 0.782246 2.886445 0.000000 0.000000 0.000000
0.675655 0.786592 2.897267 0.000000 0.000000 0.000000
0.680174 0.785880 2.899184 0.000000 0.000000 0.000000
0.608078 1.065792 2.774539 0.000000 0.000000 0.000000
0.610402 1.064956 2.784189 0.000000 0.000000 0.000000
0.610512 1.037747 2.735194 0.000000 0.000000 0.000000
0.616120 0.980726 2.689054 0.000000 0.000000 0.000000
0.652151 0.898269 3.023238 0.000000 0.000000 0.000000
0.621321 0.938870 2.680382 0.000000 0.000000 0.000000
0.619857 0.950830 2.693664 0.000000 0.000000 0.000000
0.616961 0.978326 2.693929 0.000000 0.000000 0.000000
0.614969 0.961585 2.686883 0.000000 0.000000 0.000000
0.609101 1.036937 2.727613 0.000000 0.000000 0.000000
0.636564 0.933659 3.048042 0.000000 0.000000 0.000000
0.634921 0.910110 2.699558 0.000000 0.000000 0.000000
0.620283 0.954305 2.689728 0.000000 0.000000 0.000000
0.623934 0.958152 2.701367 0.000000 0.000000 0.000000
0.632200 0.943631 3.054288 0.000000 0.000000 0.000000
0.610957 1.033740 2.732617 0.000000 0.000000 0.000000
0.630596 0.916117 2.692818 0.000000 0.000000 0.000000
0.608540 0.996813 3.089353 0.000000 0.000000 0.000000
0.609791 1.044821 2.736977 0.000000 0.000000 0.000000
0.665329 0.855531 2.949246 0.000000 0.000000 0.000000
0.618470 0.973450 2.691437 0.000000 0.000000 0.000000
0.567690 1.115598 2.987668 0.000000 0.000000 0.000000
0.615469 0.981158 2.694733 0.000000 0.000000 0.000000
0.616104 0.961625 2.683927 0.000000 0.000000 0.000000
0.652732 0.893371 3.008209 0.000000 0.000000 0.000000
0.652088 0.942117 2.858379 0.000000 0.000000 0.000000
0.620876 0.954989 2.690366 0.000000 0.000000 0.000000
0.667715 0.845298 2.973215 0.000000 0.000000 0.000000
0.655986 0.880333 3.012708 0.000000 0.000000 0.000000
0.616158 0.958153 2.689502 0.000000 0.000000 0.000000
0.617101 0.956463 2.688524 0.000000 0.000000 0.000000
0.611155 1.037271 2.726907 0.000000 0.000000 0.000000
0.614016 0.989318 2.695947 0.000000 0.000000 0.000000
0.665689 0.794053 2.768332 0.000000 0.000000 0.000000
0.640634 0.928973 3.051600 0.000000 0.000000 0.000000
0.625526 0.919506 2.694737 0.000000 0.000000 0.000000
0.639367 0.929737 3.049665 0.000000 0.000000 0.000000
0.622717 0.954031 2.697002 0.000000 0.000000 0.000000
0.626746 0.951861 2.708077 0.000000 0.000000 0.000000
0.633836 0.943644 3.055944 0.000000 0.000000 0.000000
0.614186 1.012739 2.725304 0.000000 0.000000 0.000000
0.619605 0.961978 2.692842 0.000000 0.000000 0.000000
0.666258 0.796030 2.772033 0.000000 0.000000 0.000000
0.611544 1.035669 2.735476 0.000000 0.000000 0.000000
0.665775 0.864447 2.958511 0.000000 0.000000 0.000000
0.619160 0.974948 2.697303 0.000000 0.000000 0.000000
0.564723 1.094388 3.015212 0.000000 0.000000 0.000000
0.618635 0.972989 2.695552 0.000000 0.000000 0.000000
0.619267 0.953426 2.684499 0.000000 0.000000 0.000000
0.658179 0.875496 3.005896 0.000000 0.000000 0.000000
0.644431 0.967906 2.896829 0.000000 0.000000 0.000000
0.616598 0.955714 2.688956 0.000000 0.000000 0.000000
0.632264 0.957230 3.066535 0.000000 0.000000 0.000000
0.665821 0.856300 2.983247 0.000000 0.000000 0.000000
0.656447 0.879683 3.008887 0.000000 0.000000 0.000000
0.620383 0.947580 2.689087 0.000000 0.000000 0.000000
0.611345 1.032546 2.724980 0.000000 0.000000 0.000000
0.618319 0.980392 2.693285 0.000000 0.000000 0.000000
0.609095 1.047538 2.745286 0.000000 0.000000 0.000000
0.608462 1.051421 2.743748 0.000000 0.000000 0.000000
0.607148 1.089637 2.829571 0.000000 0.000000 0.000000
0.637662 0.933548 3.056087 0.000000 0.000000 0.000000
0.610799 1.057610 2.752194 0.000000 0.000000 0.000000
0.632761 0.945834 3.064652 0.000000 0.000000 0.000000
0.610782 1.051043 2.738445 0.000000 0.000000 0.000000
0.610263 1.061817 2.755340 0.000000 0.000000 0.000000
0.598751 1.020822 3.088675 0.000000 0.000000 0.000000
0.586586 1.034181 3.090529 0.000000 0.000000 0.000000
0.590969 1.026887 3.088863 0.000000 0.000000 0.000000
0.558612 1.116573 3.026686 0.000000 0.000000 0.000000
0.582063 1.106851 2.914243 0.000000 0.000000 0.000000
0.616713 0.968125 2.688322 0.000000 0.000000 0.000000
0.611757 0.984394 3.081976 0.000000 0.000000 0.000000
0.606614 0.999260 3.071980 0.000000 0.000000 0.000000
0.616709 0.959292 2.689217 0.000000 0.000000 0.000000
0.584976 1.116670 2.924525 0.000000 0.000000 0.000000
0.582011 1.041663 3.089491 0.000000 0.000000 0.000000
0.613740 0.985931 3.079019 0.000000 0.000000 0.000000
0.584295 1.111175 2.912450 0.000000 0.000000 0.000000
0.618158 0.959703 2.687101 0.000000 0.000000 0.000000
0.609525 0.991548 3.075157 0.000000 0.000000 0.000000
0.613231 0.988288 3.084773 0.000000 0.000000 0.000000
0.617352 0.957625 2.690164 0.000000 0.000000 0.000000
0.618610 0.978581 2.698476 0.000000 0.000000 0.000000
0.611705 1.067599 2.780620 0.000000 0.000000 0.000000
0.675882 0.812920 2.954698 0.000000 0.000000 0.000000
