ply
format ascii 1.0
comment VCGLIB generated
obj_info Generated by SPFormer!
element vertex 237
property float x
property float y
property float z
property float nx
property float ny
property float nz
end_header
0.520623 1.266028 2.078311 0.000000 0.000000 0.000000
0.526454 1.249870 2.065237 0.000000 0.000000 0.000000
0.555908 1.284671 2.092590 0.000000 0.000000 0.000000
0.552916 1.287149 2.081818 0.000000 0.000000 0.000000
0.431924 1.242692 2.156883 0.000000 0.000000 0.000000
0.530826 1.266591 2.075972 0.000000 0.000000 0.000000
0.433126 1.240218 2.152019 0.000000 0.000000 0.000000
0.528796 1.249028 2.065870 0.000000 0.000000 0.000000
0.552643 1.292705 2.084051 0.000000 0.000000 0.000000
0.436120 1.244199 2.155315 0.000000 0.000000 0.000000
0.522793 1.249070 2.071159 0.000000 0.000000 0.000000
0.436410 1.241331 2.145756 0.000000 0.000000 0.000000
0.548840 1.276003 2.082160 0.000000 0.000000 0.000000
0.576574 1.275927 2.086667 0.000000 0.000000 0.000000
0.544789 1.287296 2.086020 0.000000 0.000000 0.000000
0.560926 1.288003 2.098957 0.000000 0.000000 0.000000
0.438866 1.247947 2.157735 0.000000 0.000000 0.000000
0.526266 1.249381 2.069482 0.000000 0.000000 0.000000
0.576008 1.290246 2.087832 0.000000 0.000000 0.000000
0.568981 1.288115 2.093385 0.000000 0.000000 0.000000
0.435435 1.246830 2.147660 0.000000 0.000000 0.000000
0.448947 1.253149 2.160349 0.000000 0.000000 0.000000
0.562903 1.279464 2.085349 0.000000 0.000000 0.000000
0.542571 1.291638 2.087128 0.000000 0.000000 0.000000
0.528484 1.247544 2.062403 0.000000 0.000000 0.000000
0.566608 1.276702 2.091602 0.000000 0.000000 0.000000
0.546218 1.296016 2.089540 0.000000 0.000000 0.000000
0.526309 1.261045 2.072736 0.000000 0.000000 0.000000
0.529761 1.262895 2.074164 0.000000 0.000000 0.000000
0.574414 1.290496 2.101823 0.000000 0.000000 0.000000
0.539417 1.278943 2.072094 0.000000 0.000000 0.000000
0.572447 1.291953 2.099394 0.000000 0.000000 0.000000
0.534326 1.278773 2.078012 0.000000 0.000000 0.000000
0.534675 1.272313 2.072408 0.000000 0.000000 0.000000
0.567735 1.281448 2.090677 0.000000 0.000000 0.000000
0.535855 1.288345 2.083713 0.000000 0.000000 0.000000
0.530703 1.270031 2.072061 0.000000 0.000000 0.000000
0.552266 1.285176 2.080512 0.000000 0.000000 0.000000
0.532068 1.275465 2.081977 0.000000 0.000000 0.000000
0.537471 1.280608 2.076592 0.000000 0.000000 0.000000
0.528079 1.256197 2.077431 0.000000 0.000000 0.000000
0.546251 1.282868 2.075785 0.000000 0.000000 0.000000
0.552837 1.275906 2.073522 0.000000 0.000000 0.000000
0.566332 1.291788 2.100118 0.000000 0.000000 0.000000
0.552646 1.284000 2.076314 0.000000 0.000000 0.000000
0.435184 1.243163 2.157845 0.000000 0.000000 0.000000
0.542272 1.275405 2.082212 0.000000 0.000000 0.000000
0.577974 1.283761 2.103286 0.000000 0.000000 0.000000
0.559582 1.292363 2.098907 0.000000 0.000000 0.000000
0.545542 1.260996 2.076167 0.000000 0.000000 0.000000
0.578570 1.288427 2.099558 0.000000 0.000000 0.000000
0.539581 1.271017 2.069024 0.000000 0.000000 0.000000
0.520139 1.249944 2.066206 0.000000 0.000000 0.000000
0.581681 1.284720 2.100973 0.000000 0.000000 0.000000
0.580415 1.287773 2.103609 0.000000 0.000000 0.000000
0.573792 1.289147 2.097327 0.000000 0.000000 0.000000
0.572006 1.284159 2.093310 0.000000 0.000000 0.000000
0.536819 1.281580 2.079788 0.000000 0.000000 0.000000
0.555461 1.292013 2.087906 0.000000 0.000000 0.000000
0.540409 1.272298 2.073320 0.000000 0.000000 0.000000
0.550505 1.279663 2.077717 0.000000 0.000000 0.000000
0.575111 1.275357 2.095178 0.000000 0.000000 0.000000
0.560042 1.283379 2.093619 0.000000 0.000000 0.000000
0.559879 1.271675 2.088622 0.000000 0.000000 0.000000
0.564871 1.275917 2.089960 0.000000 0.000000 0.000000
0.578746 1.289895 2.100151 0.000000 0.000000 0.000000
0.563771 1.282310 2.083555 0.000000 0.000000 0.000000
0.524241 1.272151 2.077490 0.000000 0.000000 0.000000
0.554920 1.288755 2.087667 0.000000 0.000000 0.000000
0.549587 1.282440 2.084095 0.000000 0.000000 0.000000
0.578707 1.288436 2.101177 0.000000 0.000000 0.000000
0.524538 1.280069 2.068256 0.000000 0.000000 0.000000
0.547531 1.300224 2.081941 0.000000 0.000000 0.000000
0.530872 1.250183 2.058745 0.000000 0.000000 0.000000
0.550769 1.269290 2.076388 0.000000 0.000000 0.000000
0.434824 1.241436 2.148359 0.000000 0.000000 0.000000
0.436680 1.240201 2.146315 0.000000 0.000000 0.000000
0.556972 1.265528 2.085716 0.000000 0.000000 0.000000
0.547009 1.282419 2.082788 0.000000 0.000000 0.000000
0.428899 1.243275 2.157411 0.000000 0.000000 0.000000
0.430931 1.247384 2.154576 0.000000 0.000000 0.000000
0.557200 1.288895 2.081551 0.000000 0.000000 0.000000
0.574218 1.291464 2.102135 0.000000 0.000000 0.000000
0.435459 1.241370 2.156491 0.000000 0.000000 0.000000
0.567671 1.271041 2.085633 0.000000 0.000000 0.000000
0.436856 1.241692 2.145817 0.000000 0.000000 0.000000
0.436321 1.244384 2.152902 0.000000 0.000000 0.000000
0.534381 1.279680 2.078111 0.000000 0.000000 0.000000
0.436287 1.240472 2.155065 0.000000 0.000000 0.000000
0.563447 1.288749 2.090645 0.000000 0.000000 0.000000
0.568424 1.271653 2.094041 0.000000 0.000000 0.000000
0.536716 1.247355 2.060674 0.000000 0.000000 0.000000
0.437510 1.246364 2.145711 0.000000 0.000000 0.000000
0.531347 1.248550 2.064153 0.000000 0.000000 0.000000
0.523764 1.263120 2.074149 0.000000 0.000000 0.000000
0.538710 1.245696 2.064185 0.000000 0.000000 0.000000
0.575560 1.281876 2.095801 0.000000 0.000000 0.000000
0.439960 1.240623 2.158212 0.000000 0.000000 0.000000
0.437843 1.242429 2.145294 0.000000 0.000000 0.000000
0.557883 1.275534 2.092240 0.000000 0.000000 0.000000
0.529828 1.268077 2.075644 0.000000 0.000000 0.000000
0.537500 1.288367 2.082237 0.000000 0.000000 0.000000
0.537985 1.280556 2.067957 0.000000 0.000000 0.000000
0.533902 1.267977 2.080433 0.000000 0.000000 0.000000
0.563180 1.283113 2.085461 0.000000 0.000000 0.000000
0.556021 1.301209 2.090044 0.000000 0.000000 0.000000
0.523688 1.285502 2.079087 0.000000 0.000000 0.000000
0.435294 1.240998 2.148750 0.000000 0.000000 0.000000
0.573654 1.284968 2.092415 0.000000 0.000000 0.000000
0.555232 1.290613 2.086079 0.000000 0.000000 0.000000
0.522650 1.275941 2.074258 0.000000 0.000000 0.000000
0.565631 1.290144 2.086748 0.000000 0.000000 0.000000
0.550403 1.284371 2.071952 0.000000 0.000000 0.000000
0.432682 1.240471 2.159451 0.000000 0.000000 0.000000
0.559868 1.282442 2.081816 0.000000 0.000000 0.000000
0.562984 1.284318 2.079369 0.000000 0.000000 0.000000
0.561227 1.280733 2.082140 0.000000 0.000000 0.000000
0.564876 1.275761 2.089615 0.000000 0.000000 0.000000
0.567337 1.285434 2.078004 0.000000 0.000000 0.000000
0.567454 1.286763 2.083551 0.000000 0.000000 0.000000
0.575896 1.299040 2.101693 0.000000 0.000000 0.000000
0.575777 1.283004 2.096501 0.000000 0.000000 0.000000
0.570332 1.286597 2.099115 0.000000 0.000000 0.000000
0.576468 1.282206 2.099217 0.000000 0.000000 0.000000
0.575320 1.286207 2.104799 0.000000 0.000000 0.000000
0.564685 1.303306 2.096059 0.000000 0.000000 0.000000
0.566056 1.287132 2.096603 0.000000 0.000000 0.000000
0.528252 1.249734 2.066962 0.000000 0.000000 0.000000
0.529750 1.251999 2.067333 0.000000 0.000000 0.000000
0.565142 1.286321 2.081057 0.000000 0.000000 0.000000
0.437533 1.256730 2.155655 0.000000 0.000000 0.000000
0.524871 1.251208 2.072338 0.000000 0.000000 0.000000
0.436283 1.252896 2.139447 0.000000 0.000000 0.000000
0.573793 1.297789 2.101807 0.000000 0.000000 0.000000
0.435596 1.244968 2.154873 0.000000 0.000000 0.000000
0.559742 1.275720 2.083610 0.000000 0.000000 0.000000
0.575686 1.289874 2.102146 0.000000 0.000000 0.000000
0.521149 1.272684 2.086974 0.000000 0.000000 0.000000
0.522556 1.261033 2.079200 0.000000 0.000000 0.000000
0.524530 1.249980 2.069215 0.000000 0.000000 0.000000
0.523138 1.247721 2.062684 0.000000 0.000000 0.000000
0.531039 1.250002 2.065719 0.000000 0.000000 0.000000
0.528017 1.248370 2.062618 0.000000 0.000000 0.000000
0.524097 1.246111 2.058182 0.000000 0.000000 0.000000
0.432467 1.243134 2.157954 0.000000 0.000000 0.000000
0.529651 1.248072 2.061957 0.000000 0.000000 0.000000
0.531759 1.248313 2.061955 0.000000 0.000000 0.000000
0.572775 1.302234 2.105329 0.000000 0.000000 0.000000
0.541582 1.278417 2.066884 0.000000 0.000000 0.000000
0.530067 1.259119 2.068668 0.000000 0.000000 0.000000
0.543699 1.282046 2.081831 0.000000 0.000000 0.000000
0.544796 1.274412 2.070999 0.000000 0.000000 0.000000
0.546793 1.278688 2.072388 0.000000 0.000000 0.000000
0.551720 1.278091 2.076428 0.000000 0.000000 0.000000
0.541083 1.277452 2.071665 0.000000 0.000000 0.000000
0.536091 1.255212 2.070556 0.000000 0.000000 0.000000
0.547131 1.273733 2.070451 0.000000 0.000000 0.000000
0.542104 1.273136 2.076431 0.000000 0.000000 0.000000
0.550150 1.280492 2.074556 0.000000 0.000000 0.000000
0.538779 1.269836 2.077465 0.000000 0.000000 0.000000
0.524096 1.272714 2.079932 0.000000 0.000000 0.000000
0.544825 1.271635 2.070943 0.000000 0.000000 0.000000
0.548136 1.271829 2.068869 0.000000 0.000000 0.000000
0.547925 1.276111 2.069568 0.000000 0.000000 0.000000
0.555051 1.278069 2.073207 0.000000 0.000000 0.000000
0.575625 1.291521 2.101352 0.000000 0.000000 0.000000
0.575805 1.305365 2.100432 0.000000 0.000000 0.000000
0.569644 1.293205 2.097589 0.000000 0.000000 0.000000
0.437953 1.242769 2.150668 0.000000 0.000000 0.000000
0.560654 1.285009 2.081145 0.000000 0.000000 0.000000
0.537763 1.285137 2.085728 0.000000 0.000000 0.000000
0.547752 1.278015 2.084888 0.000000 0.000000 0.000000
0.561388 1.293091 2.100977 0.000000 0.000000 0.000000
0.575579 1.291780 2.103404 0.000000 0.000000 0.000000
0.573971 1.283724 2.096930 0.000000 0.000000 0.000000
0.565461 1.299117 2.099160 0.000000 0.000000 0.000000
0.558147 1.271539 2.084907 0.000000 0.000000 0.000000
0.533704 1.280879 2.080703 0.000000 0.000000 0.000000
0.433446 1.242358 2.157606 0.000000 0.000000 0.000000
0.552458 1.276228 2.073494 0.000000 0.000000 0.000000
0.538080 1.269040 2.071334 0.000000 0.000000 0.000000
0.522241 1.276033 2.081239 0.000000 0.000000 0.000000
0.560969 1.280804 2.077718 0.000000 0.000000 0.000000
0.533428 1.271050 2.085923 0.000000 0.000000 0.000000
0.535775 1.246492 2.069022 0.000000 0.000000 0.000000
0.437034 1.241553 2.145995 0.000000 0.000000 0.000000
0.573311 1.273302 2.082858 0.000000 0.000000 0.000000
0.567235 1.278197 2.091067 0.000000 0.000000 0.000000
0.537226 1.270681 2.075818 0.000000 0.000000 0.000000
0.550717 1.278424 2.085512 0.000000 0.000000 0.000000
0.537584 1.274101 2.082989 0.000000 0.000000 0.000000
0.547390 1.286552 2.081645 0.000000 0.000000 0.000000
0.554874 1.267479 2.082839 0.000000 0.000000 0.000000
0.565430 1.280306 2.087564 0.000000 0.000000 0.000000
0.569825 1.281633 2.090245 0.000000 0.000000 0.000000
0.435539 1.240110 2.144494 0.000000 0.000000 0.000000
0.563985 1.290697 2.095956 0.000000 0.000000 0.000000
0.562716 1.281079 2.091574 0.000000 0.000000 0.000000
0.547762 1.279586 2.087316 0.000000 0.000000 0.000000
0.566241 1.278446 2.089099 0.000000 0.000000 0.000000
0.540676 1.283242 2.084271 0.000000 0.000000 0.000000
0.554050 1.278101 2.077805 0.000000 0.000000 0.000000
0.526298 1.250876 2.066409 0.000000 0.000000 0.000000
0.578757 1.285048 2.096427 0.000000 0.000000 0.000000
0.528719 1.280679 2.068066 0.000000 0.000000 0.000000
0.530540 1.248037 2.066299 0.000000 0.000000 0.000000
0.571539 1.292371 2.099833 0.000000 0.000000 0.000000
0.431771 1.240985 2.157042 0.000000 0.000000 0.000000
0.572834 1.293983 2.102957 0.000000 0.000000 0.000000
0.525239 1.248372 2.062073 0.000000 0.000000 0.000000
0.436872 1.241501 2.153813 0.000000 0.000000 0.000000
0.432686 1.241271 2.154994 0.000000 0.000000 0.000000
0.530353 1.248988 2.061985 0.000000 0.000000 0.000000
0.533546 1.248477 2.056306 0.000000 0.000000 0.000000
0.561437 1.287385 2.085497 0.000000 0.000000 0.000000
0.522454 1.248433 2.066332 0.000000 0.000000 0.000000
0.527651 1.248631 2.059527 0.000000 0.000000 0.000000
0.528458 1.245960 2.058090 0.000000 0.000000 0.000000
0.432211 1.240522 2.159729 0.000000 0.000000 0.000000
0.527834 1.247788 2.060534 0.000000 0.000000 0.000000
0.525925 1.276310 2.074002 0.000000 0.000000 0.000000
0.576916 1.289167 2.106560 0.000000 0.000000 0.000000
0.439663 1.243140 2.141441 0.000000 0.000000 0.000000
0.526520 1.248599 2.063645 0.000000 0.000000 0.000000
0.582623 1.296095 2.106679 0.000000 0.000000 0.000000
0.543008 1.273183 2.068717 0.000000 0.000000 0.000000
0.552987 1.283181 2.069711 0.000000 0.000000 0.000000
0.540891 1.291872 2.072027 0.000000 0.000000 0.000000
0.536194 1.272090 2.067030 0.000000 0.000000 0.000000
0.441610 1.250902 2.162025 0.000000 0.000000 0.000000
0.581099 1.290249 2.105464 0.000000 0.000000 0.000000
0.536051 1.275720 2.068614 0.000000 0.000000 0.000000
0.549486 1.271919 2.069541 0.000000 0.000000 0.000000
0.534214 1.269215 2.069582 0.000000 0.000000 0.000000
0.543418 1.271972 2.069330 0.000000 0.000000 0.000000
0.440307 1.242567 2.163434 0.000000 0.000000 0.000000
0.442554 1.248403 2.163807 0.000000 0.000000 0.000000
