ply
format ascii 1.0
comment VCGLIB generated
obj_info Generated by SPFormer!
element vertex 95
property float x
property float y
property float z
property float nx
property float ny
property float nz
end_header
0.629594 1.171001 1.593987 0.000000 0.000000 0.000000
0.636421 1.151641 1.548622 0.000000 0.000000 0.000000
0.688563 1.169280 1.529917 0.000000 0.000000 0.000000
0.600171 1.142791 1.546515 0.000000 0.000000 0.000000
0.598522 1.185819 1.577347 0.000000 0.000000 0.000000
0.673795 1.173175 1.527508 0.000000 0.000000 0.000000
0.657162 1.170374 1.535502 0.000000 0.000000 0.000000
0.635766 1.148503 1.536109 0.000000 0.000000 0.000000
0.687030 1.192803 1.514362 0.000000 0.000000 0.000000
0.624203 1.164397 1.537262 0.000000 0.000000 0.000000
0.620648 1.164292 1.552035 0.000000 0.000000 0.000000
0.622799 1.182897 1.572358 0.000000 0.000000 0.000000
0.624757 1.159625 1.529624 0.000000 0.000000 0.000000
0.604829 1.154906 1.526979 0.000000 0.000000 0.000000
0.602191 1.168866 1.563333 0.000000 0.000000 0.000000
0.608308 1.171915 1.540857 0.000000 0.000000 0.000000
0.588045 1.182596 1.575593 0.000000 0.000000 0.000000
0.655693 1.164287 1.541106 0.000000 0.000000 0.000000
0.615650 1.202858 1.548559 0.000000 0.000000 0.000000
0.585382 1.185657 1.587523 0.000000 0.000000 0.000000
0.623284 1.187978 1.549629 0.000000 0.000000 0.000000
0.614190 1.193601 1.562781 0.000000 0.000000 0.000000
0.690722 1.187182 1.523973 0.000000 0.000000 0.000000
0.611816 1.191931 1.578217 0.000000 0.000000 0.000000
0.616513 1.131709 1.559245 0.000000 0.000000 0.000000
0.634547 1.175755 1.554769 0.000000 0.000000 0.000000
0.629768 1.157729 1.538061 0.000000 0.000000 0.000000
0.618184 1.184889 1.532862 0.000000 0.000000 0.000000
0.635956 1.173412 1.551192 0.000000 0.000000 0.000000
0.603257 1.208101 1.551838 0.000000 0.000000 0.000000
0.598660 1.210409 1.563236 0.000000 0.000000 0.000000
0.604867 1.212533 1.540735 0.000000 0.000000 0.000000
0.595647 1.210653 1.548641 0.000000 0.000000 0.000000
0.595187 1.168391 1.587935 0.000000 0.000000 0.000000
0.609438 1.210188 1.550653 0.000000 0.000000 0.000000
0.619954 1.196070 1.534515 0.000000 0.000000 0.000000
0.614311 1.201358 1.532523 0.000000 0.000000 0.000000
0.623046 1.201581 1.569436 0.000000 0.000000 0.000000
0.594302 1.207338 1.580844 0.000000 0.000000 0.000000
0.610386 1.198508 1.546680 0.000000 0.000000 0.000000
0.684752 1.167663 1.525098 0.000000 0.000000 0.000000
0.598952 1.211067 1.541355 0.000000 0.000000 0.000000
0.594368 1.216909 1.557137 0.000000 0.000000 0.000000
0.684351 1.192474 1.523665 0.000000 0.000000 0.000000
0.605302 1.135929 1.538234 0.000000 0.000000 0.000000
0.595125 1.219692 1.574105 0.000000 0.000000 0.000000
0.595398 1.210562 1.543065 0.000000 0.000000 0.000000
0.603293 1.207199 1.577718 0.000000 0.000000 0.000000
0.623092 1.184189 1.593874 0.000000 0.000000 0.000000
0.600039 1.212503 1.577400 0.000000 0.000000 0.000000
0.656299 1.171642 1.548654 0.000000 0.000000 0.000000
0.692174 1.175600 1.518284 0.000000 0.000000 0.000000
0.602819 1.204190 1.570002 0.000000 0.000000 0.000000
0.636422 1.184014 1.585156 0.000000 0.000000 0.000000
0.643548 1.195364 1.593177 0.000000 0.000000 0.000000
0.601388 1.198686 1.594590 0.000000 0.000000 0.000000
0.611916 1.187785 1.546527 0.000000 0.000000 0.000000
0.647676 1.183135 1.567053 0.000000 0.000000 0.000000
0.696839 1.167233 1.528526 0.000000 0.000000 0.000000
0.618832 1.159465 1.527733 0.000000 0.000000 0.000000
0.622210 1.155140 1.530884 0.000000 0.000000 0.000000
0.615976 1.162708 1.588475 0.000000 0.000000 0.000000
0.695124 1.193701 1.527978 0.000000 0.000000 0.000000
0.670693 1.178921 1.526973 0.000000 0.000000 0.000000
0.644334 1.166320 1.539427 0.000000 0.000000 0.000000
0.682527 1.195167 1.511273 0.000000 0.000000 0.000000
0.613212 1.203027 1.536463 0.000000 0.000000 0.000000
0.677380 1.161716 1.599656 0.000000 0.000000 0.000000
0.704606 1.181579 1.539971 0.000000 0.000000 0.000000
0.647130 1.172316 1.563990 0.000000 0.000000 0.000000
0.604573 1.197136 1.539568 0.000000 0.000000 0.000000
0.597183 1.205541 1.585157 0.000000 0.000000 0.000000
0.659668 1.175447 1.556078 0.000000 0.000000 0.000000
0.670775 1.168402 1.549628 0.000000 0.000000 0.000000
0.596380 1.221965 1.550652 0.000000 0.000000 0.000000
0.608122 1.165881 1.593793 0.000000 0.000000 0.000000
0.592171 1.200041 1.585747 0.000000 0.000000 0.000000
0.668488 1.171550 1.550960 0.000000 0.000000 0.000000
0.605893 1.163270 1.541108 0.000000 0.000000 0.000000
0.621785 1.175256 1.536460 0.000000 0.000000 0.000000
0.597108 1.224119 1.547920 0.000000 0.000000 0.000000
0.594391 1.217383 1.547080 0.000000 0.000000 0.000000
0.593933 1.225035 1.562813 0.000000 0.000000 0.000000
0.635041 1.158836 1.557168 0.000000 0.000000 0.000000
0.620714 1.200960 1.569052 0.000000 0.000000 0.000000
0.623650 1.210425 1.553212 0.000000 0.000000 0.000000
0.612216 1.205545 1.528030 0.000000 0.000000 0.000000
0.630266 1.206687 1.572812 0.000000 0.000000 0.000000
0.605819 1.205687 1.531957 0.000000 0.000000 0.000000
0.708857 1.167616 1.489807 0.000000 0.000000 0.000000
0.716753 1.181909 1.528371 0.000000 0.000000 0.000000
0.704111 1.201092 1.526098 0.000000 0.000000 0.000000
0.715058 1.204366 1.529491 0.000000 0.000000 0.000000
0.686696 1.209434 1.516340 0.000000 0.000000 0.000000
0.686052 1.217244 1.508609 0.000000 0.000000 0.000000
