ply
format ascii 1.0
comment VCGLIB generated
obj_info Generated by SPFormer!
element vertex 236
property float x
property float y
property float z
property float nx
property float ny
property float nz
end_header
0.556287 1.297995 1.943439 0.000000 0.000000 0.000000
0.508022 1.331108 1.956984 0.000000 0.000000 0.000000
0.528431 1.304975 1.953882 0.000000 0.000000 0.000000
0.521964 1.293586 1.957391 0.000000 0.000000 0.000000
0.531858 1.288622 1.920268 0.000000 0.000000 0.000000
0.530819 1.304810 1.908333 0.000000 0.000000 0.000000
0.540224 1.297631 1.928781 0.000000 0.000000 0.000000
0.522083 1.284000 1.938892 0.000000 0.000000 0.000000
0.526930 1.286217 1.941354 0.000000 0.000000 0.000000
0.533803 1.286012 1.936525 0.000000 0.000000 0.000000
0.520728 1.293464 1.950621 0.000000 0.000000 0.000000
0.555294 1.280975 1.917634 0.000000 0.000000 0.000000
0.544695 1.316400 1.927417 0.000000 0.000000 0.000000
0.529179 1.310652 1.909211 0.000000 0.000000 0.000000
0.538439 1.303183 1.918821 0.000000 0.000000 0.000000
0.526524 1.288479 1.919988 0.000000 0.000000 0.000000
0.546460 1.282663 1.936781 0.000000 0.000000 0.000000
0.521004 1.291849 1.948074 0.000000 0.000000 0.000000
0.530001 1.298707 1.942034 0.000000 0.000000 0.000000
0.557113 1.301505 1.933570 0.000000 0.000000 0.000000
0.529968 1.280326 1.916483 0.000000 0.000000 0.000000
0.537168 1.293773 1.930011 0.000000 0.000000 0.000000
0.531593 1.316351 1.909170 0.000000 0.000000 0.000000
0.541203 1.285071 1.923608 0.000000 0.000000 0.000000
0.549646 1.303630 1.931080 0.000000 0.000000 0.000000
0.526265 1.299765 1.951087 0.000000 0.000000 0.000000
0.549366 1.281330 1.951658 0.000000 0.000000 0.000000
0.556106 1.304259 1.940136 0.000000 0.000000 0.000000
0.556558 1.302505 1.934029 0.000000 0.000000 0.000000
0.554052 1.308929 1.927384 0.000000 0.000000 0.000000
0.507747 1.338024 1.953476 0.000000 0.000000 0.000000
0.553050 1.280055 1.938808 0.000000 0.000000 0.000000
0.537613 1.293687 1.928541 0.000000 0.000000 0.000000
0.558156 1.281674 1.949891 0.000000 0.000000 0.000000
0.510440 1.341173 1.952247 0.000000 0.000000 0.000000
0.531471 1.285862 1.918094 0.000000 0.000000 0.000000
0.552899 1.284257 1.922790 0.000000 0.000000 0.000000
0.535166 1.284347 1.910388 0.000000 0.000000 0.000000
0.498763 1.336798 1.963466 0.000000 0.000000 0.000000
0.532000 1.312802 1.954621 0.000000 0.000000 0.000000
0.548206 1.281804 1.919658 0.000000 0.000000 0.000000
0.512198 1.329309 1.959188 0.000000 0.000000 0.000000
0.520592 1.318771 1.958447 0.000000 0.000000 0.000000
0.514369 1.293911 1.924351 0.000000 0.000000 0.000000
0.523440 1.302148 1.950792 0.000000 0.000000 0.000000
0.502525 1.336980 1.952134 0.000000 0.000000 0.000000
0.495667 1.328925 1.959575 0.000000 0.000000 0.000000
0.533726 1.305907 1.911592 0.000000 0.000000 0.000000
0.524057 1.308875 1.951554 0.000000 0.000000 0.000000
0.512183 1.322174 1.956108 0.000000 0.000000 0.000000
0.518824 1.294002 1.923598 0.000000 0.000000 0.000000
0.521436 1.287965 1.928234 0.000000 0.000000 0.000000
0.504635 1.339152 1.956207 0.000000 0.000000 0.000000
0.539061 1.300021 1.917172 0.000000 0.000000 0.000000
0.537218 1.306412 1.911155 0.000000 0.000000 0.000000
0.499599 1.340329 1.950071 0.000000 0.000000 0.000000
0.534371 1.296136 1.957681 0.000000 0.000000 0.000000
0.536189 1.297420 1.929956 0.000000 0.000000 0.000000
0.507632 1.335039 1.962409 0.000000 0.000000 0.000000
0.555772 1.287382 1.948517 0.000000 0.000000 0.000000
0.540100 1.311051 1.911660 0.000000 0.000000 0.000000
0.517699 1.280942 1.938561 0.000000 0.000000 0.000000
0.551642 1.289242 1.946625 0.000000 0.000000 0.000000
0.552907 1.283333 1.947845 0.000000 0.000000 0.000000
0.542522 1.297298 1.920478 0.000000 0.000000 0.000000
0.540371 1.307428 1.954487 0.000000 0.000000 0.000000
0.511127 1.288041 1.928550 0.000000 0.000000 0.000000
0.523184 1.287247 1.950649 0.000000 0.000000 0.000000
0.549183 1.290600 1.955901 0.000000 0.000000 0.000000
0.513424 1.292567 1.926833 0.000000 0.000000 0.000000
0.520028 1.292737 1.937101 0.000000 0.000000 0.000000
0.537640 1.285420 1.916198 0.000000 0.000000 0.000000
0.514743 1.283996 1.923201 0.000000 0.000000 0.000000
0.554090 1.288169 1.953278 0.000000 0.000000 0.000000
0.534430 1.290626 1.944427 0.000000 0.000000 0.000000
0.539726 1.286561 1.907989 0.000000 0.000000 0.000000
0.548082 1.308051 1.942697 0.000000 0.000000 0.000000
0.541236 1.281312 1.926578 0.000000 0.000000 0.000000
0.546364 1.298177 1.935067 0.000000 0.000000 0.000000
0.541361 1.301136 1.941165 0.000000 0.000000 0.000000
0.537453 1.304969 1.910925 0.000000 0.000000 0.000000
0.537058 1.309067 1.913228 0.000000 0.000000 0.000000
0.551758 1.304190 1.942572 0.000000 0.000000 0.000000
0.540598 1.289700 1.925913 0.000000 0.000000 0.000000
0.536994 1.303783 1.959315 0.000000 0.000000 0.000000
0.529968 1.313546 1.951493 0.000000 0.000000 0.000000
0.543827 1.313577 1.913002 0.000000 0.000000 0.000000
0.510584 1.329820 1.958318 0.000000 0.000000 0.000000
0.536331 1.301875 1.954393 0.000000 0.000000 0.000000
0.534028 1.308298 1.909559 0.000000 0.000000 0.000000
0.511446 1.330886 1.957236 0.000000 0.000000 0.000000
0.558700 1.292245 1.934039 0.000000 0.000000 0.000000
0.526109 1.304088 1.951736 0.000000 0.000000 0.000000
0.557005 1.302848 1.938992 0.000000 0.000000 0.000000
0.534549 1.309907 1.911770 0.000000 0.000000 0.000000
0.538761 1.307118 1.911717 0.000000 0.000000 0.000000
0.502292 1.333177 1.957583 0.000000 0.000000 0.000000
0.556469 1.292592 1.950373 0.000000 0.000000 0.000000
0.538074 1.298891 1.938135 0.000000 0.000000 0.000000
0.542409 1.295683 1.929281 0.000000 0.000000 0.000000
0.541703 1.300766 1.937823 0.000000 0.000000 0.000000
0.529115 1.283055 1.924260 0.000000 0.000000 0.000000
0.536462 1.303907 1.913980 0.000000 0.000000 0.000000
0.537227 1.305946 1.918744 0.000000 0.000000 0.000000
0.533635 1.308163 1.919852 0.000000 0.000000 0.000000
0.533192 1.313594 1.910135 0.000000 0.000000 0.000000
0.541129 1.300001 1.916102 0.000000 0.000000 0.000000
0.534342 1.284261 1.909879 0.000000 0.000000 0.000000
0.527183 1.312943 1.954891 0.000000 0.000000 0.000000
0.558976 1.302756 1.933957 0.000000 0.000000 0.000000
0.529341 1.307859 1.905159 0.000000 0.000000 0.000000
0.539288 1.288544 1.956885 0.000000 0.000000 0.000000
0.508555 1.340297 1.955704 0.000000 0.000000 0.000000
0.502770 1.336784 1.954001 0.000000 0.000000 0.000000
0.506464 1.324739 1.955701 0.000000 0.000000 0.000000
0.506750 1.330705 1.960047 0.000000 0.000000 0.000000
0.532116 1.304385 1.951982 0.000000 0.000000 0.000000
0.558481 1.304828 1.934119 0.000000 0.000000 0.000000
0.552692 1.302622 1.938030 0.000000 0.000000 0.000000
0.537140 1.307838 1.911914 0.000000 0.000000 0.000000
0.511206 1.287464 1.954586 0.000000 0.000000 0.000000
0.506509 1.288213 1.942864 0.000000 0.000000 0.000000
0.494447 1.335000 1.959066 0.000000 0.000000 0.000000
0.504248 1.333338 1.956385 0.000000 0.000000 0.000000
0.506016 1.331984 1.967191 0.000000 0.000000 0.000000
0.540110 1.287039 1.915410 0.000000 0.000000 0.000000
0.548232 1.281433 1.920053 0.000000 0.000000 0.000000
0.516575 1.314874 1.954900 0.000000 0.000000 0.000000
0.518421 1.286549 1.959122 0.000000 0.000000 0.000000
0.536214 1.280742 1.906834 0.000000 0.000000 0.000000
0.530941 1.283671 1.915420 0.000000 0.000000 0.000000
0.543828 1.284046 1.917344 0.000000 0.000000 0.000000
0.555244 1.283374 1.920121 0.000000 0.000000 0.000000
0.502812 1.326669 1.954490 0.000000 0.000000 0.000000
0.547418 1.297796 1.949201 0.000000 0.000000 0.000000
0.546252 1.292184 1.959150 0.000000 0.000000 0.000000
0.544210 1.280727 1.911958 0.000000 0.000000 0.000000
0.530513 1.303937 1.904761 0.000000 0.000000 0.000000
0.547216 1.306989 1.914468 0.000000 0.000000 0.000000
0.500461 1.332854 1.954735 0.000000 0.000000 0.000000
0.534121 1.309789 1.915324 0.000000 0.000000 0.000000
0.509544 1.332262 1.962189 0.000000 0.000000 0.000000
0.536136 1.312127 1.915091 0.000000 0.000000 0.000000
0.539129 1.313797 1.917527 0.000000 0.000000 0.000000
0.538801 1.301332 1.924158 0.000000 0.000000 0.000000
0.502050 1.340184 1.963074 0.000000 0.000000 0.000000
0.535757 1.311957 1.912323 0.000000 0.000000 0.000000
0.532272 1.311443 1.912692 0.000000 0.000000 0.000000
0.548341 1.302868 1.922564 0.000000 0.000000 0.000000
0.555687 1.307763 1.941253 0.000000 0.000000 0.000000
0.536581 1.286838 1.910299 0.000000 0.000000 0.000000
0.512380 1.330796 1.953224 0.000000 0.000000 0.000000
0.501452 1.338135 1.949032 0.000000 0.000000 0.000000
0.558753 1.297489 1.949549 0.000000 0.000000 0.000000
0.522279 1.290462 1.922438 0.000000 0.000000 0.000000
0.525806 1.286075 1.921636 0.000000 0.000000 0.000000
0.505415 1.330865 1.957242 0.000000 0.000000 0.000000
0.504601 1.331752 1.957140 0.000000 0.000000 0.000000
0.496387 1.330807 1.958151 0.000000 0.000000 0.000000
0.499999 1.337084 1.958417 0.000000 0.000000 0.000000
0.508634 1.327191 1.957898 0.000000 0.000000 0.000000
0.518537 1.293251 1.939731 0.000000 0.000000 0.000000
0.516981 1.280359 1.954209 0.000000 0.000000 0.000000
0.545618 1.299177 1.936264 0.000000 0.000000 0.000000
0.492056 1.330255 1.958555 0.000000 0.000000 0.000000
0.512170 1.296800 1.938508 0.000000 0.000000 0.000000
0.538626 1.301002 1.920733 0.000000 0.000000 0.000000
0.508687 1.322449 1.951386 0.000000 0.000000 0.000000
0.497462 1.334730 1.963121 0.000000 0.000000 0.000000
0.506191 1.335197 1.956668 0.000000 0.000000 0.000000
0.500141 1.331697 1.958971 0.000000 0.000000 0.000000
0.498093 1.332296 1.953185 0.000000 0.000000 0.000000
0.501946 1.333476 1.962429 0.000000 0.000000 0.000000
0.496529 1.327032 1.959557 0.000000 0.000000 0.000000
0.506926 1.330872 1.958709 0.000000 0.000000 0.000000
0.501660 1.328285 1.959804 0.000000 0.000000 0.000000
0.507022 1.332458 1.963315 0.000000 0.000000 0.000000
0.502506 1.334392 1.957167 0.000000 0.000000 0.000000
0.508313 1.326778 1.959671 0.000000 0.000000 0.000000
0.511736 1.326159 1.959647 0.000000 0.000000 0.000000
0.501085 1.328440 1.962089 0.000000 0.000000 0.000000
0.509127 1.334228 1.961771 0.000000 0.000000 0.000000
0.512170 1.327082 1.958301 0.000000 0.000000 0.000000
0.520098 1.328632 1.960889 0.000000 0.000000 0.000000
0.516350 1.325214 1.957678 0.000000 0.000000 0.000000
0.503409 1.326858 1.960013 0.000000 0.000000 0.000000
0.544216 1.299535 1.956575 0.000000 0.000000 0.000000
0.506768 1.281051 1.955913 0.000000 0.000000 0.000000
0.510326 1.285731 1.948117 0.000000 0.000000 0.000000
0.555836 1.300754 1.930977 0.000000 0.000000 0.000000
0.508929 1.292996 1.939947 0.000000 0.000000 0.000000
0.511477 1.329854 1.958531 0.000000 0.000000 0.000000
0.556353 1.303128 1.942500 0.000000 0.000000 0.000000
0.506862 1.328000 1.961555 0.000000 0.000000 0.000000
0.502979 1.336368 1.967555 0.000000 0.000000 0.000000
0.503856 1.337191 1.961318 0.000000 0.000000 0.000000
0.503622 1.334595 1.958918 0.000000 0.000000 0.000000
0.512245 1.330622 1.959256 0.000000 0.000000 0.000000
0.503753 1.334347 1.960973 0.000000 0.000000 0.000000
0.545640 1.302086 1.925246 0.000000 0.000000 0.000000
0.551120 1.305353 1.925955 0.000000 0.000000 0.000000
0.515669 1.293120 1.940608 0.000000 0.000000 0.000000
0.517187 1.286745 1.948157 0.000000 0.000000 0.000000
0.515449 1.323811 1.959774 0.000000 0.000000 0.000000
0.510162 1.330929 1.957031 0.000000 0.000000 0.000000
0.523803 1.323221 1.958679 0.000000 0.000000 0.000000
0.518334 1.303254 1.936384 0.000000 0.000000 0.000000
0.513279 1.325811 1.955734 0.000000 0.000000 0.000000
0.557559 1.308183 1.935512 0.000000 0.000000 0.000000
0.519327 1.324544 1.958457 0.000000 0.000000 0.000000
0.517365 1.305008 1.945108 0.000000 0.000000 0.000000
0.514752 1.288085 1.932290 0.000000 0.000000 0.000000
0.524573 1.296205 1.917421 0.000000 0.000000 0.000000
0.516173 1.291418 1.921608 0.000000 0.000000 0.000000
0.536034 1.306043 1.915903 0.000000 0.000000 0.000000
0.539461 1.309892 1.914943 0.000000 0.000000 0.000000
0.520609 1.292945 1.927567 0.000000 0.000000 0.000000
0.513737 1.297733 1.931367 0.000000 0.000000 0.000000
0.511034 1.287532 1.937401 0.000000 0.000000 0.000000
0.524045 1.296468 1.930755 0.000000 0.000000 0.000000
0.510481 1.300212 1.949999 0.000000 0.000000 0.000000
0.517787 1.288518 1.926379 0.000000 0.000000 0.000000
0.511721 1.294699 1.932867 0.000000 0.000000 0.000000
0.521202 1.292022 1.920512 0.000000 0.000000 0.000000
0.536045 1.308787 1.909476 0.000000 0.000000 0.000000
0.546647 1.302916 1.926554 0.000000 0.000000 0.000000
0.502234 1.333920 1.953868 0.000000 0.000000 0.000000
0.494243 1.331255 1.955022 0.000000 0.000000 0.000000
0.501666 1.344292 1.956332 0.000000 0.000000 0.000000
0.495356 1.339147 1.958722 0.000000 0.000000 0.000000
0.505275 1.336023 1.950925 0.000000 0.000000 0.000000
0.553986 1.301656 1.937813 0.000000 0.000000 0.000000
0.532568 1.311668 1.906933 0.000000 0.000000 0.000000
0.514816 1.322672 1.959534 0.000000 0.000000 0.000000
0.516262 1.326299 1.957154 0.000000 0.000000 0.000000
0.534001 1.316662 1.910507 0.000000 0.000000 0.000000
