ply
format ascii 1.0
comment VCGLIB generated
obj_info Generated by SPFormer!
element vertex 884
property float x
property float y
property float z
property float nx
property float ny
property float nz
end_header
0.763860 1.102924 1.623300 0.000000 0.000000 0.000000
0.767405 1.117495 1.628083 0.000000 0.000000 0.000000
0.628333 1.066856 1.563089 0.000000 0.000000 0.000000
0.760702 1.134917 1.624599 0.000000 0.000000 0.000000
0.771874 1.085866 1.636472 0.000000 0.000000 0.000000
0.784245 1.095088 1.648966 0.000000 0.000000 0.000000
0.746298 1.116303 1.616535 0.000000 0.000000 0.000000
0.801042 1.043387 1.673173 0.000000 0.000000 0.000000
0.752271 1.128276 1.616340 0.000000 0.000000 0.000000
0.786361 1.108066 1.652820 0.000000 0.000000 0.000000
0.676470 1.128691 1.585111 0.000000 0.000000 0.000000
0.806363 1.058917 1.682152 0.000000 0.000000 0.000000
0.645705 0.930673 1.637827 0.000000 0.000000 0.000000
0.641476 0.930687 1.630171 0.000000 0.000000 0.000000
0.613860 0.950030 1.592400 0.000000 0.000000 0.000000
0.783855 1.058142 1.656501 0.000000 0.000000 0.000000
0.638882 1.065014 1.567820 0.000000 0.000000 0.000000
0.792192 1.058660 1.659905 0.000000 0.000000 0.000000
0.679198 1.123656 1.586089 0.000000 0.000000 0.000000
0.672145 1.112051 1.585124 0.000000 0.000000 0.000000
0.781311 1.071939 1.645567 0.000000 0.000000 0.000000
0.666464 1.125578 1.580170 0.000000 0.000000 0.000000
0.758452 1.033828 1.639879 0.000000 0.000000 0.000000
0.612558 1.039556 1.556798 0.000000 0.000000 0.000000
0.642145 1.096307 1.568186 0.000000 0.000000 0.000000
0.797174 0.989040 1.706398 0.000000 0.000000 0.000000
0.740270 1.114602 1.605998 0.000000 0.000000 0.000000
0.793634 1.015678 1.679973 0.000000 0.000000 0.000000
0.752002 1.106518 1.614020 0.000000 0.000000 0.000000
0.657061 1.062841 1.574334 0.000000 0.000000 0.000000
0.792753 1.034250 1.669511 0.000000 0.000000 0.000000
0.732054 1.137407 1.605871 0.000000 0.000000 0.000000
0.809196 1.021843 1.694959 0.000000 0.000000 0.000000
0.700409 1.126288 1.591264 0.000000 0.000000 0.000000
0.656863 0.987179 1.596067 0.000000 0.000000 0.000000
0.732993 1.111169 1.604394 0.000000 0.000000 0.000000
0.745151 1.111423 1.611600 0.000000 0.000000 0.000000
0.657174 1.053737 1.576071 0.000000 0.000000 0.000000
0.642852 1.081385 1.569153 0.000000 0.000000 0.000000
0.751626 1.033213 1.636365 0.000000 0.000000 0.000000
0.715084 1.119125 1.596652 0.000000 0.000000 0.000000
0.654588 0.978814 1.605385 0.000000 0.000000 0.000000
0.808850 1.030855 1.687546 0.000000 0.000000 0.000000
0.738476 1.134238 1.607693 0.000000 0.000000 0.000000
0.798329 0.974950 1.709935 0.000000 0.000000 0.000000
0.627183 0.929999 1.617942 0.000000 0.000000 0.000000
0.640111 0.925442 1.632689 0.000000 0.000000 0.000000
0.637755 0.925742 1.632951 0.000000 0.000000 0.000000
0.717850 1.134959 1.601963 0.000000 0.000000 0.000000
0.644833 0.936916 1.628798 0.000000 0.000000 0.000000
0.642689 0.938984 1.621240 0.000000 0.000000 0.000000
0.675169 1.132943 1.583916 0.000000 0.000000 0.000000
0.640738 0.926251 1.632219 0.000000 0.000000 0.000000
0.658083 0.940857 1.631787 0.000000 0.000000 0.000000
0.631356 0.934683 1.615350 0.000000 0.000000 0.000000
0.794791 0.974307 1.705473 0.000000 0.000000 0.000000
0.651165 1.100342 1.571781 0.000000 0.000000 0.000000
0.627766 0.934110 1.615985 0.000000 0.000000 0.000000
0.721820 1.149453 1.607571 0.000000 0.000000 0.000000
0.608720 1.024964 1.558738 0.000000 0.000000 0.000000
0.656994 1.103206 1.575506 0.000000 0.000000 0.000000
0.685236 1.137505 1.588906 0.000000 0.000000 0.000000
0.655816 0.927907 1.647013 0.000000 0.000000 0.000000
0.625293 1.036940 1.566915 0.000000 0.000000 0.000000
0.805853 1.034925 1.686386 0.000000 0.000000 0.000000
0.811965 1.048162 1.679368 0.000000 0.000000 0.000000
0.634850 0.929709 1.626332 0.000000 0.000000 0.000000
0.746862 1.073553 1.616384 0.000000 0.000000 0.000000
0.628052 0.949444 1.607342 0.000000 0.000000 0.000000
0.750068 1.062586 1.622133 0.000000 0.000000 0.000000
0.629046 1.051567 1.567327 0.000000 0.000000 0.000000
0.783886 1.104830 1.653420 0.000000 0.000000 0.000000
0.785605 1.060917 1.656437 0.000000 0.000000 0.000000
0.801792 1.041860 1.672365 0.000000 0.000000 0.000000
0.629255 0.943516 1.609165 0.000000 0.000000 0.000000
0.686428 1.138257 1.592021 0.000000 0.000000 0.000000
0.733780 1.078066 1.608379 0.000000 0.000000 0.000000
0.621783 1.047695 1.561761 0.000000 0.000000 0.000000
0.615826 0.934045 1.603569 0.000000 0.000000 0.000000
0.775206 1.056809 1.655943 0.000000 0.000000 0.000000
0.723957 0.907125 1.702978 0.000000 0.000000 0.000000
0.743067 0.923375 1.703141 0.000000 0.000000 0.000000
0.716014 0.905634 1.695716 0.000000 0.000000 0.000000
0.798726 1.053470 1.667435 0.000000 0.000000 0.000000
0.730740 0.910447 1.704863 0.000000 0.000000 0.000000
0.797557 0.975802 1.710407 0.000000 0.000000 0.000000
0.803526 1.042818 1.686810 0.000000 0.000000 0.000000
0.796630 0.986365 1.709315 0.000000 0.000000 0.000000
0.796267 0.975557 1.715183 0.000000 0.000000 0.000000
0.635236 1.083412 1.565944 0.000000 0.000000 0.000000
0.661710 1.124985 1.574600 0.000000 0.000000 0.000000
0.702037 1.148995 1.596697 0.000000 0.000000 0.000000
0.729302 1.014573 1.626643 0.000000 0.000000 0.000000
0.741660 1.014969 1.637340 0.000000 0.000000 0.000000
0.792314 1.018602 1.678419 0.000000 0.000000 0.000000
0.605686 0.988475 1.567603 0.000000 0.000000 0.000000
0.799489 0.987899 1.706542 0.000000 0.000000 0.000000
0.758829 0.964745 1.681693 0.000000 0.000000 0.000000
0.765800 0.943890 1.722417 0.000000 0.000000 0.000000
0.800299 1.022447 1.680749 0.000000 0.000000 0.000000
0.796079 0.975596 1.708737 0.000000 0.000000 0.000000
0.715020 1.145337 1.605535 0.000000 0.000000 0.000000
0.798525 0.972713 1.715740 0.000000 0.000000 0.000000
0.607485 0.995909 1.562403 0.000000 0.000000 0.000000
0.603724 0.975199 1.574100 0.000000 0.000000 0.000000
0.716530 1.146284 1.601725 0.000000 0.000000 0.000000
0.598723 0.987229 1.566156 0.000000 0.000000 0.000000
0.774663 0.954062 1.701530 0.000000 0.000000 0.000000
0.599391 1.006175 1.554679 0.000000 0.000000 0.000000
0.695062 1.139160 1.591117 0.000000 0.000000 0.000000
0.770458 0.939989 1.718940 0.000000 0.000000 0.000000
0.749728 1.028363 1.633236 0.000000 0.000000 0.000000
0.753051 1.021050 1.643365 0.000000 0.000000 0.000000
0.799676 0.989732 1.697520 0.000000 0.000000 0.000000
0.613161 0.981448 1.577346 0.000000 0.000000 0.000000
0.798822 0.978361 1.709027 0.000000 0.000000 0.000000
0.607054 0.983166 1.572916 0.000000 0.000000 0.000000
0.804707 1.008191 1.697664 0.000000 0.000000 0.000000
0.736742 0.983280 1.654809 0.000000 0.000000 0.000000
0.795830 0.991899 1.703451 0.000000 0.000000 0.000000
0.713668 1.142570 1.600076 0.000000 0.000000 0.000000
0.786581 0.954448 1.723591 0.000000 0.000000 0.000000
0.802451 0.994445 1.702472 0.000000 0.000000 0.000000
0.770187 1.038580 1.646537 0.000000 0.000000 0.000000
0.791255 0.994333 1.696372 0.000000 0.000000 0.000000
0.601780 0.982948 1.568696 0.000000 0.000000 0.000000
0.682384 1.134720 1.588028 0.000000 0.000000 0.000000
0.604895 0.972207 1.577074 0.000000 0.000000 0.000000
0.782856 0.990174 1.703563 0.000000 0.000000 0.000000
0.720802 1.134675 1.609910 0.000000 0.000000 0.000000
0.785675 0.946658 1.723848 0.000000 0.000000 0.000000
0.710978 1.146111 1.599941 0.000000 0.000000 0.000000
0.641358 0.923582 1.668904 0.000000 0.000000 0.000000
0.784931 0.945449 1.726859 0.000000 0.000000 0.000000
0.791188 0.975339 1.707229 0.000000 0.000000 0.000000
0.666125 0.938019 1.639949 0.000000 0.000000 0.000000
0.683960 1.135345 1.588016 0.000000 0.000000 0.000000
0.646711 1.066525 1.572837 0.000000 0.000000 0.000000
0.678957 1.134464 1.586420 0.000000 0.000000 0.000000
0.695296 1.124533 1.592687 0.000000 0.000000 0.000000
0.761384 1.137091 1.621245 0.000000 0.000000 0.000000
0.677264 1.136300 1.585414 0.000000 0.000000 0.000000
0.648161 0.925744 1.661006 0.000000 0.000000 0.000000
0.735369 1.106527 1.606929 0.000000 0.000000 0.000000
0.767528 0.924966 1.726490 0.000000 0.000000 0.000000
0.723484 1.147904 1.606328 0.000000 0.000000 0.000000
0.758172 1.136122 1.619307 0.000000 0.000000 0.000000
0.732436 1.102564 1.603348 0.000000 0.000000 0.000000
0.627900 1.055190 1.562685 0.000000 0.000000 0.000000
0.735748 1.129891 1.605281 0.000000 0.000000 0.000000
0.699757 1.141239 1.595667 0.000000 0.000000 0.000000
0.802717 1.064997 1.669066 0.000000 0.000000 0.000000
0.680879 1.137184 1.587430 0.000000 0.000000 0.000000
0.609937 1.013898 1.559420 0.000000 0.000000 0.000000
0.610457 0.996060 1.562608 0.000000 0.000000 0.000000
0.798911 1.039343 1.674281 0.000000 0.000000 0.000000
0.787449 1.019849 1.679964 0.000000 0.000000 0.000000
0.683305 0.938113 1.654791 0.000000 0.000000 0.000000
0.681956 1.141104 1.583399 0.000000 0.000000 0.000000
0.610636 1.007437 1.559412 0.000000 0.000000 0.000000
0.805928 1.053208 1.677947 0.000000 0.000000 0.000000
0.705467 0.956361 1.651840 0.000000 0.000000 0.000000
0.651018 0.928260 1.660494 0.000000 0.000000 0.000000
0.651676 1.101073 1.575562 0.000000 0.000000 0.000000
0.665779 0.931047 1.642831 0.000000 0.000000 0.000000
0.643934 0.933879 1.629314 0.000000 0.000000 0.000000
0.632315 0.926515 1.626511 0.000000 0.000000 0.000000
0.646283 0.929496 1.633923 0.000000 0.000000 0.000000
0.605632 0.956438 1.585799 0.000000 0.000000 0.000000
0.658934 1.111544 1.576873 0.000000 0.000000 0.000000
0.804271 0.991448 1.703613 0.000000 0.000000 0.000000
0.798694 0.988225 1.709241 0.000000 0.000000 0.000000
0.630841 0.940637 1.613894 0.000000 0.000000 0.000000
0.613338 1.028044 1.558982 0.000000 0.000000 0.000000
0.795618 0.997985 1.697264 0.000000 0.000000 0.000000
0.666904 1.126751 1.580611 0.000000 0.000000 0.000000
0.608572 0.954109 1.591360 0.000000 0.000000 0.000000
0.796542 0.984094 1.706053 0.000000 0.000000 0.000000
0.799201 0.994495 1.703935 0.000000 0.000000 0.000000
0.653498 1.108748 1.576050 0.000000 0.000000 0.000000
0.791577 1.096321 1.659413 0.000000 0.000000 0.000000
0.629978 1.041939 1.569081 0.000000 0.000000 0.000000
0.670315 1.119447 1.577673 0.000000 0.000000 0.000000
0.788827 1.040302 1.672609 0.000000 0.000000 0.000000
0.627856 0.928614 1.621175 0.000000 0.000000 0.000000
0.618361 0.931868 1.608203 0.000000 0.000000 0.000000
0.614942 0.940897 1.602377 0.000000 0.000000 0.000000
0.602873 0.956385 1.583542 0.000000 0.000000 0.000000
0.615600 0.942004 1.603727 0.000000 0.000000 0.000000
0.627884 0.927844 1.621462 0.000000 0.000000 0.000000
0.701563 1.149053 1.596441 0.000000 0.000000 0.000000
0.757215 1.140202 1.621740 0.000000 0.000000 0.000000
0.709437 1.150322 1.600036 0.000000 0.000000 0.000000
0.643893 0.924235 1.652484 0.000000 0.000000 0.000000
0.598571 1.006906 1.555667 0.000000 0.000000 0.000000
0.658364 1.118507 1.575574 0.000000 0.000000 0.000000
0.619568 0.934109 1.609451 0.000000 0.000000 0.000000
0.769161 1.128643 1.622523 0.000000 0.000000 0.000000
0.719054 1.150247 1.603512 0.000000 0.000000 0.000000
0.626106 0.937378 1.613318 0.000000 0.000000 0.000000
0.744607 1.149716 1.615595 0.000000 0.000000 0.000000
0.696003 1.141664 1.594353 0.000000 0.000000 0.000000
0.604971 0.961298 1.582328 0.000000 0.000000 0.000000
0.739451 1.150678 1.612433 0.000000 0.000000 0.000000
0.709758 1.133410 1.595761 0.000000 0.000000 0.000000
0.703408 1.089716 1.599861 0.000000 0.000000 0.000000
0.707134 1.140304 1.596669 0.000000 0.000000 0.000000
0.688832 1.143983 1.589995 0.000000 0.000000 0.000000
0.709160 1.085732 1.594742 0.000000 0.000000 0.000000
0.599216 0.972030 1.573864 0.000000 0.000000 0.000000
0.796852 1.082865 1.666651 0.000000 0.000000 0.000000
0.633961 0.925741 1.628721 0.000000 0.000000 0.000000
0.619668 0.934485 1.609819 0.000000 0.000000 0.000000
0.625350 0.926436 1.618707 0.000000 0.000000 0.000000
0.732803 1.149906 1.608243 0.000000 0.000000 0.000000
0.748456 1.147786 1.616978 0.000000 0.000000 0.000000
0.672144 0.920345 1.654897 0.000000 0.000000 0.000000
0.788370 1.115190 1.655638 0.000000 0.000000 0.000000
0.690679 0.920801 1.660035 0.000000 0.000000 0.000000
0.811281 1.025375 1.689717 0.000000 0.000000 0.000000
0.736733 1.151590 1.609879 0.000000 0.000000 0.000000
0.639382 1.090668 1.566732 0.000000 0.000000 0.000000
0.643758 1.089201 1.565759 0.000000 0.000000 0.000000
0.730372 1.149627 1.604819 0.000000 0.000000 0.000000
0.807851 1.053605 1.678218 0.000000 0.000000 0.000000
0.757871 1.127395 1.620131 0.000000 0.000000 0.000000
0.720012 1.154591 1.602917 0.000000 0.000000 0.000000
0.800557 1.054675 1.674510 0.000000 0.000000 0.000000
0.636599 1.074802 1.568364 0.000000 0.000000 0.000000
0.788469 1.045059 1.665114 0.000000 0.000000 0.000000
0.737130 1.146518 1.615205 0.000000 0.000000 0.000000
0.752588 1.141731 1.617514 0.000000 0.000000 0.000000
0.769115 1.130998 1.632249 0.000000 0.000000 0.000000
0.631586 1.077381 1.566281 0.000000 0.000000 0.000000
0.713783 1.152300 1.601124 0.000000 0.000000 0.000000
0.786628 1.045401 1.669272 0.000000 0.000000 0.000000
0.793882 1.049786 1.678525 0.000000 0.000000 0.000000
0.726211 1.150243 1.606356 0.000000 0.000000 0.000000
0.650440 0.928917 1.656337 0.000000 0.000000 0.000000
0.731599 1.152844 1.605488 0.000000 0.000000 0.000000
0.613428 1.024432 1.561248 0.000000 0.000000 0.000000
0.780180 1.115495 1.639435 0.000000 0.000000 0.000000
0.776775 1.120532 1.637186 0.000000 0.000000 0.000000
0.656449 0.930276 1.652460 0.000000 0.000000 0.000000
0.720378 0.902519 1.699048 0.000000 0.000000 0.000000
0.653988 0.925196 1.648446 0.000000 0.000000 0.000000
0.597103 0.996334 1.560929 0.000000 0.000000 0.000000
0.608699 1.030225 1.554712 0.000000 0.000000 0.000000
0.715573 0.905321 1.703107 0.000000 0.000000 0.000000
0.763642 1.122055 1.625478 0.000000 0.000000 0.000000
0.653237 1.110123 1.570645 0.000000 0.000000 0.000000
0.720446 0.905117 1.712194 0.000000 0.000000 0.000000
0.607601 1.000256 1.566139 0.000000 0.000000 0.000000
0.610503 1.026660 1.559117 0.000000 0.000000 0.000000
0.603255 1.007741 1.558014 0.000000 0.000000 0.000000
0.597753 0.971639 1.574011 0.000000 0.000000 0.000000
0.603824 0.998395 1.565317 0.000000 0.000000 0.000000
0.599039 0.987837 1.563661 0.000000 0.000000 0.000000
0.606209 1.013265 1.558182 0.000000 0.000000 0.000000
0.787277 1.102759 1.651290 0.000000 0.000000 0.000000
0.791524 1.093993 1.660248 0.000000 0.000000 0.000000
0.791311 1.100704 1.658657 0.000000 0.000000 0.000000
0.597717 1.018499 1.553119 0.000000 0.000000 0.000000
0.648728 0.930476 1.638157 0.000000 0.000000 0.000000
0.741779 0.909907 1.718027 0.000000 0.000000 0.000000
0.786059 1.109432 1.655738 0.000000 0.000000 0.000000
0.812434 1.030311 1.686075 0.000000 0.000000 0.000000
0.609171 1.028632 1.555876 0.000000 0.000000 0.000000
0.783980 1.098738 1.644781 0.000000 0.000000 0.000000
0.783633 1.104421 1.655855 0.000000 0.000000 0.000000
0.655247 1.111046 1.576941 0.000000 0.000000 0.000000
0.792742 1.104753 1.658551 0.000000 0.000000 0.000000
0.607557 1.015019 1.559988 0.000000 0.000000 0.000000
0.599092 0.994660 1.563310 0.000000 0.000000 0.000000
0.787159 1.100366 1.652439 0.000000 0.000000 0.000000
0.792018 1.086570 1.651763 0.000000 0.000000 0.000000
0.751675 0.924709 1.710541 0.000000 0.000000 0.000000
0.793008 1.102429 1.655553 0.000000 0.000000 0.000000
0.643116 0.926866 1.632064 0.000000 0.000000 0.000000
0.670366 1.130034 1.580664 0.000000 0.000000 0.000000
0.660249 1.099242 1.576409 0.000000 0.000000 0.000000
0.662185 1.108941 1.579217 0.000000 0.000000 0.000000
0.657641 1.094647 1.577142 0.000000 0.000000 0.000000
0.646762 0.925815 1.659089 0.000000 0.000000 0.000000
0.675231 1.115294 1.585290 0.000000 0.000000 0.000000
0.664977 1.123664 1.580086 0.000000 0.000000 0.000000
0.639155 1.088635 1.568873 0.000000 0.000000 0.000000
0.661308 1.107390 1.579416 0.000000 0.000000 0.000000
0.651854 0.929385 1.660391 0.000000 0.000000 0.000000
0.643404 0.926077 1.662427 0.000000 0.000000 0.000000
0.649290 1.100784 1.573538 0.000000 0.000000 0.000000
0.663413 1.114722 1.580511 0.000000 0.000000 0.000000
0.650602 1.102513 1.573537 0.000000 0.000000 0.000000
0.648383 0.925180 1.657055 0.000000 0.000000 0.000000
0.650188 1.106974 1.573546 0.000000 0.000000 0.000000
0.643230 0.923639 1.663015 0.000000 0.000000 0.000000
0.677426 1.129511 1.580037 0.000000 0.000000 0.000000
0.603700 1.013556 1.551737 0.000000 0.000000 0.000000
0.676085 1.127693 1.587316 0.000000 0.000000 0.000000
0.640129 0.930708 1.630331 0.000000 0.000000 0.000000
0.610039 0.982047 1.575384 0.000000 0.000000 0.000000
0.611114 1.002385 1.565943 0.000000 0.000000 0.000000
0.677267 1.130719 1.586626 0.000000 0.000000 0.000000
0.608798 0.998757 1.567604 0.000000 0.000000 0.000000
0.608672 0.992795 1.570104 0.000000 0.000000 0.000000
0.629889 1.078573 1.561307 0.000000 0.000000 0.000000
0.658478 1.118221 1.572896 0.000000 0.000000 0.000000
0.645992 0.922811 1.656965 0.000000 0.000000 0.000000
0.781627 1.105559 1.651203 0.000000 0.000000 0.000000
0.599674 0.984794 1.568667 0.000000 0.000000 0.000000
0.604980 0.963760 1.582256 0.000000 0.000000 0.000000
0.728295 1.152969 1.606501 0.000000 0.000000 0.000000
0.663538 1.076485 1.578101 0.000000 0.000000 0.000000
0.657220 1.055907 1.579690 0.000000 0.000000 0.000000
0.702640 0.953105 1.644777 0.000000 0.000000 0.000000
0.658012 1.083796 1.575779 0.000000 0.000000 0.000000
0.655333 1.113250 1.575074 0.000000 0.000000 0.000000
0.637145 1.090158 1.568721 0.000000 0.000000 0.000000
0.624591 1.060643 1.560703 0.000000 0.000000 0.000000
0.654203 1.092826 1.574373 0.000000 0.000000 0.000000
0.685727 1.141686 1.590405 0.000000 0.000000 0.000000
0.656011 1.110806 1.575737 0.000000 0.000000 0.000000
0.793635 1.062978 1.673491 0.000000 0.000000 0.000000
0.807869 1.054894 1.679505 0.000000 0.000000 0.000000
0.806294 1.008062 1.700354 0.000000 0.000000 0.000000
0.608609 0.962721 1.583207 0.000000 0.000000 0.000000
0.746188 0.916076 1.722607 0.000000 0.000000 0.000000
0.780973 1.126233 1.640227 0.000000 0.000000 0.000000
0.734084 1.152209 1.609653 0.000000 0.000000 0.000000
0.609407 0.954390 1.589102 0.000000 0.000000 0.000000
0.724225 1.150261 1.608133 0.000000 0.000000 0.000000
0.779322 0.946430 1.718711 0.000000 0.000000 0.000000
0.654243 1.112639 1.576141 0.000000 0.000000 0.000000
0.724012 0.901890 1.715521 0.000000 0.000000 0.000000
0.673468 1.131389 1.584262 0.000000 0.000000 0.000000
0.618387 0.937513 1.606266 0.000000 0.000000 0.000000
0.749355 0.916580 1.729038 0.000000 0.000000 0.000000
0.603979 1.024380 1.553610 0.000000 0.000000 0.000000
0.655063 1.116527 1.575175 0.000000 0.000000 0.000000
0.614174 0.954583 1.593721 0.000000 0.000000 0.000000
0.747568 1.139550 1.613440 0.000000 0.000000 0.000000
0.694248 1.144549 1.594384 0.000000 0.000000 0.000000
0.748500 1.147394 1.615556 0.000000 0.000000 0.000000
0.780045 1.120876 1.645230 0.000000 0.000000 0.000000
0.765780 1.134099 1.627163 0.000000 0.000000 0.000000
0.602893 0.967614 1.576578 0.000000 0.000000 0.000000
0.714808 1.150767 1.602179 0.000000 0.000000 0.000000
0.606563 0.946447 1.591201 0.000000 0.000000 0.000000
0.744130 1.132238 1.611237 0.000000 0.000000 0.000000
0.753292 1.137765 1.616871 0.000000 0.000000 0.000000
0.744991 1.135305 1.615993 0.000000 0.000000 0.000000
0.763610 1.136371 1.624688 0.000000 0.000000 0.000000
0.756664 1.135045 1.617777 0.000000 0.000000 0.000000
0.710935 0.899285 1.694898 0.000000 0.000000 0.000000
0.599331 0.977738 1.570989 0.000000 0.000000 0.000000
0.619448 1.058665 1.562554 0.000000 0.000000 0.000000
0.617941 1.036169 1.561779 0.000000 0.000000 0.000000
0.611403 0.946814 1.595944 0.000000 0.000000 0.000000
0.695926 1.142622 1.593442 0.000000 0.000000 0.000000
0.729945 1.150232 1.606630 0.000000 0.000000 0.000000
0.756338 1.129910 1.619287 0.000000 0.000000 0.000000
0.771778 1.124939 1.630293 0.000000 0.000000 0.000000
0.611650 1.042925 1.556155 0.000000 0.000000 0.000000
0.737573 0.905007 1.718717 0.000000 0.000000 0.000000
0.706575 0.897789 1.697481 0.000000 0.000000 0.000000
0.738415 1.143698 1.610248 0.000000 0.000000 0.000000
0.751375 1.133733 1.619301 0.000000 0.000000 0.000000
0.742385 1.142800 1.610249 0.000000 0.000000 0.000000
0.754384 1.107063 1.620792 0.000000 0.000000 0.000000
0.742158 1.138230 1.612055 0.000000 0.000000 0.000000
0.738168 1.148422 1.604995 0.000000 0.000000 0.000000
0.682258 0.934333 1.648865 0.000000 0.000000 0.000000
0.689598 0.941998 1.652510 0.000000 0.000000 0.000000
0.731315 0.937865 1.680267 0.000000 0.000000 0.000000
0.738014 1.139061 1.607554 0.000000 0.000000 0.000000
0.663819 0.922166 1.651866 0.000000 0.000000 0.000000
0.697824 0.920738 1.664873 0.000000 0.000000 0.000000
0.747359 1.137416 1.606167 0.000000 0.000000 0.000000
0.671456 0.920151 1.655795 0.000000 0.000000 0.000000
0.628424 0.927736 1.626066 0.000000 0.000000 0.000000
0.638205 1.079300 1.565646 0.000000 0.000000 0.000000
0.606764 1.031628 1.553383 0.000000 0.000000 0.000000
0.605512 0.949264 1.586657 0.000000 0.000000 0.000000
0.764563 0.943164 1.711304 0.000000 0.000000 0.000000
0.797626 1.023072 1.684105 0.000000 0.000000 0.000000
0.752629 0.940512 1.695133 0.000000 0.000000 0.000000
0.773079 0.989846 1.674686 0.000000 0.000000 0.000000
0.780586 0.962850 1.705211 0.000000 0.000000 0.000000
0.622431 1.023971 1.567907 0.000000 0.000000 0.000000
0.641765 1.028260 1.576314 0.000000 0.000000 0.000000
0.787579 1.073236 1.642404 0.000000 0.000000 0.000000
0.595203 1.010133 1.558780 0.000000 0.000000 0.000000
0.769805 1.119082 1.632681 0.000000 0.000000 0.000000
0.735007 0.941525 1.680773 0.000000 0.000000 0.000000
0.754881 0.976691 1.675904 0.000000 0.000000 0.000000
0.612907 1.018375 1.563166 0.000000 0.000000 0.000000
0.773624 1.008538 1.673673 0.000000 0.000000 0.000000
0.626431 0.965698 1.596774 0.000000 0.000000 0.000000
0.785952 0.954498 1.719297 0.000000 0.000000 0.000000
0.769275 0.960674 1.692102 0.000000 0.000000 0.000000
0.621063 1.060909 1.564051 0.000000 0.000000 0.000000
0.599263 1.006087 1.557578 0.000000 0.000000 0.000000
0.726750 0.903097 1.705530 0.000000 0.000000 0.000000
0.598185 1.011599 1.554919 0.000000 0.000000 0.000000
0.638018 1.093995 1.568210 0.000000 0.000000 0.000000
0.760666 0.971967 1.671903 0.000000 0.000000 0.000000
0.798177 1.010336 1.685193 0.000000 0.000000 0.000000
0.788098 0.964691 1.707976 0.000000 0.000000 0.000000
0.767459 0.971083 1.677694 0.000000 0.000000 0.000000
0.768758 0.977966 1.675925 0.000000 0.000000 0.000000
0.615551 0.987926 1.570888 0.000000 0.000000 0.000000
0.632057 1.001066 1.578502 0.000000 0.000000 0.000000
0.791911 1.073828 1.656172 0.000000 0.000000 0.000000
0.762532 1.127092 1.631171 0.000000 0.000000 0.000000
0.745558 0.930894 1.697647 0.000000 0.000000 0.000000
0.737509 0.971210 1.663307 0.000000 0.000000 0.000000
0.726366 0.976950 1.652145 0.000000 0.000000 0.000000
0.608838 1.014455 1.560443 0.000000 0.000000 0.000000
0.776527 1.030791 1.667555 0.000000 0.000000 0.000000
0.761287 0.935744 1.708198 0.000000 0.000000 0.000000
0.741045 0.922882 1.702643 0.000000 0.000000 0.000000
0.603802 1.013175 1.554240 0.000000 0.000000 0.000000
0.734460 0.903750 1.713322 0.000000 0.000000 0.000000
0.639983 1.045761 1.574121 0.000000 0.000000 0.000000
0.810535 1.006993 1.698505 0.000000 0.000000 0.000000
0.745896 1.152331 1.612976 0.000000 0.000000 0.000000
0.742583 0.915142 1.724104 0.000000 0.000000 0.000000
0.604593 1.021315 1.555000 0.000000 0.000000 0.000000
0.787309 0.959435 1.717513 0.000000 0.000000 0.000000
0.808272 1.015293 1.698024 0.000000 0.000000 0.000000
0.610449 1.021433 1.560603 0.000000 0.000000 0.000000
0.801622 1.010109 1.692987 0.000000 0.000000 0.000000
0.751195 0.920170 1.716666 0.000000 0.000000 0.000000
0.791614 0.957338 1.720150 0.000000 0.000000 0.000000
0.807433 1.005274 1.701301 0.000000 0.000000 0.000000
0.803824 0.989996 1.706446 0.000000 0.000000 0.000000
0.621049 1.055559 1.552021 0.000000 0.000000 0.000000
0.793130 0.962713 1.717934 0.000000 0.000000 0.000000
0.799097 1.005606 1.685822 0.000000 0.000000 0.000000
0.787472 0.957612 1.714919 0.000000 0.000000 0.000000
0.807637 1.011728 1.698783 0.000000 0.000000 0.000000
0.626435 1.064678 1.562284 0.000000 0.000000 0.000000
0.636903 0.927703 1.630257 0.000000 0.000000 0.000000
0.787216 1.103706 1.655841 0.000000 0.000000 0.000000
0.795036 1.058369 1.671921 0.000000 0.000000 0.000000
0.708485 0.899864 1.700770 0.000000 0.000000 0.000000
0.749614 0.908062 1.722029 0.000000 0.000000 0.000000
0.790614 1.078176 1.664476 0.000000 0.000000 0.000000
0.757351 0.922125 1.725460 0.000000 0.000000 0.000000
0.797658 1.088599 1.664257 0.000000 0.000000 0.000000
0.647892 1.072677 1.570455 0.000000 0.000000 0.000000
0.792556 1.082003 1.668503 0.000000 0.000000 0.000000
0.791112 1.088828 1.664190 0.000000 0.000000 0.000000
0.716196 0.907967 1.691326 0.000000 0.000000 0.000000
0.766607 1.124523 1.625160 0.000000 0.000000 0.000000
0.721193 0.912500 1.691229 0.000000 0.000000 0.000000
0.776963 1.063504 1.669473 0.000000 0.000000 0.000000
0.795632 1.096483 1.661721 0.000000 0.000000 0.000000
0.749017 0.930006 1.701639 0.000000 0.000000 0.000000
0.778121 1.105275 1.639437 0.000000 0.000000 0.000000
0.635607 1.064545 1.569611 0.000000 0.000000 0.000000
0.729935 0.904055 1.712618 0.000000 0.000000 0.000000
0.716211 0.902890 1.694708 0.000000 0.000000 0.000000
0.704126 0.901314 1.709297 0.000000 0.000000 0.000000
0.709440 0.900836 1.705063 0.000000 0.000000 0.000000
0.703805 0.902966 1.683300 0.000000 0.000000 0.000000
0.751491 0.940598 1.696528 0.000000 0.000000 0.000000
0.631330 0.953249 1.606670 0.000000 0.000000 0.000000
0.786407 1.079755 1.656743 0.000000 0.000000 0.000000
0.746574 0.912369 1.719769 0.000000 0.000000 0.000000
0.796526 1.088756 1.665620 0.000000 0.000000 0.000000
0.646843 1.086505 1.571462 0.000000 0.000000 0.000000
0.801702 1.078281 1.671104 0.000000 0.000000 0.000000
0.707309 0.902069 1.692711 0.000000 0.000000 0.000000
0.778317 1.103289 1.643936 0.000000 0.000000 0.000000
0.761750 1.134381 1.623877 0.000000 0.000000 0.000000
0.728749 0.911877 1.707911 0.000000 0.000000 0.000000
0.784385 1.068108 1.662344 0.000000 0.000000 0.000000
0.635978 1.076504 1.566306 0.000000 0.000000 0.000000
0.727145 0.901954 1.715240 0.000000 0.000000 0.000000
0.715148 0.907047 1.705192 0.000000 0.000000 0.000000
0.710024 0.898123 1.687203 0.000000 0.000000 0.000000
0.750960 0.953226 1.683198 0.000000 0.000000 0.000000
0.637264 0.947796 1.615339 0.000000 0.000000 0.000000
0.613109 0.943240 1.597636 0.000000 0.000000 0.000000
0.753819 1.116530 1.615981 0.000000 0.000000 0.000000
0.621861 0.933339 1.611086 0.000000 0.000000 0.000000
0.797739 1.067355 1.666712 0.000000 0.000000 0.000000
0.636460 0.927287 1.628419 0.000000 0.000000 0.000000
0.795495 1.086395 1.662363 0.000000 0.000000 0.000000
0.773640 1.088632 1.638116 0.000000 0.000000 0.000000
0.793917 1.065381 1.660530 0.000000 0.000000 0.000000
0.615777 0.945584 1.599483 0.000000 0.000000 0.000000
0.797340 1.069195 1.671527 0.000000 0.000000 0.000000
0.778362 1.123294 1.637204 0.000000 0.000000 0.000000
0.803080 1.069455 1.672235 0.000000 0.000000 0.000000
0.736459 0.906544 1.710643 0.000000 0.000000 0.000000
0.782369 1.124609 1.650015 0.000000 0.000000 0.000000
0.608883 0.950770 1.590383 0.000000 0.000000 0.000000
0.628200 1.067552 1.566144 0.000000 0.000000 0.000000
0.794358 1.087274 1.660751 0.000000 0.000000 0.000000
0.804087 1.056206 1.673241 0.000000 0.000000 0.000000
0.691126 1.108453 1.588862 0.000000 0.000000 0.000000
0.762991 1.088117 1.631384 0.000000 0.000000 0.000000
0.790619 1.077030 1.670284 0.000000 0.000000 0.000000
0.762725 1.139988 1.624305 0.000000 0.000000 0.000000
0.728010 0.908657 1.718389 0.000000 0.000000 0.000000
0.616856 1.052374 1.558935 0.000000 0.000000 0.000000
0.786373 1.090995 1.650014 0.000000 0.000000 0.000000
0.791369 1.071454 1.670009 0.000000 0.000000 0.000000
0.793139 1.089144 1.666081 0.000000 0.000000 0.000000
0.803223 0.988553 1.708378 0.000000 0.000000 0.000000
0.792423 0.982863 1.704271 0.000000 0.000000 0.000000
0.810336 1.020368 1.689559 0.000000 0.000000 0.000000
0.808077 1.036556 1.689336 0.000000 0.000000 0.000000
0.625938 0.931864 1.616521 0.000000 0.000000 0.000000
0.605333 0.954958 1.585522 0.000000 0.000000 0.000000
0.805446 1.061384 1.676015 0.000000 0.000000 0.000000
0.800398 1.074676 1.672896 0.000000 0.000000 0.000000
0.805697 1.029686 1.681675 0.000000 0.000000 0.000000
0.803403 1.067291 1.673288 0.000000 0.000000 0.000000
0.617241 0.951533 1.599218 0.000000 0.000000 0.000000
0.798859 1.076846 1.670688 0.000000 0.000000 0.000000
0.810515 1.034347 1.688008 0.000000 0.000000 0.000000
0.628479 1.056040 1.565403 0.000000 0.000000 0.000000
0.800368 1.080461 1.663112 0.000000 0.000000 0.000000
0.801895 1.027342 1.680238 0.000000 0.000000 0.000000
0.802657 1.074852 1.671572 0.000000 0.000000 0.000000
0.610044 0.963378 1.583682 0.000000 0.000000 0.000000
0.802937 1.070853 1.673771 0.000000 0.000000 0.000000
0.810278 1.023939 1.694996 0.000000 0.000000 0.000000
0.798198 1.082615 1.662892 0.000000 0.000000 0.000000
0.782511 0.964957 1.710068 0.000000 0.000000 0.000000
0.704572 1.139255 1.599773 0.000000 0.000000 0.000000
0.622641 0.943014 1.602249 0.000000 0.000000 0.000000
0.760686 0.929431 1.729115 0.000000 0.000000 0.000000
0.772933 0.937055 1.729460 0.000000 0.000000 0.000000
0.613827 0.943899 1.598984 0.000000 0.000000 0.000000
0.758114 0.926885 1.728736 0.000000 0.000000 0.000000
0.781333 0.945107 1.726202 0.000000 0.000000 0.000000
0.778033 0.945051 1.728358 0.000000 0.000000 0.000000
0.604809 1.005041 1.555286 0.000000 0.000000 0.000000
0.726898 1.144574 1.606256 0.000000 0.000000 0.000000
0.801231 1.064478 1.670985 0.000000 0.000000 0.000000
0.789385 1.084795 1.666944 0.000000 0.000000 0.000000
0.613264 0.938607 1.601403 0.000000 0.000000 0.000000
0.804397 1.031864 1.684199 0.000000 0.000000 0.000000
0.810800 1.036654 1.684820 0.000000 0.000000 0.000000
0.805366 1.030918 1.686436 0.000000 0.000000 0.000000
0.806337 1.025004 1.683040 0.000000 0.000000 0.000000
0.807901 1.031272 1.687100 0.000000 0.000000 0.000000
0.597245 0.957853 1.577096 0.000000 0.000000 0.000000
0.602045 1.023241 1.556043 0.000000 0.000000 0.000000
0.598822 0.969317 1.575764 0.000000 0.000000 0.000000
0.628099 1.064723 1.563802 0.000000 0.000000 0.000000
0.620712 1.061075 1.561710 0.000000 0.000000 0.000000
0.708950 0.901312 1.693560 0.000000 0.000000 0.000000
0.791345 1.091566 1.665450 0.000000 0.000000 0.000000
0.799710 1.040454 1.679471 0.000000 0.000000 0.000000
0.806770 1.027455 1.685043 0.000000 0.000000 0.000000
0.808880 1.040927 1.679768 0.000000 0.000000 0.000000
0.598175 1.004225 1.558744 0.000000 0.000000 0.000000
0.661815 1.124376 1.577873 0.000000 0.000000 0.000000
0.633624 1.073937 1.566416 0.000000 0.000000 0.000000
0.707468 0.900238 1.686742 0.000000 0.000000 0.000000
0.592467 0.987770 1.559410 0.000000 0.000000 0.000000
0.700552 0.899454 1.688788 0.000000 0.000000 0.000000
0.763901 1.128958 1.628988 0.000000 0.000000 0.000000
0.794883 0.986813 1.708132 0.000000 0.000000 0.000000
0.737597 1.142386 1.608198 0.000000 0.000000 0.000000
0.665127 1.132541 1.580060 0.000000 0.000000 0.000000
0.798388 0.981183 1.712211 0.000000 0.000000 0.000000
0.801636 1.005352 1.701247 0.000000 0.000000 0.000000
0.805018 0.991092 1.708287 0.000000 0.000000 0.000000
0.803779 0.984799 1.709414 0.000000 0.000000 0.000000
0.719085 1.149557 1.605568 0.000000 0.000000 0.000000
0.723348 1.152571 1.604010 0.000000 0.000000 0.000000
0.723704 1.146681 1.605585 0.000000 0.000000 0.000000
0.760140 1.133115 1.623307 0.000000 0.000000 0.000000
0.713290 1.152645 1.601786 0.000000 0.000000 0.000000
0.730435 1.034488 1.615366 0.000000 0.000000 0.000000
0.734734 1.070603 1.607382 0.000000 0.000000 0.000000
0.764532 1.131146 1.624823 0.000000 0.000000 0.000000
0.738056 0.906238 1.720413 0.000000 0.000000 0.000000
0.721332 1.152282 1.604533 0.000000 0.000000 0.000000
0.737774 1.065779 1.612893 0.000000 0.000000 0.000000
0.751518 0.912244 1.722608 0.000000 0.000000 0.000000
0.796067 1.093591 1.661540 0.000000 0.000000 0.000000
0.749192 1.142102 1.617429 0.000000 0.000000 0.000000
0.704047 1.070274 1.595924 0.000000 0.000000 0.000000
0.725590 1.139311 1.606400 0.000000 0.000000 0.000000
0.736333 1.150236 1.612098 0.000000 0.000000 0.000000
0.721896 1.085150 1.600586 0.000000 0.000000 0.000000
0.770275 1.134546 1.630428 0.000000 0.000000 0.000000
0.749092 0.907899 1.720287 0.000000 0.000000 0.000000
0.713163 1.149843 1.601118 0.000000 0.000000 0.000000
0.741597 0.904358 1.717170 0.000000 0.000000 0.000000
0.745233 1.063731 1.614478 0.000000 0.000000 0.000000
0.746793 0.913586 1.723972 0.000000 0.000000 0.000000
0.790611 1.092048 1.664194 0.000000 0.000000 0.000000
0.718144 1.143836 1.604621 0.000000 0.000000 0.000000
0.800658 0.973624 1.710771 0.000000 0.000000 0.000000
0.667903 1.125853 1.576812 0.000000 0.000000 0.000000
0.721381 0.911465 1.697442 0.000000 0.000000 0.000000
0.762658 1.142149 1.626553 0.000000 0.000000 0.000000
0.782483 1.112931 1.652794 0.000000 0.000000 0.000000
0.799703 0.971741 1.716165 0.000000 0.000000 0.000000
0.670478 1.131914 1.581826 0.000000 0.000000 0.000000
0.651514 0.923497 1.641843 0.000000 0.000000 0.000000
0.765230 0.927351 1.728105 0.000000 0.000000 0.000000
0.764980 1.137449 1.630785 0.000000 0.000000 0.000000
0.784976 1.108250 1.656702 0.000000 0.000000 0.000000
0.725671 1.140746 1.603818 0.000000 0.000000 0.000000
0.761589 0.918909 1.729275 0.000000 0.000000 0.000000
0.609045 0.966066 1.581322 0.000000 0.000000 0.000000
0.592366 0.997225 1.556784 0.000000 0.000000 0.000000
0.605184 0.967698 1.577788 0.000000 0.000000 0.000000
0.811074 1.010707 1.702814 0.000000 0.000000 0.000000
0.801437 1.012894 1.697348 0.000000 0.000000 0.000000
0.805646 1.009070 1.698987 0.000000 0.000000 0.000000
0.792296 1.003213 1.699981 0.000000 0.000000 0.000000
0.807647 1.018227 1.695170 0.000000 0.000000 0.000000
0.712525 1.150612 1.603907 0.000000 0.000000 0.000000
0.790861 1.101822 1.663805 0.000000 0.000000 0.000000
0.806787 1.020966 1.689733 0.000000 0.000000 0.000000
0.804348 1.005318 1.698247 0.000000 0.000000 0.000000
0.806415 1.008837 1.701110 0.000000 0.000000 0.000000
0.800283 0.997532 1.697915 0.000000 0.000000 0.000000
0.709498 1.153970 1.601252 0.000000 0.000000 0.000000
0.806315 1.022483 1.691451 0.000000 0.000000 0.000000
0.691313 1.133918 1.592079 0.000000 0.000000 0.000000
0.649216 0.922603 1.648813 0.000000 0.000000 0.000000
0.600791 0.993819 1.562171 0.000000 0.000000 0.000000
0.600741 0.995852 1.561185 0.000000 0.000000 0.000000
0.782404 1.098193 1.646436 0.000000 0.000000 0.000000
0.790931 1.102679 1.658434 0.000000 0.000000 0.000000
0.783868 1.113090 1.653772 0.000000 0.000000 0.000000
0.663273 0.933129 1.654261 0.000000 0.000000 0.000000
0.654019 0.926387 1.644994 0.000000 0.000000 0.000000
0.720442 1.128376 1.597698 0.000000 0.000000 0.000000
0.603582 1.014317 1.554098 0.000000 0.000000 0.000000
0.597326 1.006041 1.558138 0.000000 0.000000 0.000000
0.596755 0.991653 1.563127 0.000000 0.000000 0.000000
0.660385 0.935056 1.640393 0.000000 0.000000 0.000000
0.665399 0.926704 1.648097 0.000000 0.000000 0.000000
0.656504 0.924618 1.649490 0.000000 0.000000 0.000000
0.721150 1.142817 1.596786 0.000000 0.000000 0.000000
0.600489 1.006581 1.554896 0.000000 0.000000 0.000000
0.602561 1.020752 1.555013 0.000000 0.000000 0.000000
0.779712 0.940326 1.728499 0.000000 0.000000 0.000000
0.609242 1.032851 1.555527 0.000000 0.000000 0.000000
0.653654 0.927200 1.641846 0.000000 0.000000 0.000000
0.635276 0.927823 1.628962 0.000000 0.000000 0.000000
0.762209 0.919689 1.730827 0.000000 0.000000 0.000000
0.765388 1.139248 1.627409 0.000000 0.000000 0.000000
0.647506 1.102496 1.565562 0.000000 0.000000 0.000000
0.753143 1.121014 1.608772 0.000000 0.000000 0.000000
0.796418 0.970573 1.716953 0.000000 0.000000 0.000000
0.748131 1.145634 1.614733 0.000000 0.000000 0.000000
0.748969 1.125402 1.611508 0.000000 0.000000 0.000000
0.693096 1.137121 1.594813 0.000000 0.000000 0.000000
0.638846 1.095392 1.564175 0.000000 0.000000 0.000000
0.642980 0.926086 1.633593 0.000000 0.000000 0.000000
0.771036 0.929590 1.731444 0.000000 0.000000 0.000000
0.679247 1.137276 1.586923 0.000000 0.000000 0.000000
0.774063 1.123865 1.647701 0.000000 0.000000 0.000000
0.781949 0.944326 1.729757 0.000000 0.000000 0.000000
0.799785 0.982831 1.712988 0.000000 0.000000 0.000000
0.774797 0.928729 1.729724 0.000000 0.000000 0.000000
0.678721 1.137826 1.587756 0.000000 0.000000 0.000000
0.776876 1.123581 1.645398 0.000000 0.000000 0.000000
0.779127 0.935865 1.729363 0.000000 0.000000 0.000000
0.632969 0.929660 1.624949 0.000000 0.000000 0.000000
0.803983 1.043123 1.680118 0.000000 0.000000 0.000000
0.769874 1.122518 1.638709 0.000000 0.000000 0.000000
0.804880 0.991634 1.708113 0.000000 0.000000 0.000000
0.753172 0.915889 1.726291 0.000000 0.000000 0.000000
0.775626 1.128216 1.641303 0.000000 0.000000 0.000000
0.778255 1.125009 1.641610 0.000000 0.000000 0.000000
0.744626 0.913304 1.711136 0.000000 0.000000 0.000000
0.793783 0.978822 1.715213 0.000000 0.000000 0.000000
0.773008 1.124626 1.640203 0.000000 0.000000 0.000000
0.755319 0.917692 1.720835 0.000000 0.000000 0.000000
0.798498 0.974067 1.719642 0.000000 0.000000 0.000000
0.679557 1.136662 1.586004 0.000000 0.000000 0.000000
0.681581 0.922540 1.657683 0.000000 0.000000 0.000000
0.803008 0.982419 1.712118 0.000000 0.000000 0.000000
0.726305 0.917785 1.690877 0.000000 0.000000 0.000000
0.692522 0.931416 1.655261 0.000000 0.000000 0.000000
0.721403 0.956549 1.658632 0.000000 0.000000 0.000000
0.693753 0.934068 1.659031 0.000000 0.000000 0.000000
0.739498 0.943544 1.680734 0.000000 0.000000 0.000000
0.719766 0.930406 1.664192 0.000000 0.000000 0.000000
0.708445 0.932033 1.667327 0.000000 0.000000 0.000000
0.665750 0.936338 1.646883 0.000000 0.000000 0.000000
0.703348 0.929332 1.663563 0.000000 0.000000 0.000000
0.722264 0.940407 1.673442 0.000000 0.000000 0.000000
0.605195 0.943271 1.592602 0.000000 0.000000 0.000000
0.726191 0.928107 1.681168 0.000000 0.000000 0.000000
0.705304 0.923980 1.670797 0.000000 0.000000 0.000000
0.760479 1.027470 1.649633 0.000000 0.000000 0.000000
0.701200 0.948094 1.654952 0.000000 0.000000 0.000000
0.677597 0.930934 1.650102 0.000000 0.000000 0.000000
0.738170 0.956654 1.673666 0.000000 0.000000 0.000000
0.744216 0.933192 1.689369 0.000000 0.000000 0.000000
0.745523 0.932449 1.693621 0.000000 0.000000 0.000000
0.655536 0.923212 1.647829 0.000000 0.000000 0.000000
0.672653 0.927872 1.649308 0.000000 0.000000 0.000000
0.673387 0.923259 1.651973 0.000000 0.000000 0.000000
0.709934 0.913734 1.680863 0.000000 0.000000 0.000000
0.609592 0.947658 1.593640 0.000000 0.000000 0.000000
0.719318 0.922804 1.674685 0.000000 0.000000 0.000000
0.687867 1.119484 1.587765 0.000000 0.000000 0.000000
0.715031 1.152934 1.602434 0.000000 0.000000 0.000000
0.693700 1.071776 1.595886 0.000000 0.000000 0.000000
0.796725 1.079606 1.652833 0.000000 0.000000 0.000000
0.654461 0.923420 1.650122 0.000000 0.000000 0.000000
0.654969 1.117293 1.569569 0.000000 0.000000 0.000000
0.595434 0.964485 1.575559 0.000000 0.000000 0.000000
0.671019 1.138615 1.585706 0.000000 0.000000 0.000000
0.688277 1.086505 1.587344 0.000000 0.000000 0.000000
0.784831 1.080870 1.652027 0.000000 0.000000 0.000000
0.655708 0.930090 1.648954 0.000000 0.000000 0.000000
0.654694 1.123712 1.576472 0.000000 0.000000 0.000000
0.600045 0.952039 1.584425 0.000000 0.000000 0.000000
0.671961 1.138539 1.585552 0.000000 0.000000 0.000000
0.626089 0.927359 1.620261 0.000000 0.000000 0.000000
0.744441 1.148935 1.614117 0.000000 0.000000 0.000000
0.727730 1.150554 1.607900 0.000000 0.000000 0.000000
0.755373 1.144316 1.620633 0.000000 0.000000 0.000000
0.659316 1.121110 1.576250 0.000000 0.000000 0.000000
0.696778 0.905317 1.685384 0.000000 0.000000 0.000000
0.773380 1.131655 1.627486 0.000000 0.000000 0.000000
0.759480 1.141291 1.623738 0.000000 0.000000 0.000000
0.762138 1.137436 1.625090 0.000000 0.000000 0.000000
0.759916 1.138886 1.627618 0.000000 0.000000 0.000000
0.665797 1.126621 1.581112 0.000000 0.000000 0.000000
0.706492 0.897421 1.686982 0.000000 0.000000 0.000000
0.778448 1.100509 1.651794 0.000000 0.000000 0.000000
0.625897 0.934199 1.613715 0.000000 0.000000 0.000000
0.783425 1.116993 1.649149 0.000000 0.000000 0.000000
0.784676 1.116125 1.645347 0.000000 0.000000 0.000000
0.603543 0.958283 1.583216 0.000000 0.000000 0.000000
0.787035 1.120397 1.645887 0.000000 0.000000 0.000000
0.786707 1.113698 1.652772 0.000000 0.000000 0.000000
0.617604 0.940192 1.601494 0.000000 0.000000 0.000000
0.794014 1.103415 1.657850 0.000000 0.000000 0.000000
0.783514 1.111466 1.643784 0.000000 0.000000 0.000000
0.605403 0.964129 1.582143 0.000000 0.000000 0.000000
0.786768 1.115153 1.647935 0.000000 0.000000 0.000000
0.786615 1.108745 1.658026 0.000000 0.000000 0.000000
0.709512 1.152007 1.599929 0.000000 0.000000 0.000000
0.637759 1.086442 1.565701 0.000000 0.000000 0.000000
0.628004 1.028305 1.567583 0.000000 0.000000 0.000000
0.779810 1.063062 1.641988 0.000000 0.000000 0.000000
0.622444 1.042711 1.561239 0.000000 0.000000 0.000000
0.633541 1.081834 1.563314 0.000000 0.000000 0.000000
0.627975 1.071452 1.561488 0.000000 0.000000 0.000000
0.632320 1.066227 1.564548 0.000000 0.000000 0.000000
0.621508 1.066010 1.556625 0.000000 0.000000 0.000000
0.628231 1.074031 1.563647 0.000000 0.000000 0.000000
0.799847 1.086840 1.663565 0.000000 0.000000 0.000000
0.634531 1.088552 1.560764 0.000000 0.000000 0.000000
0.795827 1.076354 1.657457 0.000000 0.000000 0.000000
0.621525 1.061816 1.562055 0.000000 0.000000 0.000000
0.621917 1.028323 1.560950 0.000000 0.000000 0.000000
0.755909 1.043511 1.628914 0.000000 0.000000 0.000000
0.636542 1.083132 1.565024 0.000000 0.000000 0.000000
0.634003 1.079254 1.562887 0.000000 0.000000 0.000000
0.641614 1.088163 1.567653 0.000000 0.000000 0.000000
0.799995 1.082432 1.664072 0.000000 0.000000 0.000000
0.793683 1.091134 1.651772 0.000000 0.000000 0.000000
0.794381 0.955994 1.727672 0.000000 0.000000 0.000000
0.622482 1.060891 1.565718 0.000000 0.000000 0.000000
0.612125 0.945976 1.597670 0.000000 0.000000 0.000000
0.623689 1.066514 1.559268 0.000000 0.000000 0.000000
0.699592 0.980290 1.630897 0.000000 0.000000 0.000000
0.701455 1.001094 1.612632 0.000000 0.000000 0.000000
0.794615 0.956407 1.724048 0.000000 0.000000 0.000000
0.719749 0.897498 1.703927 0.000000 0.000000 0.000000
0.706156 0.898689 1.707454 0.000000 0.000000 0.000000
0.626654 1.065958 1.563878 0.000000 0.000000 0.000000
0.622619 1.064680 1.562267 0.000000 0.000000 0.000000
0.677074 0.953453 1.638389 0.000000 0.000000 0.000000
0.789938 0.952137 1.724766 0.000000 0.000000 0.000000
0.715145 0.897603 1.699234 0.000000 0.000000 0.000000
0.720525 0.896749 1.703503 0.000000 0.000000 0.000000
0.625473 1.071259 1.564259 0.000000 0.000000 0.000000
0.625366 1.057023 1.561542 0.000000 0.000000 0.000000
0.607687 0.951576 1.589754 0.000000 0.000000 0.000000
0.653403 1.114277 1.574366 0.000000 0.000000 0.000000
0.607996 1.034538 1.553955 0.000000 0.000000 0.000000
0.624755 1.063429 1.562105 0.000000 0.000000 0.000000
0.617950 1.055745 1.560565 0.000000 0.000000 0.000000
0.629964 1.068496 1.566695 0.000000 0.000000 0.000000
0.658288 1.105004 1.579760 0.000000 0.000000 0.000000
0.605370 1.021279 1.554160 0.000000 0.000000 0.000000
0.617565 1.056243 1.561244 0.000000 0.000000 0.000000
0.636395 1.091059 1.570641 0.000000 0.000000 0.000000
0.615711 0.927390 1.609526 0.000000 0.000000 0.000000
0.625981 1.071492 1.559964 0.000000 0.000000 0.000000
0.807142 1.043382 1.682502 0.000000 0.000000 0.000000
0.608445 1.013251 1.555323 0.000000 0.000000 0.000000
0.598618 1.004454 1.556238 0.000000 0.000000 0.000000
0.724016 1.150899 1.605476 0.000000 0.000000 0.000000
0.609272 0.974159 1.579161 0.000000 0.000000 0.000000
0.608507 0.937591 1.598180 0.000000 0.000000 0.000000
0.591249 0.979564 1.565471 0.000000 0.000000 0.000000
0.609584 1.007280 1.565023 0.000000 0.000000 0.000000
0.603645 0.977501 1.573312 0.000000 0.000000 0.000000
0.805058 1.048655 1.677121 0.000000 0.000000 0.000000
0.605451 0.961645 1.583556 0.000000 0.000000 0.000000
0.637837 1.069457 1.569548 0.000000 0.000000 0.000000
0.605439 1.021339 1.553165 0.000000 0.000000 0.000000
0.627389 1.069806 1.562139 0.000000 0.000000 0.000000
0.806690 1.049830 1.679075 0.000000 0.000000 0.000000
0.603157 0.965080 1.580642 0.000000 0.000000 0.000000
0.804120 1.036412 1.682783 0.000000 0.000000 0.000000
0.641259 1.096313 1.569838 0.000000 0.000000 0.000000
0.601165 0.958137 1.581776 0.000000 0.000000 0.000000
0.598497 0.970108 1.574007 0.000000 0.000000 0.000000
0.603151 0.957537 1.584081 0.000000 0.000000 0.000000
0.601043 1.005615 1.559671 0.000000 0.000000 0.000000
0.603771 0.973110 1.574111 0.000000 0.000000 0.000000
0.802302 1.046752 1.678881 0.000000 0.000000 0.000000
0.603238 0.980135 1.572551 0.000000 0.000000 0.000000
0.640584 1.074203 1.570131 0.000000 0.000000 0.000000
0.602523 1.006992 1.554810 0.000000 0.000000 0.000000
0.621490 1.073688 1.559054 0.000000 0.000000 0.000000
0.802531 1.056200 1.674627 0.000000 0.000000 0.000000
0.597541 0.978412 1.569323 0.000000 0.000000 0.000000
0.800226 1.053090 1.673613 0.000000 0.000000 0.000000
0.635025 1.086909 1.568145 0.000000 0.000000 0.000000
0.598261 0.965196 1.572367 0.000000 0.000000 0.000000
0.598278 0.970144 1.573442 0.000000 0.000000 0.000000
0.630475 1.079271 1.563161 0.000000 0.000000 0.000000
0.604604 0.965319 1.580467 0.000000 0.000000 0.000000
0.764647 1.133713 1.633904 0.000000 0.000000 0.000000
0.764683 1.142790 1.631572 0.000000 0.000000 0.000000
0.661308 1.122412 1.578598 0.000000 0.000000 0.000000
0.668237 1.124579 1.582858 0.000000 0.000000 0.000000
0.767798 1.127695 1.633990 0.000000 0.000000 0.000000
0.702070 1.146317 1.595660 0.000000 0.000000 0.000000
0.634631 1.036545 1.568834 0.000000 0.000000 0.000000
0.701163 1.145896 1.598109 0.000000 0.000000 0.000000
0.701889 1.148248 1.596355 0.000000 0.000000 0.000000
0.755121 1.140760 1.627039 0.000000 0.000000 0.000000
0.663055 1.126058 1.574358 0.000000 0.000000 0.000000
0.774346 1.132083 1.636002 0.000000 0.000000 0.000000
0.608079 1.038011 1.556307 0.000000 0.000000 0.000000
0.774919 1.138837 1.634931 0.000000 0.000000 0.000000
0.645017 0.924152 1.659626 0.000000 0.000000 0.000000
0.624374 1.069476 1.562586 0.000000 0.000000 0.000000
0.776181 1.119586 1.638986 0.000000 0.000000 0.000000
0.694481 1.143711 1.593158 0.000000 0.000000 0.000000
0.646025 1.037493 1.573707 0.000000 0.000000 0.000000
0.700969 1.145196 1.596958 0.000000 0.000000 0.000000
0.717552 1.145427 1.604597 0.000000 0.000000 0.000000
0.774577 1.136030 1.641795 0.000000 0.000000 0.000000
0.770071 1.135689 1.631612 0.000000 0.000000 0.000000
0.609316 1.033077 1.556102 0.000000 0.000000 0.000000
0.632209 1.083697 1.563167 0.000000 0.000000 0.000000
0.615220 1.048028 1.558019 0.000000 0.000000 0.000000
0.602821 1.018292 1.552949 0.000000 0.000000 0.000000
0.608400 1.028127 1.555342 0.000000 0.000000 0.000000
0.715229 0.995996 1.626005 0.000000 0.000000 0.000000
0.606778 0.944021 1.592310 0.000000 0.000000 0.000000
0.611590 1.033102 1.559596 0.000000 0.000000 0.000000
0.599775 1.012902 1.556843 0.000000 0.000000 0.000000
0.610610 1.024058 1.557942 0.000000 0.000000 0.000000
0.613222 0.940839 1.600389 0.000000 0.000000 0.000000
0.622131 1.063577 1.561200 0.000000 0.000000 0.000000
0.613206 1.043609 1.555619 0.000000 0.000000 0.000000
0.617411 1.043194 1.558844 0.000000 0.000000 0.000000
0.617937 1.055986 1.557467 0.000000 0.000000 0.000000
0.615354 1.046654 1.558903 0.000000 0.000000 0.000000
0.691460 0.989320 1.613820 0.000000 0.000000 0.000000
0.612636 1.042780 1.558207 0.000000 0.000000 0.000000
0.708426 1.151644 1.600552 0.000000 0.000000 0.000000
0.614446 1.048236 1.552334 0.000000 0.000000 0.000000
0.726137 1.002891 1.627793 0.000000 0.000000 0.000000
0.621982 0.940754 1.608393 0.000000 0.000000 0.000000
0.616483 1.040183 1.560630 0.000000 0.000000 0.000000
0.601848 1.022343 1.556056 0.000000 0.000000 0.000000
