ply
format ascii 1.0
comment VCGLIB generated
obj_info Generated by SPFormer!
element vertex 387
property float x
property float y
property float z
property float nx
property float ny
property float nz
end_header
0.529964 0.685659 1.059445 0.000000 0.000000 0.000000
0.542818 0.698610 1.057979 0.000000 0.000000 0.000000
0.496444 0.698572 1.034254 0.000000 0.000000 0.000000
0.552422 0.683932 1.074550 0.000000 0.000000 0.000000
0.514880 0.697613 1.039659 0.000000 0.000000 0.000000
0.506292 0.696120 1.031825 0.000000 0.000000 0.000000
0.526621 0.694610 1.047522 0.000000 0.000000 0.000000
0.532658 0.697138 1.042333 0.000000 0.000000 0.000000
0.536040 0.699391 1.057364 0.000000 0.000000 0.000000
0.498995 0.684599 1.036113 0.000000 0.000000 0.000000
0.533629 0.697911 1.036097 0.000000 0.000000 0.000000
0.507581 0.674014 1.044758 0.000000 0.000000 0.000000
0.505591 0.693530 1.035341 0.000000 0.000000 0.000000
0.508219 0.698325 1.036090 0.000000 0.000000 0.000000
0.537435 0.694576 1.065878 0.000000 0.000000 0.000000
0.499672 0.695323 1.035298 0.000000 0.000000 0.000000
0.520600 0.685853 1.050084 0.000000 0.000000 0.000000
0.501995 0.695839 1.028220 0.000000 0.000000 0.000000
0.509615 0.700731 1.048903 0.000000 0.000000 0.000000
0.518908 0.674255 1.051234 0.000000 0.000000 0.000000
0.519486 0.693218 1.050670 0.000000 0.000000 0.000000
0.513148 0.687962 1.047915 0.000000 0.000000 0.000000
0.518711 0.676839 1.058496 0.000000 0.000000 0.000000
0.486675 0.695841 1.031628 0.000000 0.000000 0.000000
0.507376 0.670070 1.044683 0.000000 0.000000 0.000000
0.527055 0.695748 1.051389 0.000000 0.000000 0.000000
0.536046 0.680567 1.052687 0.000000 0.000000 0.000000
0.497903 0.674880 1.039302 0.000000 0.000000 0.000000
0.525877 0.663142 1.060698 0.000000 0.000000 0.000000
0.545960 0.697155 1.062017 0.000000 0.000000 0.000000
0.547439 0.696922 1.062533 0.000000 0.000000 0.000000
0.528558 0.676979 1.060472 0.000000 0.000000 0.000000
0.558704 0.675930 1.084985 0.000000 0.000000 0.000000
0.548166 0.667681 1.077254 0.000000 0.000000 0.000000
0.516015 0.666957 1.051210 0.000000 0.000000 0.000000
0.539115 0.672772 1.070100 0.000000 0.000000 0.000000
0.536304 0.672758 1.065883 0.000000 0.000000 0.000000
0.527640 0.676006 1.061555 0.000000 0.000000 0.000000
0.539162 0.674389 1.067648 0.000000 0.000000 0.000000
0.513003 0.693960 1.035277 0.000000 0.000000 0.000000
0.523365 0.672830 1.056708 0.000000 0.000000 0.000000
0.511856 0.691347 1.042672 0.000000 0.000000 0.000000
0.505541 0.694820 1.038977 0.000000 0.000000 0.000000
0.554461 0.697416 1.068554 0.000000 0.000000 0.000000
0.521478 0.672567 1.053355 0.000000 0.000000 0.000000
0.549684 0.665181 1.088705 0.000000 0.000000 0.000000
0.513373 0.696367 1.051174 0.000000 0.000000 0.000000
0.531618 0.659740 1.065733 0.000000 0.000000 0.000000
0.553046 0.701053 1.064202 0.000000 0.000000 0.000000
0.523696 0.695587 1.057935 0.000000 0.000000 0.000000
0.527361 0.697896 1.046848 0.000000 0.000000 0.000000
0.542012 0.684536 1.064561 0.000000 0.000000 0.000000
0.544181 0.654551 1.075388 0.000000 0.000000 0.000000
0.539588 0.680321 1.069886 0.000000 0.000000 0.000000
0.549949 0.684473 1.079034 0.000000 0.000000 0.000000
0.549145 0.699286 1.058969 0.000000 0.000000 0.000000
0.507540 0.695951 1.027745 0.000000 0.000000 0.000000
0.556004 0.682817 1.085292 0.000000 0.000000 0.000000
0.488629 0.688203 1.032888 0.000000 0.000000 0.000000
0.521312 0.697553 1.030198 0.000000 0.000000 0.000000
0.503904 0.696801 1.029443 0.000000 0.000000 0.000000
0.488682 0.694713 1.037861 0.000000 0.000000 0.000000
0.557370 0.698715 1.064050 0.000000 0.000000 0.000000
0.508088 0.697278 1.036591 0.000000 0.000000 0.000000
0.537121 0.694899 1.041033 0.000000 0.000000 0.000000
0.544375 0.660470 1.082401 0.000000 0.000000 0.000000
0.517560 0.697753 1.042395 0.000000 0.000000 0.000000
0.520144 0.696081 1.032206 0.000000 0.000000 0.000000
0.527960 0.698247 1.047138 0.000000 0.000000 0.000000
0.504224 0.697777 1.028494 0.000000 0.000000 0.000000
0.531272 0.668356 1.065505 0.000000 0.000000 0.000000
0.534472 0.695116 1.051124 0.000000 0.000000 0.000000
0.546046 0.698398 1.049645 0.000000 0.000000 0.000000
0.521420 0.697943 1.045071 0.000000 0.000000 0.000000
0.528825 0.666492 1.061989 0.000000 0.000000 0.000000
0.558500 0.701217 1.053983 0.000000 0.000000 0.000000
0.517069 0.671610 1.053217 0.000000 0.000000 0.000000
0.509641 0.692737 1.037975 0.000000 0.000000 0.000000
0.518265 0.696978 1.039102 0.000000 0.000000 0.000000
0.545683 0.686981 1.075975 0.000000 0.000000 0.000000
0.541141 0.695359 1.053172 0.000000 0.000000 0.000000
0.532718 0.662066 1.063655 0.000000 0.000000 0.000000
0.525702 0.693706 1.043131 0.000000 0.000000 0.000000
0.506021 0.677215 1.042583 0.000000 0.000000 0.000000
0.536821 0.656937 1.070607 0.000000 0.000000 0.000000
0.531645 0.658176 1.065050 0.000000 0.000000 0.000000
0.500412 0.680202 1.046486 0.000000 0.000000 0.000000
0.521341 0.656232 1.062186 0.000000 0.000000 0.000000
0.520482 0.673691 1.055128 0.000000 0.000000 0.000000
0.525992 0.694216 1.041866 0.000000 0.000000 0.000000
0.503250 0.690413 1.039551 0.000000 0.000000 0.000000
0.516938 0.679771 1.049942 0.000000 0.000000 0.000000
0.511656 0.671118 1.048062 0.000000 0.000000 0.000000
0.529494 0.694398 1.044551 0.000000 0.000000 0.000000
0.544827 0.662213 1.075467 0.000000 0.000000 0.000000
0.536359 0.657377 1.076197 0.000000 0.000000 0.000000
0.500019 0.689686 1.033078 0.000000 0.000000 0.000000
0.556664 0.698453 1.053334 0.000000 0.000000 0.000000
0.507479 0.675919 1.044527 0.000000 0.000000 0.000000
0.526697 0.663249 1.060927 0.000000 0.000000 0.000000
0.536720 0.704291 1.058634 0.000000 0.000000 0.000000
0.521756 0.694031 1.058749 0.000000 0.000000 0.000000
0.526908 0.667573 1.060400 0.000000 0.000000 0.000000
0.539895 0.695102 1.072644 0.000000 0.000000 0.000000
0.536111 0.661993 1.067283 0.000000 0.000000 0.000000
0.537238 0.677719 1.067439 0.000000 0.000000 0.000000
0.535645 0.659260 1.067558 0.000000 0.000000 0.000000
0.498951 0.695804 1.027094 0.000000 0.000000 0.000000
0.536017 0.697321 1.041058 0.000000 0.000000 0.000000
0.533467 0.694179 1.053733 0.000000 0.000000 0.000000
0.517534 0.696645 1.034183 0.000000 0.000000 0.000000
0.524489 0.697585 1.034773 0.000000 0.000000 0.000000
0.528230 0.697852 1.040166 0.000000 0.000000 0.000000
0.527023 0.695740 1.043819 0.000000 0.000000 0.000000
0.509718 0.693911 1.034364 0.000000 0.000000 0.000000
0.557954 0.699276 1.050364 0.000000 0.000000 0.000000
0.552774 0.699624 1.042968 0.000000 0.000000 0.000000
0.554693 0.700575 1.052275 0.000000 0.000000 0.000000
0.557389 0.697536 1.051432 0.000000 0.000000 0.000000
0.548187 0.701907 1.051957 0.000000 0.000000 0.000000
0.500367 0.695455 1.028484 0.000000 0.000000 0.000000
0.494254 0.697804 1.030569 0.000000 0.000000 0.000000
0.507112 0.687544 1.039960 0.000000 0.000000 0.000000
0.509752 0.690309 1.044065 0.000000 0.000000 0.000000
0.508857 0.697909 1.029313 0.000000 0.000000 0.000000
0.503079 0.699735 1.036652 0.000000 0.000000 0.000000
0.509989 0.683699 1.044199 0.000000 0.000000 0.000000
0.506893 0.697663 1.031720 0.000000 0.000000 0.000000
0.502103 0.690562 1.035457 0.000000 0.000000 0.000000
0.511323 0.698867 1.037298 0.000000 0.000000 0.000000
0.510270 0.696964 1.026993 0.000000 0.000000 0.000000
0.497958 0.692493 1.028607 0.000000 0.000000 0.000000
0.502780 0.696799 1.030374 0.000000 0.000000 0.000000
0.555144 0.701120 1.084463 0.000000 0.000000 0.000000
0.493699 0.696004 1.029865 0.000000 0.000000 0.000000
0.492370 0.692970 1.030207 0.000000 0.000000 0.000000
0.498113 0.695530 1.026352 0.000000 0.000000 0.000000
0.503357 0.689148 1.033428 0.000000 0.000000 0.000000
0.495038 0.689043 1.033130 0.000000 0.000000 0.000000
0.499079 0.689909 1.032576 0.000000 0.000000 0.000000
0.486462 0.693448 1.027173 0.000000 0.000000 0.000000
0.498847 0.697224 1.027920 0.000000 0.000000 0.000000
0.490610 0.694926 1.030894 0.000000 0.000000 0.000000
0.496353 0.693811 1.028831 0.000000 0.000000 0.000000
0.502379 0.697310 1.027969 0.000000 0.000000 0.000000
0.491785 0.690270 1.031585 0.000000 0.000000 0.000000
0.548767 0.667955 1.076304 0.000000 0.000000 0.000000
0.541305 0.661582 1.074429 0.000000 0.000000 0.000000
0.526977 0.696200 1.034180 0.000000 0.000000 0.000000
0.493031 0.685585 1.034645 0.000000 0.000000 0.000000
0.540559 0.664056 1.071023 0.000000 0.000000 0.000000
0.548525 0.661243 1.078587 0.000000 0.000000 0.000000
0.525247 0.705454 1.067709 0.000000 0.000000 0.000000
0.517983 0.693356 1.030808 0.000000 0.000000 0.000000
0.493425 0.691688 1.030801 0.000000 0.000000 0.000000
0.553927 0.662754 1.084917 0.000000 0.000000 0.000000
0.510757 0.664918 1.047006 0.000000 0.000000 0.000000
0.504319 0.695668 1.025910 0.000000 0.000000 0.000000
0.534769 0.664550 1.070240 0.000000 0.000000 0.000000
0.531265 0.653472 1.070340 0.000000 0.000000 0.000000
0.511881 0.695040 1.024673 0.000000 0.000000 0.000000
0.536129 0.701968 1.076549 0.000000 0.000000 0.000000
0.530770 0.661076 1.063712 0.000000 0.000000 0.000000
0.540983 0.704510 1.088745 0.000000 0.000000 0.000000
0.523130 0.665170 1.055885 0.000000 0.000000 0.000000
0.548183 0.701926 1.076677 0.000000 0.000000 0.000000
0.553682 0.667546 1.082467 0.000000 0.000000 0.000000
0.532718 0.694697 1.051956 0.000000 0.000000 0.000000
0.520850 0.699680 1.055400 0.000000 0.000000 0.000000
0.498800 0.691077 1.036204 0.000000 0.000000 0.000000
0.501448 0.683068 1.036642 0.000000 0.000000 0.000000
0.502209 0.682528 1.038850 0.000000 0.000000 0.000000
0.499925 0.686522 1.034735 0.000000 0.000000 0.000000
0.511793 0.672917 1.046046 0.000000 0.000000 0.000000
0.525865 0.663853 1.059397 0.000000 0.000000 0.000000
0.550185 0.692546 1.082350 0.000000 0.000000 0.000000
0.512207 0.659828 1.052699 0.000000 0.000000 0.000000
0.508608 0.676616 1.045148 0.000000 0.000000 0.000000
0.549174 0.658393 1.080031 0.000000 0.000000 0.000000
0.549792 0.663407 1.081176 0.000000 0.000000 0.000000
0.541340 0.663187 1.064023 0.000000 0.000000 0.000000
0.518706 0.692283 1.036764 0.000000 0.000000 0.000000
0.496687 0.689100 1.032693 0.000000 0.000000 0.000000
0.509761 0.670491 1.046323 0.000000 0.000000 0.000000
0.495148 0.697220 1.028421 0.000000 0.000000 0.000000
0.550935 0.668457 1.080899 0.000000 0.000000 0.000000
0.548548 0.676699 1.078605 0.000000 0.000000 0.000000
0.542511 0.657970 1.076046 0.000000 0.000000 0.000000
0.516280 0.701266 1.058947 0.000000 0.000000 0.000000
0.514234 0.692788 1.055179 0.000000 0.000000 0.000000
0.555198 0.666392 1.088959 0.000000 0.000000 0.000000
0.511803 0.700058 1.057954 0.000000 0.000000 0.000000
0.524304 0.686229 1.059683 0.000000 0.000000 0.000000
0.559853 0.684510 1.087961 0.000000 0.000000 0.000000
0.539693 0.657765 1.079658 0.000000 0.000000 0.000000
0.527311 0.657530 1.059815 0.000000 0.000000 0.000000
0.548239 0.662627 1.084499 0.000000 0.000000 0.000000
0.533908 0.659329 1.065716 0.000000 0.000000 0.000000
0.524232 0.657994 1.058103 0.000000 0.000000 0.000000
0.557849 0.695442 1.082568 0.000000 0.000000 0.000000
0.548658 0.700916 1.078629 0.000000 0.000000 0.000000
0.535412 0.696963 1.049536 0.000000 0.000000 0.000000
0.542646 0.698583 1.043002 0.000000 0.000000 0.000000
0.532543 0.695170 1.033790 0.000000 0.000000 0.000000
0.540155 0.696346 1.040123 0.000000 0.000000 0.000000
0.538457 0.697661 1.037760 0.000000 0.000000 0.000000
0.538442 0.697677 1.050292 0.000000 0.000000 0.000000
0.522588 0.695531 1.028420 0.000000 0.000000 0.000000
0.529418 0.696754 1.040321 0.000000 0.000000 0.000000
0.540742 0.657523 1.072799 0.000000 0.000000 0.000000
0.521819 0.657482 1.056340 0.000000 0.000000 0.000000
0.541390 0.673620 1.071763 0.000000 0.000000 0.000000
0.538816 0.654219 1.073967 0.000000 0.000000 0.000000
0.530152 0.656560 1.063665 0.000000 0.000000 0.000000
0.503634 0.702345 1.048400 0.000000 0.000000 0.000000
0.501782 0.695610 1.035747 0.000000 0.000000 0.000000
0.516397 0.678482 1.050418 0.000000 0.000000 0.000000
0.517999 0.696699 1.049412 0.000000 0.000000 0.000000
0.535363 0.687732 1.066329 0.000000 0.000000 0.000000
0.513357 0.697090 1.046077 0.000000 0.000000 0.000000
0.522681 0.697067 1.036360 0.000000 0.000000 0.000000
0.513563 0.682992 1.048397 0.000000 0.000000 0.000000
0.506010 0.698000 1.040629 0.000000 0.000000 0.000000
0.532325 0.678441 1.062181 0.000000 0.000000 0.000000
0.528183 0.688845 1.059467 0.000000 0.000000 0.000000
0.516074 0.692554 1.045778 0.000000 0.000000 0.000000
0.500602 0.695988 1.049568 0.000000 0.000000 0.000000
0.517703 0.684117 1.053749 0.000000 0.000000 0.000000
0.495281 0.696619 1.021915 0.000000 0.000000 0.000000
0.496495 0.692665 1.032745 0.000000 0.000000 0.000000
0.498482 0.699279 1.028678 0.000000 0.000000 0.000000
0.485871 0.703888 1.028696 0.000000 0.000000 0.000000
0.496413 0.699408 1.040333 0.000000 0.000000 0.000000
0.492423 0.700634 1.026086 0.000000 0.000000 0.000000
0.556272 0.700746 1.085731 0.000000 0.000000 0.000000
0.507082 0.668197 1.046475 0.000000 0.000000 0.000000
0.496232 0.681799 1.035660 0.000000 0.000000 0.000000
0.502339 0.675044 1.040547 0.000000 0.000000 0.000000
0.504519 0.669372 1.045114 0.000000 0.000000 0.000000
0.556997 0.708663 1.010587 0.000000 0.000000 0.000000
0.513062 0.695079 1.033333 0.000000 0.000000 0.000000
0.543996 0.695196 1.040885 0.000000 0.000000 0.000000
0.526227 0.696539 1.039997 0.000000 0.000000 0.000000
0.550295 0.698337 1.082506 0.000000 0.000000 0.000000
0.556811 0.696517 1.079419 0.000000 0.000000 0.000000
0.556124 0.699232 1.087057 0.000000 0.000000 0.000000
0.538624 0.655695 1.070180 0.000000 0.000000 0.000000
0.554219 0.695773 1.087067 0.000000 0.000000 0.000000
0.540049 0.697747 1.070615 0.000000 0.000000 0.000000
0.552134 0.694800 1.075277 0.000000 0.000000 0.000000
0.548666 0.699999 1.077545 0.000000 0.000000 0.000000
0.552090 0.697778 1.092008 0.000000 0.000000 0.000000
0.542228 0.653533 1.073625 0.000000 0.000000 0.000000
0.507327 0.680876 1.044988 0.000000 0.000000 0.000000
0.530780 0.654840 1.064243 0.000000 0.000000 0.000000
0.520545 0.664584 1.056940 0.000000 0.000000 0.000000
0.512412 0.667191 1.048304 0.000000 0.000000 0.000000
0.504835 0.697365 1.041000 0.000000 0.000000 0.000000
0.551206 0.697618 1.083251 0.000000 0.000000 0.000000
0.507064 0.696829 1.049091 0.000000 0.000000 0.000000
0.542885 0.701823 1.075038 0.000000 0.000000 0.000000
0.534763 0.654604 1.068387 0.000000 0.000000 0.000000
0.516937 0.664530 1.052799 0.000000 0.000000 0.000000
0.525037 0.658329 1.059209 0.000000 0.000000 0.000000
0.532175 0.660972 1.064022 0.000000 0.000000 0.000000
0.517280 0.667125 1.051818 0.000000 0.000000 0.000000
0.509480 0.670619 1.047915 0.000000 0.000000 0.000000
0.514659 0.664932 1.049303 0.000000 0.000000 0.000000
0.549863 0.700061 1.048404 0.000000 0.000000 0.000000
0.547839 0.698326 1.044528 0.000000 0.000000 0.000000
0.530543 0.699608 1.063993 0.000000 0.000000 0.000000
0.550309 0.700855 1.053222 0.000000 0.000000 0.000000
0.540188 0.697976 1.037555 0.000000 0.000000 0.000000
0.506006 0.699701 1.041116 0.000000 0.000000 0.000000
0.547999 0.703080 1.094209 0.000000 0.000000 0.000000
0.550445 0.674191 1.080585 0.000000 0.000000 0.000000
0.554785 0.665474 1.084743 0.000000 0.000000 0.000000
0.549976 0.666490 1.080219 0.000000 0.000000 0.000000
0.540541 0.670035 1.072902 0.000000 0.000000 0.000000
0.557032 0.671148 1.085971 0.000000 0.000000 0.000000
0.555635 0.675438 1.084682 0.000000 0.000000 0.000000
0.511549 0.672202 1.048249 0.000000 0.000000 0.000000
0.496374 0.681167 1.036209 0.000000 0.000000 0.000000
0.500001 0.682475 1.037681 0.000000 0.000000 0.000000
0.515775 0.664381 1.056770 0.000000 0.000000 0.000000
0.515135 0.670264 1.050623 0.000000 0.000000 0.000000
0.504708 0.685016 1.041707 0.000000 0.000000 0.000000
0.502382 0.676505 1.040288 0.000000 0.000000 0.000000
0.507349 0.675715 1.044688 0.000000 0.000000 0.000000
0.512874 0.665234 1.048675 0.000000 0.000000 0.000000
0.507726 0.677289 1.044836 0.000000 0.000000 0.000000
0.507006 0.677414 1.043415 0.000000 0.000000 0.000000
0.490961 0.681790 1.035716 0.000000 0.000000 0.000000
0.522203 0.668886 1.056249 0.000000 0.000000 0.000000
0.525912 0.665657 1.059924 0.000000 0.000000 0.000000
0.513033 0.676650 1.049004 0.000000 0.000000 0.000000
0.502474 0.676448 1.040084 0.000000 0.000000 0.000000
0.512229 0.668380 1.049001 0.000000 0.000000 0.000000
0.509690 0.667130 1.046682 0.000000 0.000000 0.000000
0.497260 0.686851 1.032984 0.000000 0.000000 0.000000
0.504709 0.679193 1.041779 0.000000 0.000000 0.000000
0.508388 0.669433 1.046229 0.000000 0.000000 0.000000
0.526828 0.696640 1.036015 0.000000 0.000000 0.000000
0.517622 0.696564 1.029499 0.000000 0.000000 0.000000
0.509065 0.670567 1.045470 0.000000 0.000000 0.000000
0.535682 0.658586 1.068650 0.000000 0.000000 0.000000
0.493569 0.703789 1.034318 0.000000 0.000000 0.000000
0.515875 0.700152 1.023197 0.000000 0.000000 0.000000
0.544610 0.698197 1.039880 0.000000 0.000000 0.000000
0.505037 0.698736 1.021236 0.000000 0.000000 0.000000
0.502287 0.698292 1.022153 0.000000 0.000000 0.000000
0.542758 0.700632 1.068682 0.000000 0.000000 0.000000
0.518110 0.673787 1.052093 0.000000 0.000000 0.000000
0.517783 0.696684 1.045207 0.000000 0.000000 0.000000
0.528913 0.699343 1.062287 0.000000 0.000000 0.000000
0.553106 0.696662 1.080041 0.000000 0.000000 0.000000
0.542393 0.701965 1.086339 0.000000 0.000000 0.000000
0.530865 0.696584 1.080190 0.000000 0.000000 0.000000
0.538626 0.698481 1.062814 0.000000 0.000000 0.000000
0.538882 0.702031 1.067241 0.000000 0.000000 0.000000
0.516662 0.691560 1.066857 0.000000 0.000000 0.000000
0.532548 0.694551 1.066007 0.000000 0.000000 0.000000
0.530577 0.698654 1.063386 0.000000 0.000000 0.000000
0.532612 0.696454 1.068101 0.000000 0.000000 0.000000
0.525992 0.698371 1.061565 0.000000 0.000000 0.000000
0.542135 0.699124 1.062519 0.000000 0.000000 0.000000
0.527051 0.680456 1.057847 0.000000 0.000000 0.000000
0.525869 0.697992 1.057177 0.000000 0.000000 0.000000
0.542182 0.705007 1.062318 0.000000 0.000000 0.000000
0.539844 0.692160 1.069116 0.000000 0.000000 0.000000
0.537789 0.701466 1.087050 0.000000 0.000000 0.000000
0.530136 0.699019 1.075983 0.000000 0.000000 0.000000
0.553372 0.700776 1.065688 0.000000 0.000000 0.000000
0.519450 0.698374 1.064119 0.000000 0.000000 0.000000
0.547853 0.699922 1.070546 0.000000 0.000000 0.000000
0.540711 0.694475 1.072012 0.000000 0.000000 0.000000
0.536631 0.699498 1.071338 0.000000 0.000000 0.000000
0.520568 0.698859 1.057751 0.000000 0.000000 0.000000
0.545348 0.695585 1.040014 0.000000 0.000000 0.000000
0.533076 0.705300 1.037639 0.000000 0.000000 0.000000
0.531850 0.697188 1.058681 0.000000 0.000000 0.000000
0.512172 0.695817 1.048061 0.000000 0.000000 0.000000
0.545081 0.706219 1.043843 0.000000 0.000000 0.000000
0.522827 0.699461 1.053771 0.000000 0.000000 0.000000
0.516795 0.698216 1.054052 0.000000 0.000000 0.000000
0.485725 0.699618 1.032531 0.000000 0.000000 0.000000
0.512221 0.666547 1.048313 0.000000 0.000000 0.000000
0.545514 0.698653 1.093675 0.000000 0.000000 0.000000
0.510129 0.693783 1.031782 0.000000 0.000000 0.000000
0.529007 0.700372 1.030975 0.000000 0.000000 0.000000
0.523437 0.696975 1.030592 0.000000 0.000000 0.000000
0.518567 0.704365 1.031816 0.000000 0.000000 0.000000
0.510098 0.695141 1.031433 0.000000 0.000000 0.000000
0.525388 0.696521 1.030620 0.000000 0.000000 0.000000
0.516120 0.698821 1.027488 0.000000 0.000000 0.000000
0.496763 0.697652 1.025798 0.000000 0.000000 0.000000
0.509309 0.696074 1.024732 0.000000 0.000000 0.000000
0.537925 0.697167 1.034859 0.000000 0.000000 0.000000
0.526128 0.697794 1.029277 0.000000 0.000000 0.000000
0.507168 0.696858 1.025239 0.000000 0.000000 0.000000
0.500091 0.694688 1.024861 0.000000 0.000000 0.000000
0.502985 0.696903 1.024527 0.000000 0.000000 0.000000
0.525909 0.697176 1.031222 0.000000 0.000000 0.000000
0.519283 0.696533 1.028202 0.000000 0.000000 0.000000
0.508859 0.674385 1.048465 0.000000 0.000000 0.000000
0.558763 0.709724 1.031759 0.000000 0.000000 0.000000
0.506556 0.670358 1.046264 0.000000 0.000000 0.000000
0.499146 0.679893 1.038938 0.000000 0.000000 0.000000
0.557400 0.696818 1.075183 0.000000 0.000000 0.000000
0.506191 0.664113 1.050323 0.000000 0.000000 0.000000
0.516650 0.655782 1.055359 0.000000 0.000000 0.000000
0.520347 0.659240 1.056192 0.000000 0.000000 0.000000
0.525485 0.663008 1.058728 0.000000 0.000000 0.000000
0.518928 0.670480 1.053776 0.000000 0.000000 0.000000
0.547787 0.695004 1.094126 0.000000 0.000000 0.000000
0.513027 0.666259 1.047711 0.000000 0.000000 0.000000
0.515817 0.662162 1.051682 0.000000 0.000000 0.000000
0.559823 0.696676 1.092422 0.000000 0.000000 0.000000
0.559465 0.703849 1.091835 0.000000 0.000000 0.000000
0.509821 0.664390 1.048746 0.000000 0.000000 0.000000
0.517609 0.662045 1.053562 0.000000 0.000000 0.000000
0.556484 0.697636 1.081477 0.000000 0.000000 0.000000
0.524304 0.661678 1.059297 0.000000 0.000000 0.000000
0.557156 0.702435 1.084145 0.000000 0.000000 0.000000
0.513531 0.661388 1.050390 0.000000 0.000000 0.000000
0.555095 0.697305 1.088766 0.000000 0.000000 0.000000
0.527077 0.660830 1.059818 0.000000 0.000000 0.000000
