ply
format ascii 1.0
comment VCGLIB generated
obj_info Generated by SPFormer!
element vertex 234
property float x
property float y
property float z
property float nx
property float ny
property float nz
end_header
0.467676 0.857545 1.711663 0.000000 0.000000 0.000000
0.466146 0.847511 1.707977 0.000000 0.000000 0.000000
0.464632 0.849070 1.690421 0.000000 0.000000 0.000000
0.468290 0.859006 1.718110 0.000000 0.000000 0.000000
0.465524 0.852861 1.694468 0.000000 0.000000 0.000000
0.469035 0.857796 1.690979 0.000000 0.000000 0.000000
0.462615 0.853992 1.698901 0.000000 0.000000 0.000000
0.452046 0.850931 1.718973 0.000000 0.000000 0.000000
0.466754 0.850932 1.700005 0.000000 0.000000 0.000000
0.467187 0.858941 1.707909 0.000000 0.000000 0.000000
0.460783 0.850087 1.719126 0.000000 0.000000 0.000000
0.456864 0.850869 1.715575 0.000000 0.000000 0.000000
0.464221 0.865064 1.715501 0.000000 0.000000 0.000000
0.465419 0.856173 1.712737 0.000000 0.000000 0.000000
0.464990 0.851957 1.694289 0.000000 0.000000 0.000000
0.465442 0.860593 1.713255 0.000000 0.000000 0.000000
0.467246 0.853686 1.706057 0.000000 0.000000 0.000000
0.466581 0.857247 1.691624 0.000000 0.000000 0.000000
0.465885 0.845225 1.705506 0.000000 0.000000 0.000000
0.465476 0.858280 1.715603 0.000000 0.000000 0.000000
0.466588 0.856479 1.690024 0.000000 0.000000 0.000000
0.466450 0.851900 1.704261 0.000000 0.000000 0.000000
0.460480 0.861980 1.708266 0.000000 0.000000 0.000000
0.460811 0.852683 1.716115 0.000000 0.000000 0.000000
0.459904 0.866296 1.701387 0.000000 0.000000 0.000000
0.467231 0.862509 1.713417 0.000000 0.000000 0.000000
0.467392 0.854531 1.687338 0.000000 0.000000 0.000000
0.463777 0.865785 1.703263 0.000000 0.000000 0.000000
0.455178 0.848239 1.706028 0.000000 0.000000 0.000000
0.466012 0.857475 1.691926 0.000000 0.000000 0.000000
0.467424 0.846955 1.712480 0.000000 0.000000 0.000000
0.460088 0.858872 1.718800 0.000000 0.000000 0.000000
0.456746 0.851515 1.716175 0.000000 0.000000 0.000000
0.466958 0.847431 1.712017 0.000000 0.000000 0.000000
0.449271 0.845320 1.709483 0.000000 0.000000 0.000000
0.462926 0.860929 1.708377 0.000000 0.000000 0.000000
0.461942 0.866274 1.712939 0.000000 0.000000 0.000000
0.468390 0.854905 1.681634 0.000000 0.000000 0.000000
0.467644 0.859019 1.701492 0.000000 0.000000 0.000000
0.455640 0.851797 1.715175 0.000000 0.000000 0.000000
0.466325 0.855569 1.688514 0.000000 0.000000 0.000000
0.470032 0.857724 1.696490 0.000000 0.000000 0.000000
0.463312 0.857016 1.708423 0.000000 0.000000 0.000000
0.457550 0.851251 1.716199 0.000000 0.000000 0.000000
0.461462 0.852502 1.716071 0.000000 0.000000 0.000000
0.456424 0.860018 1.702820 0.000000 0.000000 0.000000
0.466212 0.857559 1.692949 0.000000 0.000000 0.000000
0.464294 0.850748 1.717679 0.000000 0.000000 0.000000
0.467020 0.856383 1.697814 0.000000 0.000000 0.000000
0.465943 0.860603 1.691423 0.000000 0.000000 0.000000
0.464928 0.857890 1.697882 0.000000 0.000000 0.000000
0.465370 0.853571 1.685155 0.000000 0.000000 0.000000
0.464546 0.849254 1.717079 0.000000 0.000000 0.000000
0.461987 0.860614 1.704980 0.000000 0.000000 0.000000
0.453250 0.852618 1.709865 0.000000 0.000000 0.000000
0.462064 0.851672 1.713089 0.000000 0.000000 0.000000
0.465859 0.853692 1.695864 0.000000 0.000000 0.000000
0.464915 0.852863 1.685589 0.000000 0.000000 0.000000
0.466324 0.855999 1.700290 0.000000 0.000000 0.000000
0.466684 0.858749 1.718891 0.000000 0.000000 0.000000
0.454132 0.850913 1.716041 0.000000 0.000000 0.000000
0.463828 0.860848 1.697915 0.000000 0.000000 0.000000
0.468949 0.856249 1.683114 0.000000 0.000000 0.000000
0.466442 0.853839 1.687491 0.000000 0.000000 0.000000
0.466122 0.860815 1.699879 0.000000 0.000000 0.000000
0.466716 0.848539 1.701285 0.000000 0.000000 0.000000
0.466267 0.867645 1.711229 0.000000 0.000000 0.000000
0.465926 0.859720 1.690912 0.000000 0.000000 0.000000
0.469502 0.864880 1.709962 0.000000 0.000000 0.000000
0.460031 0.851843 1.714077 0.000000 0.000000 0.000000
0.465532 0.858067 1.691429 0.000000 0.000000 0.000000
0.465084 0.858379 1.689748 0.000000 0.000000 0.000000
0.465433 0.851477 1.699314 0.000000 0.000000 0.000000
0.463565 0.853546 1.708951 0.000000 0.000000 0.000000
0.463916 0.863608 1.718283 0.000000 0.000000 0.000000
0.465791 0.857328 1.687164 0.000000 0.000000 0.000000
0.466275 0.852585 1.688863 0.000000 0.000000 0.000000
0.466080 0.851835 1.694480 0.000000 0.000000 0.000000
0.465274 0.852904 1.687796 0.000000 0.000000 0.000000
0.462955 0.853561 1.708172 0.000000 0.000000 0.000000
0.468433 0.849967 1.718796 0.000000 0.000000 0.000000
0.464862 0.851554 1.694729 0.000000 0.000000 0.000000
0.466467 0.857434 1.700797 0.000000 0.000000 0.000000
0.465033 0.854613 1.689107 0.000000 0.000000 0.000000
0.466904 0.848726 1.693843 0.000000 0.000000 0.000000
0.465199 0.849142 1.689712 0.000000 0.000000 0.000000
0.465564 0.851910 1.689317 0.000000 0.000000 0.000000
0.466183 0.856056 1.692774 0.000000 0.000000 0.000000
0.465068 0.852963 1.687654 0.000000 0.000000 0.000000
0.466425 0.852446 1.694242 0.000000 0.000000 0.000000
0.465595 0.859671 1.700415 0.000000 0.000000 0.000000
0.465533 0.855925 1.689473 0.000000 0.000000 0.000000
0.465428 0.854519 1.698871 0.000000 0.000000 0.000000
0.464521 0.851763 1.689235 0.000000 0.000000 0.000000
0.464951 0.850621 1.691851 0.000000 0.000000 0.000000
0.465208 0.850240 1.694227 0.000000 0.000000 0.000000
0.453073 0.848684 1.714089 0.000000 0.000000 0.000000
0.462059 0.853853 1.680194 0.000000 0.000000 0.000000
0.466131 0.849120 1.695459 0.000000 0.000000 0.000000
0.450897 0.846691 1.719375 0.000000 0.000000 0.000000
0.467429 0.857860 1.700428 0.000000 0.000000 0.000000
0.467297 0.857250 1.694950 0.000000 0.000000 0.000000
0.457201 0.851806 1.716614 0.000000 0.000000 0.000000
0.465193 0.848040 1.714898 0.000000 0.000000 0.000000
0.459273 0.864292 1.713747 0.000000 0.000000 0.000000
0.465485 0.858182 1.695895 0.000000 0.000000 0.000000
0.464758 0.859665 1.713918 0.000000 0.000000 0.000000
0.465476 0.849357 1.701239 0.000000 0.000000 0.000000
0.466856 0.844500 1.719263 0.000000 0.000000 0.000000
0.465909 0.861980 1.717368 0.000000 0.000000 0.000000
0.461660 0.865628 1.710598 0.000000 0.000000 0.000000
0.467478 0.865197 1.708199 0.000000 0.000000 0.000000
0.466556 0.846259 1.701199 0.000000 0.000000 0.000000
0.467384 0.863131 1.709384 0.000000 0.000000 0.000000
0.468080 0.849788 1.718485 0.000000 0.000000 0.000000
0.459262 0.862072 1.708989 0.000000 0.000000 0.000000
0.465312 0.853522 1.674927 0.000000 0.000000 0.000000
0.462933 0.846496 1.695804 0.000000 0.000000 0.000000
0.463399 0.844485 1.712276 0.000000 0.000000 0.000000
0.465144 0.850860 1.685436 0.000000 0.000000 0.000000
0.465299 0.852587 1.687858 0.000000 0.000000 0.000000
0.467027 0.854776 1.713527 0.000000 0.000000 0.000000
0.465884 0.856361 1.686800 0.000000 0.000000 0.000000
0.455922 0.851847 1.717247 0.000000 0.000000 0.000000
0.464623 0.864993 1.705246 0.000000 0.000000 0.000000
0.465596 0.850435 1.713034 0.000000 0.000000 0.000000
0.468954 0.855181 1.676429 0.000000 0.000000 0.000000
0.462255 0.866673 1.700321 0.000000 0.000000 0.000000
0.464814 0.866870 1.718528 0.000000 0.000000 0.000000
0.466606 0.866475 1.710135 0.000000 0.000000 0.000000
0.465668 0.851673 1.681643 0.000000 0.000000 0.000000
0.466631 0.851405 1.679804 0.000000 0.000000 0.000000
0.466590 0.853469 1.701096 0.000000 0.000000 0.000000
0.466918 0.858035 1.701005 0.000000 0.000000 0.000000
0.468721 0.861022 1.697824 0.000000 0.000000 0.000000
0.466184 0.857954 1.694990 0.000000 0.000000 0.000000
0.465092 0.855936 1.684710 0.000000 0.000000 0.000000
0.464256 0.842684 1.715259 0.000000 0.000000 0.000000
0.456858 0.864936 1.704335 0.000000 0.000000 0.000000
0.464892 0.846445 1.706551 0.000000 0.000000 0.000000
0.463778 0.871593 1.714870 0.000000 0.000000 0.000000
0.455695 0.864327 1.712658 0.000000 0.000000 0.000000
0.458442 0.865413 1.712745 0.000000 0.000000 0.000000
0.464763 0.855138 1.687213 0.000000 0.000000 0.000000
0.466804 0.855484 1.690566 0.000000 0.000000 0.000000
0.452434 0.849463 1.718834 0.000000 0.000000 0.000000
0.466874 0.847608 1.714156 0.000000 0.000000 0.000000
0.450244 0.851805 1.715261 0.000000 0.000000 0.000000
0.465260 0.847945 1.700970 0.000000 0.000000 0.000000
0.453991 0.849261 1.715061 0.000000 0.000000 0.000000
0.450510 0.846098 1.716307 0.000000 0.000000 0.000000
0.464803 0.859726 1.682490 0.000000 0.000000 0.000000
0.464996 0.852016 1.687444 0.000000 0.000000 0.000000
0.451914 0.848342 1.717403 0.000000 0.000000 0.000000
0.468990 0.853639 1.688172 0.000000 0.000000 0.000000
0.464474 0.859060 1.695254 0.000000 0.000000 0.000000
0.465367 0.853445 1.683535 0.000000 0.000000 0.000000
0.465480 0.855895 1.680061 0.000000 0.000000 0.000000
0.465731 0.861275 1.698342 0.000000 0.000000 0.000000
0.463536 0.871438 1.705852 0.000000 0.000000 0.000000
0.451782 0.847044 1.709233 0.000000 0.000000 0.000000
0.466046 0.863249 1.704534 0.000000 0.000000 0.000000
0.462877 0.863596 1.709873 0.000000 0.000000 0.000000
0.460017 0.864030 1.717246 0.000000 0.000000 0.000000
0.457856 0.849977 1.719588 0.000000 0.000000 0.000000
0.469295 0.856729 1.685217 0.000000 0.000000 0.000000
0.466859 0.860731 1.700573 0.000000 0.000000 0.000000
0.463636 0.861535 1.699829 0.000000 0.000000 0.000000
0.465041 0.860884 1.700627 0.000000 0.000000 0.000000
0.460745 0.860064 1.711502 0.000000 0.000000 0.000000
0.464507 0.848598 1.695087 0.000000 0.000000 0.000000
0.465796 0.859184 1.695668 0.000000 0.000000 0.000000
0.464093 0.863018 1.702922 0.000000 0.000000 0.000000
0.465972 0.855872 1.705708 0.000000 0.000000 0.000000
0.459383 0.860896 1.713398 0.000000 0.000000 0.000000
0.462817 0.859486 1.703006 0.000000 0.000000 0.000000
0.466088 0.860182 1.699017 0.000000 0.000000 0.000000
0.454117 0.859666 1.709446 0.000000 0.000000 0.000000
0.463112 0.849129 1.689766 0.000000 0.000000 0.000000
0.465400 0.849384 1.691974 0.000000 0.000000 0.000000
0.465048 0.846082 1.696974 0.000000 0.000000 0.000000
0.465507 0.865806 1.710222 0.000000 0.000000 0.000000
0.464243 0.863979 1.702077 0.000000 0.000000 0.000000
0.465296 0.866143 1.704783 0.000000 0.000000 0.000000
0.466046 0.866228 1.719368 0.000000 0.000000 0.000000
0.466343 0.861089 1.679196 0.000000 0.000000 0.000000
0.462477 0.848559 1.711686 0.000000 0.000000 0.000000
0.464693 0.850818 1.689610 0.000000 0.000000 0.000000
0.465689 0.866733 1.710032 0.000000 0.000000 0.000000
0.450162 0.846439 1.715389 0.000000 0.000000 0.000000
0.467827 0.866186 1.714807 0.000000 0.000000 0.000000
0.450839 0.845945 1.705091 0.000000 0.000000 0.000000
0.464109 0.858559 1.712132 0.000000 0.000000 0.000000
0.466863 0.853739 1.687835 0.000000 0.000000 0.000000
0.467695 0.854236 1.679533 0.000000 0.000000 0.000000
0.465664 0.850782 1.695030 0.000000 0.000000 0.000000
0.456009 0.851144 1.715384 0.000000 0.000000 0.000000
0.463939 0.859693 1.679056 0.000000 0.000000 0.000000
0.464553 0.862733 1.685627 0.000000 0.000000 0.000000
0.452721 0.842550 1.704973 0.000000 0.000000 0.000000
0.465370 0.851393 1.689069 0.000000 0.000000 0.000000
0.465263 0.860544 1.694839 0.000000 0.000000 0.000000
0.467134 0.844946 1.707427 0.000000 0.000000 0.000000
0.462833 0.847045 1.686730 0.000000 0.000000 0.000000
0.464737 0.843199 1.702628 0.000000 0.000000 0.000000
0.464274 0.843530 1.715461 0.000000 0.000000 0.000000
0.464251 0.849521 1.707366 0.000000 0.000000 0.000000
0.465675 0.843754 1.713493 0.000000 0.000000 0.000000
0.465464 0.840098 1.718581 0.000000 0.000000 0.000000
0.464739 0.844007 1.709579 0.000000 0.000000 0.000000
0.465873 0.842044 1.712527 0.000000 0.000000 0.000000
0.466348 0.842387 1.717160 0.000000 0.000000 0.000000
0.462698 0.865988 1.697132 0.000000 0.000000 0.000000
0.465886 0.850770 1.680235 0.000000 0.000000 0.000000
0.465021 0.852574 1.680765 0.000000 0.000000 0.000000
0.454527 0.867743 1.716264 0.000000 0.000000 0.000000
0.467270 0.856949 1.717255 0.000000 0.000000 0.000000
0.464938 0.859058 1.710454 0.000000 0.000000 0.000000
0.466404 0.857745 1.672709 0.000000 0.000000 0.000000
0.466135 0.859491 1.697544 0.000000 0.000000 0.000000
0.463855 0.858920 1.715726 0.000000 0.000000 0.000000
0.469277 0.857211 1.676515 0.000000 0.000000 0.000000
0.449976 0.848504 1.714712 0.000000 0.000000 0.000000
0.465543 0.865040 1.710010 0.000000 0.000000 0.000000
0.466015 0.859465 1.697775 0.000000 0.000000 0.000000
0.453398 0.849069 1.715846 0.000000 0.000000 0.000000
0.469197 0.856373 1.680576 0.000000 0.000000 0.000000
0.458246 0.852505 1.711657 0.000000 0.000000 0.000000
0.452071 0.843866 1.711395 0.000000 0.000000 0.000000
0.452147 0.848198 1.715933 0.000000 0.000000 0.000000
0.457045 0.853231 1.706514 0.000000 0.000000 0.000000
0.454760 0.853783 1.719436 0.000000 0.000000 0.000000
0.450240 0.848030 1.715818 0.000000 0.000000 0.000000
0.459681 0.851778 1.715736 0.000000 0.000000 0.000000
