ply
format ascii 1.0
comment VCGLIB generated
obj_info Generated by SPFormer!
element vertex 884
property float x
property float y
property float z
property float nx
property float ny
property float nz
end_header
0.471566 1.026542 1.728886 0.000000 0.000000 0.000000
0.594976 1.029904 1.741142 0.000000 0.000000 0.000000
0.566609 1.081385 1.741349 0.000000 0.000000 0.000000
0.448075 0.983168 1.727581 0.000000 0.000000 0.000000
0.505720 0.953429 1.734916 0.000000 0.000000 0.000000
0.482354 1.032622 1.725239 0.000000 0.000000 0.000000
0.520815 1.060896 1.733958 0.000000 0.000000 0.000000
0.526809 0.939826 1.732758 0.000000 0.000000 0.000000
0.447959 1.009589 1.720145 0.000000 0.000000 0.000000
0.596936 1.051617 1.745885 0.000000 0.000000 0.000000
0.593630 1.099021 1.749135 0.000000 0.000000 0.000000
0.439152 1.001009 1.721723 0.000000 0.000000 0.000000
0.530508 0.951318 1.732363 0.000000 0.000000 0.000000
0.420991 0.959823 1.725025 0.000000 0.000000 0.000000
0.579333 1.089481 1.744964 0.000000 0.000000 0.000000
0.484311 0.929240 1.730093 0.000000 0.000000 0.000000
0.580205 1.065410 1.746609 0.000000 0.000000 0.000000
0.605901 1.071555 1.748806 0.000000 0.000000 0.000000
0.439466 0.971253 1.727276 0.000000 0.000000 0.000000
0.409069 0.953590 1.727356 0.000000 0.000000 0.000000
0.508143 1.045707 1.728703 0.000000 0.000000 0.000000
0.607812 1.045906 1.746014 0.000000 0.000000 0.000000
0.465525 0.926737 1.729878 0.000000 0.000000 0.000000
0.563973 1.039447 1.741427 0.000000 0.000000 0.000000
0.494362 0.935530 1.730419 0.000000 0.000000 0.000000
0.471935 0.957665 1.729365 0.000000 0.000000 0.000000
0.576202 0.974111 1.739315 0.000000 0.000000 0.000000
0.600927 1.058328 1.747670 0.000000 0.000000 0.000000
0.557801 0.996002 1.737131 0.000000 0.000000 0.000000
0.473290 0.931389 1.730955 0.000000 0.000000 0.000000
0.592538 1.098786 1.749040 0.000000 0.000000 0.000000
0.534846 0.936783 1.733069 0.000000 0.000000 0.000000
0.496679 1.033790 1.727949 0.000000 0.000000 0.000000
0.533564 1.071530 1.733073 0.000000 0.000000 0.000000
0.529351 0.975901 1.730727 0.000000 0.000000 0.000000
0.576679 1.046278 1.742478 0.000000 0.000000 0.000000
0.590238 1.018269 1.740310 0.000000 0.000000 0.000000
0.511228 1.058604 1.729897 0.000000 0.000000 0.000000
0.465110 0.962814 1.737366 0.000000 0.000000 0.000000
0.569484 1.074327 1.744724 0.000000 0.000000 0.000000
0.520701 1.051837 1.732157 0.000000 0.000000 0.000000
0.502129 0.926880 1.728988 0.000000 0.000000 0.000000
0.590089 1.015402 1.740703 0.000000 0.000000 0.000000
0.578385 1.075715 1.747188 0.000000 0.000000 0.000000
0.538581 0.953760 1.738462 0.000000 0.000000 0.000000
0.589337 1.112568 1.747263 0.000000 0.000000 0.000000
0.579368 1.042634 1.745235 0.000000 0.000000 0.000000
0.433323 1.019601 1.705152 0.000000 0.000000 0.000000
0.589997 1.024613 1.742383 0.000000 0.000000 0.000000
0.577574 1.033878 1.739280 0.000000 0.000000 0.000000
0.532811 1.086116 1.730852 0.000000 0.000000 0.000000
0.500281 1.042988 1.727443 0.000000 0.000000 0.000000
0.478991 1.038415 1.720333 0.000000 0.000000 0.000000
0.579611 1.012883 1.738635 0.000000 0.000000 0.000000
0.572639 1.041852 1.741006 0.000000 0.000000 0.000000
0.469760 0.994280 1.728105 0.000000 0.000000 0.000000
0.480965 1.037017 1.722237 0.000000 0.000000 0.000000
0.561825 1.108418 1.737328 0.000000 0.000000 0.000000
0.482915 1.010573 1.731406 0.000000 0.000000 0.000000
0.556322 0.970816 1.739814 0.000000 0.000000 0.000000
0.581609 1.055260 1.743713 0.000000 0.000000 0.000000
0.477927 1.053909 1.718896 0.000000 0.000000 0.000000
0.578801 1.039852 1.741820 0.000000 0.000000 0.000000
0.498860 0.933439 1.730910 0.000000 0.000000 0.000000
0.596349 1.103975 1.750786 0.000000 0.000000 0.000000
0.582123 1.037175 1.743801 0.000000 0.000000 0.000000
0.582553 1.044374 1.744090 0.000000 0.000000 0.000000
0.529635 0.974876 1.734751 0.000000 0.000000 0.000000
0.589307 1.067165 1.746846 0.000000 0.000000 0.000000
0.580206 1.066918 1.747060 0.000000 0.000000 0.000000
0.582339 1.074580 1.748975 0.000000 0.000000 0.000000
0.478783 0.954419 1.729487 0.000000 0.000000 0.000000
0.507747 0.945163 1.732399 0.000000 0.000000 0.000000
0.454395 1.002138 1.723088 0.000000 0.000000 0.000000
0.600188 1.032538 1.741375 0.000000 0.000000 0.000000
0.538767 0.976444 1.735313 0.000000 0.000000 0.000000
0.577037 1.092663 1.743106 0.000000 0.000000 0.000000
0.562327 0.961408 1.740210 0.000000 0.000000 0.000000
0.480094 1.008906 1.728967 0.000000 0.000000 0.000000
0.509467 1.038190 1.728155 0.000000 0.000000 0.000000
0.559948 1.015711 1.736925 0.000000 0.000000 0.000000
0.604560 1.073692 1.748967 0.000000 0.000000 0.000000
0.525436 1.071211 1.729464 0.000000 0.000000 0.000000
0.527806 1.078613 1.729224 0.000000 0.000000 0.000000
0.542568 0.957605 1.735548 0.000000 0.000000 0.000000
0.465276 1.011675 1.724456 0.000000 0.000000 0.000000
0.573015 1.046860 1.743252 0.000000 0.000000 0.000000
0.510012 1.067607 1.725316 0.000000 0.000000 0.000000
0.562713 1.073817 1.738902 0.000000 0.000000 0.000000
0.511168 1.089150 1.719139 0.000000 0.000000 0.000000
0.533703 1.071318 1.730301 0.000000 0.000000 0.000000
0.488430 1.043411 1.722838 0.000000 0.000000 0.000000
0.557568 1.004931 1.739288 0.000000 0.000000 0.000000
0.452158 1.030377 1.712563 0.000000 0.000000 0.000000
0.441913 0.997120 1.720865 0.000000 0.000000 0.000000
0.548529 0.984621 1.736851 0.000000 0.000000 0.000000
0.508918 1.040286 1.728983 0.000000 0.000000 0.000000
0.531509 1.071534 1.731861 0.000000 0.000000 0.000000
0.597721 1.036867 1.744726 0.000000 0.000000 0.000000
0.598271 1.071310 1.748924 0.000000 0.000000 0.000000
0.509870 0.934697 1.731551 0.000000 0.000000 0.000000
0.566442 1.106533 1.739676 0.000000 0.000000 0.000000
0.533897 0.941851 1.730815 0.000000 0.000000 0.000000
0.431020 0.977994 1.723196 0.000000 0.000000 0.000000
0.500228 0.924497 1.729257 0.000000 0.000000 0.000000
0.452282 1.000154 1.724258 0.000000 0.000000 0.000000
0.588914 1.072123 1.747898 0.000000 0.000000 0.000000
0.584201 1.008566 1.743094 0.000000 0.000000 0.000000
0.604164 1.022673 1.741495 0.000000 0.000000 0.000000
0.572686 1.034094 1.741145 0.000000 0.000000 0.000000
0.536973 1.062053 1.738110 0.000000 0.000000 0.000000
0.462754 1.002078 1.726608 0.000000 0.000000 0.000000
0.577550 1.076191 1.745075 0.000000 0.000000 0.000000
0.423731 0.961913 1.727123 0.000000 0.000000 0.000000
0.453495 0.931046 1.729637 0.000000 0.000000 0.000000
0.446025 0.992944 1.721412 0.000000 0.000000 0.000000
0.488023 0.944942 1.730735 0.000000 0.000000 0.000000
0.538302 1.068852 1.740692 0.000000 0.000000 0.000000
0.444335 0.926831 1.730075 0.000000 0.000000 0.000000
0.552774 1.077775 1.738011 0.000000 0.000000 0.000000
0.576731 1.094879 1.743398 0.000000 0.000000 0.000000
0.567634 0.984886 1.737739 0.000000 0.000000 0.000000
0.474481 0.944369 1.728850 0.000000 0.000000 0.000000
0.600437 1.102738 1.751577 0.000000 0.000000 0.000000
0.494578 1.080225 1.717369 0.000000 0.000000 0.000000
0.597165 1.105263 1.751048 0.000000 0.000000 0.000000
0.403983 0.944268 1.737154 0.000000 0.000000 0.000000
0.616081 1.061718 1.747597 0.000000 0.000000 0.000000
0.452623 0.956261 1.729250 0.000000 0.000000 0.000000
0.598576 1.065885 1.747872 0.000000 0.000000 0.000000
0.469352 0.985543 1.728782 0.000000 0.000000 0.000000
0.500051 0.946359 1.730092 0.000000 0.000000 0.000000
0.555503 0.963460 1.735953 0.000000 0.000000 0.000000
0.428025 0.955850 1.730381 0.000000 0.000000 0.000000
0.520802 0.940219 1.733156 0.000000 0.000000 0.000000
0.495317 0.947069 1.732557 0.000000 0.000000 0.000000
0.495703 1.072284 1.719910 0.000000 0.000000 0.000000
0.472378 0.968248 1.731852 0.000000 0.000000 0.000000
0.585225 1.080859 1.745040 0.000000 0.000000 0.000000
0.588840 1.059531 1.744892 0.000000 0.000000 0.000000
0.505572 1.039086 1.730946 0.000000 0.000000 0.000000
0.566830 1.023507 1.740904 0.000000 0.000000 0.000000
0.468194 1.037692 1.717704 0.000000 0.000000 0.000000
0.510493 0.942154 1.732328 0.000000 0.000000 0.000000
0.472879 0.937119 1.729504 0.000000 0.000000 0.000000
0.504432 0.941344 1.727415 0.000000 0.000000 0.000000
0.524215 0.936719 1.733322 0.000000 0.000000 0.000000
0.524061 1.029567 1.737464 0.000000 0.000000 0.000000
0.540019 1.074156 1.733977 0.000000 0.000000 0.000000
0.427788 0.953698 1.729901 0.000000 0.000000 0.000000
0.488953 1.033339 1.725727 0.000000 0.000000 0.000000
0.500664 0.943054 1.731722 0.000000 0.000000 0.000000
0.426174 0.991967 1.717555 0.000000 0.000000 0.000000
0.473727 1.064975 1.713436 0.000000 0.000000 0.000000
0.432657 0.931289 1.730924 0.000000 0.000000 0.000000
0.608380 1.102630 1.758142 0.000000 0.000000 0.000000
0.576270 1.025257 1.737706 0.000000 0.000000 0.000000
0.497368 1.073987 1.720891 0.000000 0.000000 0.000000
0.586480 1.055609 1.745805 0.000000 0.000000 0.000000
0.594300 0.987783 1.739553 0.000000 0.000000 0.000000
0.607702 1.096172 1.752817 0.000000 0.000000 0.000000
0.478817 0.923612 1.728361 0.000000 0.000000 0.000000
0.606646 1.058170 1.746268 0.000000 0.000000 0.000000
0.582500 1.087902 1.748187 0.000000 0.000000 0.000000
0.603519 1.018973 1.741215 0.000000 0.000000 0.000000
0.472561 0.933682 1.728967 0.000000 0.000000 0.000000
0.562600 1.096913 1.737886 0.000000 0.000000 0.000000
0.436924 0.920017 1.728186 0.000000 0.000000 0.000000
0.609249 1.035298 1.744118 0.000000 0.000000 0.000000
0.604296 1.015895 1.741779 0.000000 0.000000 0.000000
0.439885 0.950751 1.730029 0.000000 0.000000 0.000000
0.522348 0.964419 1.731606 0.000000 0.000000 0.000000
0.424843 0.983164 1.717826 0.000000 0.000000 0.000000
0.442720 0.947303 1.728007 0.000000 0.000000 0.000000
0.510186 1.079162 1.723513 0.000000 0.000000 0.000000
0.607708 1.081061 1.751290 0.000000 0.000000 0.000000
0.431210 0.933332 1.731225 0.000000 0.000000 0.000000
0.592835 1.059683 1.746665 0.000000 0.000000 0.000000
0.587776 1.041645 1.741665 0.000000 0.000000 0.000000
0.472234 0.920229 1.725674 0.000000 0.000000 0.000000
0.576657 1.101171 1.744509 0.000000 0.000000 0.000000
0.542117 1.095161 1.732734 0.000000 0.000000 0.000000
0.567260 0.982889 1.739286 0.000000 0.000000 0.000000
0.454553 0.917340 1.730459 0.000000 0.000000 0.000000
0.571464 1.064642 1.740149 0.000000 0.000000 0.000000
0.499677 1.054712 1.725576 0.000000 0.000000 0.000000
0.539736 0.996723 1.734701 0.000000 0.000000 0.000000
0.527288 0.995810 1.735194 0.000000 0.000000 0.000000
0.585083 1.050277 1.745352 0.000000 0.000000 0.000000
0.508425 1.088505 1.722506 0.000000 0.000000 0.000000
0.556447 1.108694 1.735054 0.000000 0.000000 0.000000
0.530712 1.093156 1.728642 0.000000 0.000000 0.000000
0.466430 1.002526 1.727312 0.000000 0.000000 0.000000
0.600201 1.057503 1.745985 0.000000 0.000000 0.000000
0.438649 1.002693 1.714625 0.000000 0.000000 0.000000
0.427323 1.006430 1.709596 0.000000 0.000000 0.000000
0.508253 1.084792 1.722336 0.000000 0.000000 0.000000
0.545499 1.085394 1.732668 0.000000 0.000000 0.000000
0.603426 1.074961 1.750011 0.000000 0.000000 0.000000
0.438468 0.932354 1.730690 0.000000 0.000000 0.000000
0.483836 1.036268 1.725920 0.000000 0.000000 0.000000
0.428372 0.975537 1.725791 0.000000 0.000000 0.000000
0.585121 1.096948 1.746984 0.000000 0.000000 0.000000
0.490650 0.938998 1.730451 0.000000 0.000000 0.000000
0.538092 0.972558 1.732860 0.000000 0.000000 0.000000
0.603850 1.061499 1.749598 0.000000 0.000000 0.000000
0.446064 0.919871 1.729239 0.000000 0.000000 0.000000
0.498966 0.928059 1.728676 0.000000 0.000000 0.000000
0.585567 1.081233 1.747609 0.000000 0.000000 0.000000
0.490477 1.046090 1.725387 0.000000 0.000000 0.000000
0.544111 1.008451 1.735404 0.000000 0.000000 0.000000
0.465426 0.954068 1.730775 0.000000 0.000000 0.000000
0.581127 1.107021 1.744513 0.000000 0.000000 0.000000
0.544313 1.089061 1.731745 0.000000 0.000000 0.000000
0.513786 0.922528 1.730293 0.000000 0.000000 0.000000
0.472969 1.020864 1.725190 0.000000 0.000000 0.000000
0.410160 0.966936 1.721552 0.000000 0.000000 0.000000
0.467247 1.048739 1.712477 0.000000 0.000000 0.000000
0.435657 1.004349 1.716272 0.000000 0.000000 0.000000
0.416361 0.976586 1.717101 0.000000 0.000000 0.000000
0.594443 1.090338 1.748697 0.000000 0.000000 0.000000
0.502685 0.950619 1.730891 0.000000 0.000000 0.000000
0.512318 0.941170 1.734249 0.000000 0.000000 0.000000
0.571128 1.019755 1.741018 0.000000 0.000000 0.000000
0.558445 0.985160 1.737068 0.000000 0.000000 0.000000
0.526381 0.956547 1.732363 0.000000 0.000000 0.000000
0.607337 1.056951 1.746997 0.000000 0.000000 0.000000
0.519866 0.988477 1.734478 0.000000 0.000000 0.000000
0.434821 1.007700 1.712521 0.000000 0.000000 0.000000
0.568568 0.979803 1.737399 0.000000 0.000000 0.000000
0.478785 0.945666 1.728392 0.000000 0.000000 0.000000
0.464275 0.952361 1.729812 0.000000 0.000000 0.000000
0.497287 0.925512 1.728960 0.000000 0.000000 0.000000
0.576584 1.020915 1.738356 0.000000 0.000000 0.000000
0.565885 0.978081 1.738263 0.000000 0.000000 0.000000
0.543473 0.946177 1.732161 0.000000 0.000000 0.000000
0.610102 1.053188 1.746298 0.000000 0.000000 0.000000
0.546318 1.102266 1.733279 0.000000 0.000000 0.000000
0.519331 0.944099 1.728376 0.000000 0.000000 0.000000
0.595517 1.103340 1.754980 0.000000 0.000000 0.000000
0.577886 0.992579 1.741186 0.000000 0.000000 0.000000
0.472124 1.049143 1.717453 0.000000 0.000000 0.000000
0.425845 0.982469 1.722972 0.000000 0.000000 0.000000
0.521344 0.949730 1.733436 0.000000 0.000000 0.000000
0.491365 0.969013 1.729893 0.000000 0.000000 0.000000
0.549785 0.969769 1.733131 0.000000 0.000000 0.000000
0.478927 1.035589 1.721569 0.000000 0.000000 0.000000
0.523027 1.082318 1.726975 0.000000 0.000000 0.000000
0.431886 0.998667 1.713426 0.000000 0.000000 0.000000
0.577783 1.090046 1.741717 0.000000 0.000000 0.000000
0.543805 1.101576 1.732450 0.000000 0.000000 0.000000
0.603959 1.075322 1.749548 0.000000 0.000000 0.000000
0.580492 1.025238 1.741449 0.000000 0.000000 0.000000
0.543606 1.097429 1.732619 0.000000 0.000000 0.000000
0.556833 0.997629 1.740508 0.000000 0.000000 0.000000
0.594428 1.105713 1.750377 0.000000 0.000000 0.000000
0.486012 1.011969 1.727129 0.000000 0.000000 0.000000
0.430485 0.943596 1.730227 0.000000 0.000000 0.000000
0.511323 1.086488 1.722873 0.000000 0.000000 0.000000
0.455026 1.029122 1.713525 0.000000 0.000000 0.000000
0.493363 1.076051 1.718671 0.000000 0.000000 0.000000
0.426294 1.001350 1.710762 0.000000 0.000000 0.000000
0.441620 0.926324 1.730713 0.000000 0.000000 0.000000
0.516260 0.930325 1.727859 0.000000 0.000000 0.000000
0.517412 0.940907 1.735487 0.000000 0.000000 0.000000
0.504305 1.063923 1.725098 0.000000 0.000000 0.000000
0.512687 0.949122 1.730131 0.000000 0.000000 0.000000
0.602633 1.064064 1.751520 0.000000 0.000000 0.000000
0.586569 1.112567 1.746225 0.000000 0.000000 0.000000
0.414378 0.935750 1.734414 0.000000 0.000000 0.000000
0.495509 0.917577 1.727231 0.000000 0.000000 0.000000
0.600228 1.072518 1.749569 0.000000 0.000000 0.000000
0.551091 1.049157 1.733207 0.000000 0.000000 0.000000
0.509295 1.069261 1.727705 0.000000 0.000000 0.000000
0.583430 1.071024 1.752554 0.000000 0.000000 0.000000
0.584804 1.045408 1.744323 0.000000 0.000000 0.000000
0.461347 1.039283 1.714351 0.000000 0.000000 0.000000
0.594328 1.037299 1.741616 0.000000 0.000000 0.000000
0.601079 0.997754 1.740075 0.000000 0.000000 0.000000
0.584431 1.101391 1.745507 0.000000 0.000000 0.000000
0.591076 1.023446 1.743832 0.000000 0.000000 0.000000
0.557567 0.972162 1.735877 0.000000 0.000000 0.000000
0.452332 0.938779 1.730516 0.000000 0.000000 0.000000
0.540542 0.941936 1.734736 0.000000 0.000000 0.000000
0.568120 1.098278 1.743131 0.000000 0.000000 0.000000
0.567057 0.988766 1.735870 0.000000 0.000000 0.000000
0.478332 1.060858 1.707755 0.000000 0.000000 0.000000
0.601426 1.026217 1.743409 0.000000 0.000000 0.000000
0.555642 0.978532 1.737556 0.000000 0.000000 0.000000
0.428138 1.003251 1.710446 0.000000 0.000000 0.000000
0.455899 1.038836 1.709825 0.000000 0.000000 0.000000
0.413328 0.947131 1.729994 0.000000 0.000000 0.000000
0.468560 0.923805 1.729589 0.000000 0.000000 0.000000
0.550284 0.979179 1.735987 0.000000 0.000000 0.000000
0.552703 0.950797 1.735216 0.000000 0.000000 0.000000
0.523069 0.941311 1.734681 0.000000 0.000000 0.000000
0.512960 1.083822 1.725083 0.000000 0.000000 0.000000
0.485338 0.917847 1.728536 0.000000 0.000000 0.000000
0.497586 1.074810 1.720367 0.000000 0.000000 0.000000
0.497730 1.062775 1.723780 0.000000 0.000000 0.000000
0.573562 0.990115 1.739739 0.000000 0.000000 0.000000
0.479535 0.929044 1.729113 0.000000 0.000000 0.000000
0.448909 1.016445 1.715246 0.000000 0.000000 0.000000
0.424515 1.010225 1.706083 0.000000 0.000000 0.000000
0.555471 0.967021 1.740061 0.000000 0.000000 0.000000
0.496118 1.061427 1.716350 0.000000 0.000000 0.000000
0.535171 1.104188 1.727906 0.000000 0.000000 0.000000
0.546642 1.000064 1.735098 0.000000 0.000000 0.000000
0.612605 1.038353 1.744215 0.000000 0.000000 0.000000
0.599054 1.095183 1.750327 0.000000 0.000000 0.000000
0.610378 1.044711 1.743629 0.000000 0.000000 0.000000
0.530930 0.946507 1.732055 0.000000 0.000000 0.000000
0.582432 0.963801 1.736839 0.000000 0.000000 0.000000
0.543718 1.104314 1.730416 0.000000 0.000000 0.000000
0.487170 0.919544 1.726292 0.000000 0.000000 0.000000
0.608921 1.104344 1.755136 0.000000 0.000000 0.000000
0.572103 0.997783 1.738656 0.000000 0.000000 0.000000
0.586187 1.100841 1.754316 0.000000 0.000000 0.000000
0.540179 0.945979 1.733378 0.000000 0.000000 0.000000
0.615918 1.082469 1.750832 0.000000 0.000000 0.000000
0.560969 1.001422 1.735823 0.000000 0.000000 0.000000
0.564827 1.037888 1.737638 0.000000 0.000000 0.000000
0.598169 1.079659 1.753040 0.000000 0.000000 0.000000
0.402930 0.948035 1.727384 0.000000 0.000000 0.000000
0.418609 0.937597 1.731312 0.000000 0.000000 0.000000
0.402808 0.941402 1.737988 0.000000 0.000000 0.000000
0.434792 0.940777 1.729986 0.000000 0.000000 0.000000
0.476178 0.917695 1.728569 0.000000 0.000000 0.000000
0.564735 1.107809 1.740087 0.000000 0.000000 0.000000
0.508686 0.929103 1.729454 0.000000 0.000000 0.000000
0.469441 0.968242 1.733515 0.000000 0.000000 0.000000
0.466876 0.979244 1.731655 0.000000 0.000000 0.000000
0.474879 1.057502 1.710637 0.000000 0.000000 0.000000
0.426911 0.957693 1.729760 0.000000 0.000000 0.000000
0.430369 0.969291 1.727932 0.000000 0.000000 0.000000
0.458807 1.013971 1.721820 0.000000 0.000000 0.000000
0.580663 0.986447 1.740771 0.000000 0.000000 0.000000
0.509304 1.084080 1.723387 0.000000 0.000000 0.000000
0.434732 0.961394 1.730160 0.000000 0.000000 0.000000
0.514033 0.940607 1.731866 0.000000 0.000000 0.000000
0.427381 0.940406 1.733327 0.000000 0.000000 0.000000
0.492382 0.975543 1.729858 0.000000 0.000000 0.000000
0.465259 0.968977 1.730314 0.000000 0.000000 0.000000
0.451554 0.952230 1.728473 0.000000 0.000000 0.000000
0.531879 0.980329 1.734086 0.000000 0.000000 0.000000
0.481878 0.925893 1.733320 0.000000 0.000000 0.000000
0.456497 1.032134 1.712967 0.000000 0.000000 0.000000
0.498284 1.083053 1.718777 0.000000 0.000000 0.000000
0.485629 0.930133 1.729127 0.000000 0.000000 0.000000
0.414896 0.969053 1.721884 0.000000 0.000000 0.000000
0.461705 0.929311 1.729479 0.000000 0.000000 0.000000
0.539749 0.977227 1.734885 0.000000 0.000000 0.000000
0.544726 0.953495 1.734617 0.000000 0.000000 0.000000
0.445021 1.035643 1.706545 0.000000 0.000000 0.000000
0.495948 1.085457 1.717689 0.000000 0.000000 0.000000
0.602219 1.090425 1.755454 0.000000 0.000000 0.000000
0.481075 0.937795 1.729605 0.000000 0.000000 0.000000
0.537612 1.011334 1.736944 0.000000 0.000000 0.000000
0.461358 1.029637 1.717814 0.000000 0.000000 0.000000
0.455560 0.944308 1.727596 0.000000 0.000000 0.000000
0.409707 0.976921 1.713794 0.000000 0.000000 0.000000
0.409694 0.940122 1.730895 0.000000 0.000000 0.000000
0.467880 1.006154 1.727242 0.000000 0.000000 0.000000
0.401504 0.942775 1.735350 0.000000 0.000000 0.000000
0.514914 0.929696 1.730721 0.000000 0.000000 0.000000
0.621399 1.090662 1.754528 0.000000 0.000000 0.000000
0.528038 0.934840 1.729465 0.000000 0.000000 0.000000
0.566317 0.962543 1.736589 0.000000 0.000000 0.000000
0.545028 0.990894 1.739527 0.000000 0.000000 0.000000
0.435146 0.996413 1.720015 0.000000 0.000000 0.000000
0.535869 0.934898 1.731638 0.000000 0.000000 0.000000
0.607659 1.101433 1.753330 0.000000 0.000000 0.000000
0.540630 1.094267 1.729559 0.000000 0.000000 0.000000
0.569034 1.000976 1.742088 0.000000 0.000000 0.000000
0.599793 1.098854 1.751336 0.000000 0.000000 0.000000
0.414619 0.937882 1.733512 0.000000 0.000000 0.000000
0.424409 0.934991 1.730951 0.000000 0.000000 0.000000
0.592632 1.082728 1.747773 0.000000 0.000000 0.000000
0.573777 1.082563 1.744359 0.000000 0.000000 0.000000
0.509978 1.082470 1.723595 0.000000 0.000000 0.000000
0.514700 0.934153 1.734371 0.000000 0.000000 0.000000
0.577747 1.087964 1.743161 0.000000 0.000000 0.000000
0.528340 0.938123 1.730326 0.000000 0.000000 0.000000
0.577144 1.112668 1.743036 0.000000 0.000000 0.000000
0.530724 0.927382 1.730516 0.000000 0.000000 0.000000
0.491969 1.054697 1.722783 0.000000 0.000000 0.000000
0.580504 1.073449 1.744247 0.000000 0.000000 0.000000
0.573416 0.992248 1.738564 0.000000 0.000000 0.000000
0.515422 1.095100 1.722735 0.000000 0.000000 0.000000
0.408697 0.967135 1.719097 0.000000 0.000000 0.000000
0.575956 1.096146 1.742209 0.000000 0.000000 0.000000
0.600814 1.107145 1.751693 0.000000 0.000000 0.000000
0.495510 1.088768 1.715872 0.000000 0.000000 0.000000
0.579883 0.980203 1.739150 0.000000 0.000000 0.000000
0.541463 0.978267 1.735721 0.000000 0.000000 0.000000
0.496870 1.069367 1.722143 0.000000 0.000000 0.000000
0.574628 0.971756 1.739275 0.000000 0.000000 0.000000
0.601503 1.050563 1.746288 0.000000 0.000000 0.000000
0.423922 0.941736 1.727919 0.000000 0.000000 0.000000
0.580499 0.992913 1.740093 0.000000 0.000000 0.000000
0.524490 1.099624 1.725334 0.000000 0.000000 0.000000
0.575656 1.110601 1.742737 0.000000 0.000000 0.000000
0.417668 0.978776 1.719864 0.000000 0.000000 0.000000
0.578421 1.002995 1.742000 0.000000 0.000000 0.000000
0.452200 1.049581 1.706600 0.000000 0.000000 0.000000
0.570291 1.104843 1.740395 0.000000 0.000000 0.000000
0.498010 0.951606 1.734517 0.000000 0.000000 0.000000
0.403232 0.938459 1.741658 0.000000 0.000000 0.000000
0.533412 0.936431 1.731182 0.000000 0.000000 0.000000
0.565892 1.086295 1.739632 0.000000 0.000000 0.000000
0.586450 1.086154 1.748621 0.000000 0.000000 0.000000
0.554746 1.069786 1.741423 0.000000 0.000000 0.000000
0.578243 1.064094 1.749807 0.000000 0.000000 0.000000
0.558993 1.045297 1.742596 0.000000 0.000000 0.000000
0.583727 1.092787 1.745023 0.000000 0.000000 0.000000
0.515058 0.951215 1.738073 0.000000 0.000000 0.000000
0.547471 1.098323 1.734372 0.000000 0.000000 0.000000
0.578815 1.098958 1.742504 0.000000 0.000000 0.000000
0.470203 1.061835 1.712552 0.000000 0.000000 0.000000
0.540761 0.933247 1.731309 0.000000 0.000000 0.000000
0.538487 0.939732 1.731868 0.000000 0.000000 0.000000
0.608469 1.046840 1.745462 0.000000 0.000000 0.000000
0.567542 1.056581 1.745242 0.000000 0.000000 0.000000
0.595311 1.095291 1.746644 0.000000 0.000000 0.000000
0.590432 1.051564 1.745904 0.000000 0.000000 0.000000
0.592326 1.105180 1.747481 0.000000 0.000000 0.000000
0.595057 1.082291 1.755182 0.000000 0.000000 0.000000
0.503372 0.928453 1.729701 0.000000 0.000000 0.000000
0.603267 1.089997 1.750903 0.000000 0.000000 0.000000
0.549079 1.099402 1.732891 0.000000 0.000000 0.000000
0.484424 1.057612 1.719274 0.000000 0.000000 0.000000
0.571928 1.105754 1.741136 0.000000 0.000000 0.000000
0.583077 0.975556 1.738164 0.000000 0.000000 0.000000
0.548263 0.940760 1.734418 0.000000 0.000000 0.000000
0.439970 1.027613 1.707046 0.000000 0.000000 0.000000
0.557980 1.092935 1.737612 0.000000 0.000000 0.000000
0.516993 0.943884 1.734109 0.000000 0.000000 0.000000
0.511278 0.948713 1.734652 0.000000 0.000000 0.000000
0.534937 0.946359 1.732396 0.000000 0.000000 0.000000
0.477481 0.932851 1.730976 0.000000 0.000000 0.000000
0.589456 1.100278 1.747248 0.000000 0.000000 0.000000
0.464927 0.916136 1.729358 0.000000 0.000000 0.000000
0.605206 1.029351 1.741330 0.000000 0.000000 0.000000
0.469408 1.049399 1.714189 0.000000 0.000000 0.000000
0.465800 1.042304 1.713664 0.000000 0.000000 0.000000
0.472889 1.051657 1.711913 0.000000 0.000000 0.000000
0.451271 1.048399 1.706838 0.000000 0.000000 0.000000
0.532963 0.965270 1.736078 0.000000 0.000000 0.000000
0.516071 0.930260 1.730651 0.000000 0.000000 0.000000
0.463752 1.014103 1.721058 0.000000 0.000000 0.000000
0.500042 0.923785 1.728559 0.000000 0.000000 0.000000
0.620553 1.087126 1.752615 0.000000 0.000000 0.000000
0.470831 1.061611 1.711487 0.000000 0.000000 0.000000
0.446901 1.039740 1.706892 0.000000 0.000000 0.000000
0.448202 1.034156 1.709008 0.000000 0.000000 0.000000
0.589696 1.020983 1.744184 0.000000 0.000000 0.000000
0.493954 1.080743 1.717514 0.000000 0.000000 0.000000
0.446628 1.043350 1.706081 0.000000 0.000000 0.000000
0.449255 1.049536 1.705961 0.000000 0.000000 0.000000
0.548351 1.088726 1.736973 0.000000 0.000000 0.000000
0.547464 1.099028 1.733608 0.000000 0.000000 0.000000
0.546157 1.096487 1.732887 0.000000 0.000000 0.000000
0.553538 1.102208 1.736081 0.000000 0.000000 0.000000
0.470919 1.041818 1.717101 0.000000 0.000000 0.000000
0.578738 1.111382 1.743514 0.000000 0.000000 0.000000
0.456706 1.034776 1.712473 0.000000 0.000000 0.000000
0.540638 1.088756 1.737177 0.000000 0.000000 0.000000
0.459038 0.933933 1.728895 0.000000 0.000000 0.000000
0.435064 1.018308 1.711007 0.000000 0.000000 0.000000
0.441435 1.031977 1.704330 0.000000 0.000000 0.000000
0.473584 1.052996 1.715172 0.000000 0.000000 0.000000
0.466362 1.064058 1.709610 0.000000 0.000000 0.000000
0.607358 1.095427 1.755412 0.000000 0.000000 0.000000
0.520646 0.930152 1.727346 0.000000 0.000000 0.000000
0.499019 1.087014 1.718951 0.000000 0.000000 0.000000
0.435401 1.019529 1.707143 0.000000 0.000000 0.000000
0.598697 1.063844 1.746738 0.000000 0.000000 0.000000
0.535252 0.942812 1.735268 0.000000 0.000000 0.000000
0.550489 0.939643 1.733099 0.000000 0.000000 0.000000
0.463227 1.053834 1.710129 0.000000 0.000000 0.000000
0.599196 1.064788 1.748900 0.000000 0.000000 0.000000
0.613111 1.076133 1.749772 0.000000 0.000000 0.000000
0.613613 1.091635 1.755076 0.000000 0.000000 0.000000
0.618237 1.092310 1.754114 0.000000 0.000000 0.000000
0.618930 1.082594 1.752318 0.000000 0.000000 0.000000
0.620777 1.068704 1.749814 0.000000 0.000000 0.000000
0.611591 1.093598 1.753367 0.000000 0.000000 0.000000
0.602422 1.023232 1.742748 0.000000 0.000000 0.000000
0.585265 1.110514 1.746810 0.000000 0.000000 0.000000
0.588602 1.097209 1.745983 0.000000 0.000000 0.000000
0.519034 1.097574 1.722833 0.000000 0.000000 0.000000
0.608144 1.044343 1.743417 0.000000 0.000000 0.000000
0.613669 1.097467 1.756874 0.000000 0.000000 0.000000
0.451205 1.043193 1.707590 0.000000 0.000000 0.000000
0.617012 1.086191 1.752173 0.000000 0.000000 0.000000
0.566567 1.109792 1.740514 0.000000 0.000000 0.000000
0.429332 0.992144 1.715321 0.000000 0.000000 0.000000
0.604640 1.006935 1.743057 0.000000 0.000000 0.000000
0.609010 1.105532 1.755818 0.000000 0.000000 0.000000
0.532471 0.929103 1.731975 0.000000 0.000000 0.000000
0.546972 0.947250 1.736089 0.000000 0.000000 0.000000
0.443886 0.951572 1.731997 0.000000 0.000000 0.000000
0.587281 1.101158 1.751151 0.000000 0.000000 0.000000
0.461053 1.057835 1.709723 0.000000 0.000000 0.000000
0.406971 0.970968 1.715087 0.000000 0.000000 0.000000
0.603392 1.071498 1.749280 0.000000 0.000000 0.000000
0.416119 0.968837 1.720451 0.000000 0.000000 0.000000
0.404798 0.963989 1.718021 0.000000 0.000000 0.000000
0.410484 0.973302 1.717077 0.000000 0.000000 0.000000
0.406703 0.955857 1.727641 0.000000 0.000000 0.000000
0.471785 1.059002 1.712763 0.000000 0.000000 0.000000
0.536170 1.107826 1.729190 0.000000 0.000000 0.000000
0.571519 1.104500 1.742785 0.000000 0.000000 0.000000
0.487397 1.070429 1.716266 0.000000 0.000000 0.000000
0.453999 1.044803 1.707144 0.000000 0.000000 0.000000
0.569763 1.108817 1.741615 0.000000 0.000000 0.000000
0.555246 1.100149 1.735495 0.000000 0.000000 0.000000
0.536269 0.972411 1.739086 0.000000 0.000000 0.000000
0.543926 1.106666 1.733493 0.000000 0.000000 0.000000
0.570101 1.106915 1.740873 0.000000 0.000000 0.000000
0.482077 1.068456 1.716386 0.000000 0.000000 0.000000
0.607873 1.087902 1.752535 0.000000 0.000000 0.000000
0.549613 0.942902 1.734291 0.000000 0.000000 0.000000
0.439904 1.017904 1.710808 0.000000 0.000000 0.000000
0.437733 1.012927 1.711917 0.000000 0.000000 0.000000
0.437593 1.000215 1.717136 0.000000 0.000000 0.000000
0.576292 0.981321 1.739106 0.000000 0.000000 0.000000
0.524363 1.099984 1.725444 0.000000 0.000000 0.000000
0.456872 1.017228 1.718918 0.000000 0.000000 0.000000
0.598350 1.032037 1.743911 0.000000 0.000000 0.000000
0.451879 1.044746 1.707470 0.000000 0.000000 0.000000
0.408042 0.980125 1.710755 0.000000 0.000000 0.000000
0.548899 1.051363 1.740322 0.000000 0.000000 0.000000
0.492539 0.932040 1.729743 0.000000 0.000000 0.000000
0.597170 1.101607 1.750151 0.000000 0.000000 0.000000
0.488659 0.921281 1.726698 0.000000 0.000000 0.000000
0.447429 1.042498 1.705836 0.000000 0.000000 0.000000
0.460851 1.024856 1.715918 0.000000 0.000000 0.000000
0.504409 1.071656 1.723882 0.000000 0.000000 0.000000
0.601210 1.110036 1.755086 0.000000 0.000000 0.000000
0.508594 0.922821 1.728694 0.000000 0.000000 0.000000
0.414298 0.942115 1.733810 0.000000 0.000000 0.000000
0.411303 0.971808 1.718137 0.000000 0.000000 0.000000
0.524794 0.952041 1.738132 0.000000 0.000000 0.000000
0.445870 0.917198 1.731227 0.000000 0.000000 0.000000
0.551650 0.955072 1.738693 0.000000 0.000000 0.000000
0.406306 0.968574 1.716485 0.000000 0.000000 0.000000
0.408944 0.946297 1.732708 0.000000 0.000000 0.000000
0.533143 0.943979 1.732387 0.000000 0.000000 0.000000
0.403112 0.970360 1.721342 0.000000 0.000000 0.000000
0.508531 0.944480 1.733582 0.000000 0.000000 0.000000
0.538733 0.954895 1.732869 0.000000 0.000000 0.000000
0.407681 0.978781 1.711249 0.000000 0.000000 0.000000
0.510297 0.923020 1.730114 0.000000 0.000000 0.000000
0.547571 0.949835 1.733423 0.000000 0.000000 0.000000
0.520217 0.945404 1.733502 0.000000 0.000000 0.000000
0.415125 0.965787 1.718437 0.000000 0.000000 0.000000
0.520333 0.940898 1.733904 0.000000 0.000000 0.000000
0.527027 0.944413 1.735887 0.000000 0.000000 0.000000
0.543831 0.939111 1.733094 0.000000 0.000000 0.000000
0.576809 1.103555 1.747759 0.000000 0.000000 0.000000
0.400864 0.955183 1.729750 0.000000 0.000000 0.000000
0.491909 0.914501 1.726935 0.000000 0.000000 0.000000
0.417701 0.993406 1.709516 0.000000 0.000000 0.000000
0.471317 1.071838 1.706876 0.000000 0.000000 0.000000
0.400696 0.944078 1.736771 0.000000 0.000000 0.000000
0.406241 0.939303 1.738224 0.000000 0.000000 0.000000
0.550708 0.942176 1.733332 0.000000 0.000000 0.000000
0.592302 1.090692 1.749626 0.000000 0.000000 0.000000
0.458209 0.917405 1.729555 0.000000 0.000000 0.000000
0.467470 0.912437 1.725845 0.000000 0.000000 0.000000
0.617311 1.099965 1.757864 0.000000 0.000000 0.000000
0.417101 1.000008 1.706035 0.000000 0.000000 0.000000
0.438341 1.024088 1.708112 0.000000 0.000000 0.000000
0.411892 0.973187 1.719327 0.000000 0.000000 0.000000
0.606334 1.031605 1.743200 0.000000 0.000000 0.000000
0.415934 0.981237 1.714075 0.000000 0.000000 0.000000
0.554737 1.113325 1.732914 0.000000 0.000000 0.000000
0.617515 1.051087 1.746199 0.000000 0.000000 0.000000
0.610908 1.029505 1.742748 0.000000 0.000000 0.000000
0.605004 1.014155 1.742785 0.000000 0.000000 0.000000
0.458983 0.929498 1.729397 0.000000 0.000000 0.000000
0.586762 1.037340 1.742584 0.000000 0.000000 0.000000
0.607596 1.045140 1.743963 0.000000 0.000000 0.000000
0.479117 0.956920 1.734505 0.000000 0.000000 0.000000
0.485143 0.939328 1.731295 0.000000 0.000000 0.000000
0.433000 1.012967 1.709383 0.000000 0.000000 0.000000
0.596050 0.996409 1.740922 0.000000 0.000000 0.000000
0.552810 1.094106 1.734643 0.000000 0.000000 0.000000
0.500100 1.066596 1.722737 0.000000 0.000000 0.000000
0.434514 1.021604 1.709574 0.000000 0.000000 0.000000
0.598827 1.042498 1.744303 0.000000 0.000000 0.000000
0.475324 0.950318 1.732705 0.000000 0.000000 0.000000
0.481024 0.991209 1.735105 0.000000 0.000000 0.000000
0.443013 0.943220 1.733811 0.000000 0.000000 0.000000
0.543557 1.071852 1.735084 0.000000 0.000000 0.000000
0.472505 0.941351 1.730772 0.000000 0.000000 0.000000
0.545540 1.092033 1.731051 0.000000 0.000000 0.000000
0.612488 1.036765 1.744347 0.000000 0.000000 0.000000
0.604989 1.099366 1.754850 0.000000 0.000000 0.000000
0.489657 0.941248 1.737491 0.000000 0.000000 0.000000
0.461139 0.923946 1.728285 0.000000 0.000000 0.000000
0.618558 1.049618 1.745867 0.000000 0.000000 0.000000
0.461053 0.920618 1.729760 0.000000 0.000000 0.000000
0.521835 0.937308 1.731860 0.000000 0.000000 0.000000
0.612136 1.042902 1.744236 0.000000 0.000000 0.000000
0.614332 1.086051 1.753476 0.000000 0.000000 0.000000
0.527524 0.949699 1.734773 0.000000 0.000000 0.000000
0.525608 0.930933 1.733660 0.000000 0.000000 0.000000
0.419024 1.006545 1.704256 0.000000 0.000000 0.000000
0.429794 1.006883 1.710906 0.000000 0.000000 0.000000
0.419185 0.982608 1.716820 0.000000 0.000000 0.000000
0.428204 0.999211 1.714884 0.000000 0.000000 0.000000
0.431863 1.016573 1.713591 0.000000 0.000000 0.000000
0.418179 0.975774 1.721200 0.000000 0.000000 0.000000
0.412313 0.967224 1.724636 0.000000 0.000000 0.000000
0.613137 1.110259 1.756737 0.000000 0.000000 0.000000
0.437055 1.026086 1.706312 0.000000 0.000000 0.000000
0.449041 1.031068 1.710546 0.000000 0.000000 0.000000
0.581701 0.983415 1.739907 0.000000 0.000000 0.000000
0.514397 1.081594 1.725898 0.000000 0.000000 0.000000
0.553016 0.960660 1.731782 0.000000 0.000000 0.000000
0.511149 1.093444 1.721974 0.000000 0.000000 0.000000
0.412525 0.981148 1.712837 0.000000 0.000000 0.000000
0.507466 1.071253 1.724885 0.000000 0.000000 0.000000
0.542213 0.958051 1.732682 0.000000 0.000000 0.000000
0.561986 0.953731 1.730135 0.000000 0.000000 0.000000
0.550368 0.945702 1.733300 0.000000 0.000000 0.000000
0.599285 1.006623 1.742507 0.000000 0.000000 0.000000
0.521010 1.096121 1.725002 0.000000 0.000000 0.000000
0.455857 1.036543 1.711176 0.000000 0.000000 0.000000
0.515966 1.093236 1.723203 0.000000 0.000000 0.000000
0.454500 0.930103 1.731244 0.000000 0.000000 0.000000
0.532997 0.986925 1.734105 0.000000 0.000000 0.000000
0.419929 0.948114 1.731091 0.000000 0.000000 0.000000
0.448647 0.917174 1.731080 0.000000 0.000000 0.000000
0.553615 0.938083 1.734851 0.000000 0.000000 0.000000
0.475606 0.929158 1.726850 0.000000 0.000000 0.000000
0.435578 1.018118 1.707899 0.000000 0.000000 0.000000
0.406160 0.975050 1.719723 0.000000 0.000000 0.000000
0.464676 1.049621 1.711561 0.000000 0.000000 0.000000
0.603268 1.042173 1.744483 0.000000 0.000000 0.000000
0.608659 1.047291 1.745147 0.000000 0.000000 0.000000
0.442167 0.915681 1.729708 0.000000 0.000000 0.000000
0.604784 1.048075 1.745927 0.000000 0.000000 0.000000
0.620169 1.082483 1.752174 0.000000 0.000000 0.000000
0.498599 0.923370 1.729792 0.000000 0.000000 0.000000
0.486147 0.934261 1.729086 0.000000 0.000000 0.000000
0.607420 1.033059 1.741761 0.000000 0.000000 0.000000
0.610798 1.023638 1.742948 0.000000 0.000000 0.000000
0.605407 1.021928 1.742975 0.000000 0.000000 0.000000
0.613795 1.098821 1.755495 0.000000 0.000000 0.000000
0.491784 0.919237 1.726604 0.000000 0.000000 0.000000
0.607769 1.029065 1.741721 0.000000 0.000000 0.000000
0.606318 1.024354 1.743263 0.000000 0.000000 0.000000
0.556792 1.094432 1.736515 0.000000 0.000000 0.000000
0.444979 1.040772 1.705507 0.000000 0.000000 0.000000
0.443682 1.039283 1.704358 0.000000 0.000000 0.000000
0.522988 1.087408 1.725711 0.000000 0.000000 0.000000
0.554902 1.101601 1.736623 0.000000 0.000000 0.000000
0.477215 1.074729 1.713136 0.000000 0.000000 0.000000
0.522974 1.092487 1.726307 0.000000 0.000000 0.000000
0.610444 1.086209 1.751099 0.000000 0.000000 0.000000
0.472005 1.066457 1.711162 0.000000 0.000000 0.000000
0.530009 1.103635 1.725848 0.000000 0.000000 0.000000
0.540154 1.102405 1.731240 0.000000 0.000000 0.000000
0.530924 1.101005 1.726203 0.000000 0.000000 0.000000
0.474105 1.068098 1.711940 0.000000 0.000000 0.000000
0.473893 1.059926 1.711654 0.000000 0.000000 0.000000
0.524569 1.073533 1.732867 0.000000 0.000000 0.000000
0.609545 1.077461 1.749736 0.000000 0.000000 0.000000
0.440218 1.011742 1.711715 0.000000 0.000000 0.000000
0.562690 0.948238 1.735810 0.000000 0.000000 0.000000
0.428007 0.996777 1.718035 0.000000 0.000000 0.000000
0.486708 1.057592 1.719702 0.000000 0.000000 0.000000
0.414543 0.962917 1.725028 0.000000 0.000000 0.000000
0.500242 0.932294 1.723231 0.000000 0.000000 0.000000
0.513773 0.922996 1.728095 0.000000 0.000000 0.000000
0.445445 1.042890 1.705846 0.000000 0.000000 0.000000
0.572580 1.111982 1.741464 0.000000 0.000000 0.000000
0.601793 1.103854 1.749812 0.000000 0.000000 0.000000
0.569450 1.103369 1.741378 0.000000 0.000000 0.000000
0.615374 1.043698 1.745020 0.000000 0.000000 0.000000
0.578681 1.110330 1.748043 0.000000 0.000000 0.000000
0.520906 1.088843 1.726893 0.000000 0.000000 0.000000
0.409385 0.988004 1.707646 0.000000 0.000000 0.000000
0.577411 1.113467 1.742863 0.000000 0.000000 0.000000
0.480871 0.923609 1.728022 0.000000 0.000000 0.000000
0.614789 1.039282 1.745063 0.000000 0.000000 0.000000
0.543676 1.103902 1.731196 0.000000 0.000000 0.000000
0.587590 1.104909 1.746619 0.000000 0.000000 0.000000
0.406406 0.965742 1.719198 0.000000 0.000000 0.000000
0.517645 1.095690 1.722251 0.000000 0.000000 0.000000
0.532995 1.093487 1.728052 0.000000 0.000000 0.000000
0.541175 1.097595 1.731707 0.000000 0.000000 0.000000
0.455020 1.056520 1.707982 0.000000 0.000000 0.000000
0.600694 1.104406 1.756967 0.000000 0.000000 0.000000
0.449409 0.995421 1.728555 0.000000 0.000000 0.000000
0.522331 1.030292 1.739477 0.000000 0.000000 0.000000
0.532522 1.033151 1.737842 0.000000 0.000000 0.000000
0.402244 0.953120 1.726999 0.000000 0.000000 0.000000
0.579273 1.114571 1.746410 0.000000 0.000000 0.000000
0.528569 1.105068 1.725381 0.000000 0.000000 0.000000
0.532068 1.095556 1.728929 0.000000 0.000000 0.000000
0.614290 1.059238 1.746798 0.000000 0.000000 0.000000
0.548791 1.027758 1.737731 0.000000 0.000000 0.000000
0.524899 1.104684 1.723688 0.000000 0.000000 0.000000
0.402624 0.958532 1.724409 0.000000 0.000000 0.000000
0.558235 1.102273 1.736789 0.000000 0.000000 0.000000
0.614685 1.046156 1.745724 0.000000 0.000000 0.000000
0.553269 0.947399 1.734512 0.000000 0.000000 0.000000
0.584650 1.110581 1.746634 0.000000 0.000000 0.000000
0.613154 1.098688 1.756765 0.000000 0.000000 0.000000
0.618870 1.096105 1.756386 0.000000 0.000000 0.000000
0.450530 0.924731 1.730674 0.000000 0.000000 0.000000
0.602752 1.099936 1.752196 0.000000 0.000000 0.000000
0.605332 1.107000 1.753406 0.000000 0.000000 0.000000
0.560814 0.956162 1.738041 0.000000 0.000000 0.000000
0.471946 1.063056 1.707092 0.000000 0.000000 0.000000
0.432976 1.023592 1.705014 0.000000 0.000000 0.000000
0.509657 1.096868 1.720945 0.000000 0.000000 0.000000
0.553854 1.096589 1.739229 0.000000 0.000000 0.000000
0.596390 1.087850 1.749688 0.000000 0.000000 0.000000
0.458955 1.044673 1.710729 0.000000 0.000000 0.000000
0.455320 1.060408 1.706169 0.000000 0.000000 0.000000
0.422983 0.991456 1.714585 0.000000 0.000000 0.000000
0.524684 1.100907 1.723666 0.000000 0.000000 0.000000
0.559285 1.103296 1.740169 0.000000 0.000000 0.000000
0.427218 0.930301 1.731110 0.000000 0.000000 0.000000
0.515512 0.926074 1.726523 0.000000 0.000000 0.000000
0.435705 1.005995 1.715359 0.000000 0.000000 0.000000
0.416883 0.949042 1.732963 0.000000 0.000000 0.000000
0.402951 0.963302 1.724271 0.000000 0.000000 0.000000
0.607722 1.012500 1.742192 0.000000 0.000000 0.000000
0.605128 1.086658 1.751700 0.000000 0.000000 0.000000
0.411816 0.961366 1.726622 0.000000 0.000000 0.000000
0.401169 0.965534 1.724434 0.000000 0.000000 0.000000
0.608696 1.024308 1.741889 0.000000 0.000000 0.000000
0.431623 1.023448 1.704098 0.000000 0.000000 0.000000
0.468091 1.060319 1.709375 0.000000 0.000000 0.000000
0.620065 1.055291 1.746873 0.000000 0.000000 0.000000
0.434779 1.037246 1.704386 0.000000 0.000000 0.000000
0.514030 1.098939 1.722375 0.000000 0.000000 0.000000
0.604347 1.017285 1.743110 0.000000 0.000000 0.000000
0.599589 1.000194 1.739760 0.000000 0.000000 0.000000
0.605784 1.008701 1.742563 0.000000 0.000000 0.000000
0.592186 0.989631 1.741080 0.000000 0.000000 0.000000
0.613183 1.084517 1.751963 0.000000 0.000000 0.000000
0.600279 1.009979 1.740404 0.000000 0.000000 0.000000
0.478476 0.916455 1.729704 0.000000 0.000000 0.000000
0.542334 1.086511 1.733141 0.000000 0.000000 0.000000
0.422388 0.938447 1.731160 0.000000 0.000000 0.000000
0.586611 1.112224 1.747033 0.000000 0.000000 0.000000
0.424167 0.989093 1.718035 0.000000 0.000000 0.000000
0.430463 1.016555 1.706166 0.000000 0.000000 0.000000
0.426111 0.927633 1.730202 0.000000 0.000000 0.000000
0.476561 1.057742 1.715003 0.000000 0.000000 0.000000
0.513651 1.077826 1.726400 0.000000 0.000000 0.000000
0.483889 0.926129 1.728420 0.000000 0.000000 0.000000
0.580623 1.000592 1.737509 0.000000 0.000000 0.000000
0.502892 0.924115 1.730670 0.000000 0.000000 0.000000
0.407609 0.979123 1.710797 0.000000 0.000000 0.000000
0.459686 0.963363 1.730056 0.000000 0.000000 0.000000
0.458794 0.943680 1.733171 0.000000 0.000000 0.000000
0.597946 0.990750 1.739021 0.000000 0.000000 0.000000
0.606459 1.074545 1.749048 0.000000 0.000000 0.000000
0.599393 1.005526 1.740134 0.000000 0.000000 0.000000
0.509336 0.933456 1.730344 0.000000 0.000000 0.000000
0.599548 1.002852 1.740372 0.000000 0.000000 0.000000
0.440267 0.939920 1.731738 0.000000 0.000000 0.000000
0.589769 0.987854 1.739230 0.000000 0.000000 0.000000
0.620151 1.074984 1.749766 0.000000 0.000000 0.000000
0.610737 1.053509 1.745479 0.000000 0.000000 0.000000
0.525182 0.928929 1.730226 0.000000 0.000000 0.000000
0.607344 0.998833 1.742145 0.000000 0.000000 0.000000
0.595994 0.987473 1.741591 0.000000 0.000000 0.000000
0.548666 1.100058 1.733881 0.000000 0.000000 0.000000
0.549786 1.110285 1.732422 0.000000 0.000000 0.000000
0.604093 1.002338 1.741345 0.000000 0.000000 0.000000
0.552041 1.107610 1.734156 0.000000 0.000000 0.000000
0.608792 1.015146 1.741124 0.000000 0.000000 0.000000
0.466565 0.921974 1.725816 0.000000 0.000000 0.000000
0.509989 0.922339 1.726027 0.000000 0.000000 0.000000
0.617377 1.088595 1.752460 0.000000 0.000000 0.000000
0.445274 1.041386 1.706283 0.000000 0.000000 0.000000
0.417944 0.989417 1.710552 0.000000 0.000000 0.000000
0.619336 1.069970 1.748601 0.000000 0.000000 0.000000
0.403629 0.952750 1.730440 0.000000 0.000000 0.000000
0.604061 1.079634 1.749286 0.000000 0.000000 0.000000
0.440139 1.019507 1.709477 0.000000 0.000000 0.000000
0.416000 0.998375 1.707026 0.000000 0.000000 0.000000
0.616835 1.067923 1.748802 0.000000 0.000000 0.000000
0.488826 0.924990 1.729880 0.000000 0.000000 0.000000
0.537317 0.941863 1.735165 0.000000 0.000000 0.000000
0.502188 1.003666 1.735405 0.000000 0.000000 0.000000
0.531014 1.016029 1.738793 0.000000 0.000000 0.000000
0.506294 1.029605 1.731289 0.000000 0.000000 0.000000
0.491656 0.991332 1.732764 0.000000 0.000000 0.000000
0.508358 1.063160 1.727009 0.000000 0.000000 0.000000
0.535793 1.048799 1.736888 0.000000 0.000000 0.000000
0.533670 1.026807 1.732928 0.000000 0.000000 0.000000
0.538327 0.967068 1.738869 0.000000 0.000000 0.000000
0.509665 0.988669 1.733579 0.000000 0.000000 0.000000
0.532625 1.004406 1.738183 0.000000 0.000000 0.000000
0.501226 1.013855 1.731711 0.000000 0.000000 0.000000
0.543263 0.965270 1.738091 0.000000 0.000000 0.000000
0.489287 1.046525 1.725454 0.000000 0.000000 0.000000
0.503983 1.012851 1.734134 0.000000 0.000000 0.000000
0.540290 0.930778 1.732239 0.000000 0.000000 0.000000
0.563352 0.993314 1.736765 0.000000 0.000000 0.000000
0.488856 1.000384 1.730472 0.000000 0.000000 0.000000
0.479579 1.045195 1.720373 0.000000 0.000000 0.000000
0.456924 0.960882 1.733779 0.000000 0.000000 0.000000
0.487989 1.011025 1.732653 0.000000 0.000000 0.000000
0.492570 1.044951 1.729501 0.000000 0.000000 0.000000
0.497217 0.920812 1.728005 0.000000 0.000000 0.000000
0.512560 1.013805 1.734303 0.000000 0.000000 0.000000
0.528431 1.022982 1.738100 0.000000 0.000000 0.000000
0.515065 1.030992 1.733458 0.000000 0.000000 0.000000
0.498481 1.030839 1.728574 0.000000 0.000000 0.000000
0.513092 1.022704 1.735860 0.000000 0.000000 0.000000
0.525207 1.017807 1.733639 0.000000 0.000000 0.000000
0.529650 0.983432 1.737249 0.000000 0.000000 0.000000
0.488816 0.981028 1.736562 0.000000 0.000000 0.000000
0.500588 1.004313 1.732568 0.000000 0.000000 0.000000
0.537387 0.988822 1.738026 0.000000 0.000000 0.000000
0.508687 0.952047 1.732508 0.000000 0.000000 0.000000
0.473933 1.034006 1.722437 0.000000 0.000000 0.000000
0.511817 0.988519 1.732306 0.000000 0.000000 0.000000
0.534904 0.997972 1.736081 0.000000 0.000000 0.000000
0.494360 1.007557 1.730434 0.000000 0.000000 0.000000
0.498712 0.987182 1.732755 0.000000 0.000000 0.000000
0.494393 1.035712 1.730798 0.000000 0.000000 0.000000
0.504746 0.920202 1.728110 0.000000 0.000000 0.000000
0.607243 1.010270 1.743363 0.000000 0.000000 0.000000
0.543399 1.098958 1.732677 0.000000 0.000000 0.000000
0.467998 1.050648 1.710256 0.000000 0.000000 0.000000
0.402502 0.939595 1.738684 0.000000 0.000000 0.000000
0.542167 0.964860 1.734725 0.000000 0.000000 0.000000
0.612308 1.073079 1.748937 0.000000 0.000000 0.000000
0.484025 0.918908 1.727433 0.000000 0.000000 0.000000
0.619353 1.053836 1.747786 0.000000 0.000000 0.000000
0.412058 0.953078 1.732440 0.000000 0.000000 0.000000
0.617512 1.076608 1.751346 0.000000 0.000000 0.000000
0.473705 0.920199 1.728263 0.000000 0.000000 0.000000
0.402995 0.938625 1.741917 0.000000 0.000000 0.000000
0.599647 1.064407 1.747778 0.000000 0.000000 0.000000
0.586985 1.115978 1.746017 0.000000 0.000000 0.000000
0.519325 0.927519 1.732310 0.000000 0.000000 0.000000
0.548271 1.112168 1.731194 0.000000 0.000000 0.000000
0.509620 0.923002 1.728714 0.000000 0.000000 0.000000
0.524799 0.927667 1.731308 0.000000 0.000000 0.000000
0.522088 0.924847 1.729147 0.000000 0.000000 0.000000
0.517385 0.937423 1.728598 0.000000 0.000000 0.000000
0.409151 0.989930 1.706709 0.000000 0.000000 0.000000
0.437947 0.932554 1.728911 0.000000 0.000000 0.000000
0.449637 0.919803 1.723965 0.000000 0.000000 0.000000
0.504061 0.950914 1.728315 0.000000 0.000000 0.000000
0.518263 0.927439 1.729516 0.000000 0.000000 0.000000
0.402446 0.970894 1.712740 0.000000 0.000000 0.000000
0.412647 0.989689 1.709004 0.000000 0.000000 0.000000
0.559277 0.952646 1.735270 0.000000 0.000000 0.000000
0.442996 0.925356 1.727003 0.000000 0.000000 0.000000
0.501988 0.921557 1.728805 0.000000 0.000000 0.000000
0.462962 1.059660 1.702361 0.000000 0.000000 0.000000
0.436067 0.917264 1.728158 0.000000 0.000000 0.000000
0.425708 1.011589 1.704312 0.000000 0.000000 0.000000
0.458466 1.050839 1.708601 0.000000 0.000000 0.000000
0.535944 0.932202 1.730788 0.000000 0.000000 0.000000
0.422431 1.001707 1.708423 0.000000 0.000000 0.000000
0.455288 1.039493 1.711835 0.000000 0.000000 0.000000
0.448497 0.931535 1.728691 0.000000 0.000000 0.000000
0.509682 0.924151 1.730537 0.000000 0.000000 0.000000
0.538485 0.939054 1.732711 0.000000 0.000000 0.000000
0.450577 0.917436 1.728632 0.000000 0.000000 0.000000
0.465599 0.937504 1.729536 0.000000 0.000000 0.000000
0.481572 0.929975 1.729120 0.000000 0.000000 0.000000
0.592150 0.993653 1.740635 0.000000 0.000000 0.000000
0.434294 0.940011 1.730229 0.000000 0.000000 0.000000
0.542279 0.941822 1.734928 0.000000 0.000000 0.000000
0.551639 0.954427 1.736446 0.000000 0.000000 0.000000
0.433719 0.924342 1.724724 0.000000 0.000000 0.000000
0.438945 0.927822 1.729060 0.000000 0.000000 0.000000
0.455299 0.916948 1.729079 0.000000 0.000000 0.000000
