ply
format ascii 1.0
comment VCGLIB generated
obj_info Generated by SPFormer!
element vertex 557
property float x
property float y
property float z
property float nx
property float ny
property float nz
end_header
0.558428 1.239198 2.399258 0.000000 0.000000 0.000000
0.558520 1.222225 2.388711 0.000000 0.000000 0.000000
0.559183 1.221796 2.382298 0.000000 0.000000 0.000000
0.559867 1.217728 2.374124 0.000000 0.000000 0.000000
0.558995 1.224033 2.375015 0.000000 0.000000 0.000000
0.558055 1.224738 2.381153 0.000000 0.000000 0.000000
0.559881 1.232800 2.404169 0.000000 0.000000 0.000000
0.558365 1.237753 2.402293 0.000000 0.000000 0.000000
0.558851 1.206098 2.376676 0.000000 0.000000 0.000000
0.559081 1.220561 2.390116 0.000000 0.000000 0.000000
0.559725 1.236293 2.390001 0.000000 0.000000 0.000000
0.559526 1.229236 2.392102 0.000000 0.000000 0.000000
0.557637 1.216504 2.379346 0.000000 0.000000 0.000000
0.558900 1.205901 2.372767 0.000000 0.000000 0.000000
0.558895 1.209754 2.381227 0.000000 0.000000 0.000000
0.558289 1.200431 2.370584 0.000000 0.000000 0.000000
0.557115 1.209591 2.364355 0.000000 0.000000 0.000000
0.557713 1.210857 2.377534 0.000000 0.000000 0.000000
0.559872 1.206141 2.369820 0.000000 0.000000 0.000000
0.559765 1.212156 2.372588 0.000000 0.000000 0.000000
0.558287 1.210618 2.375045 0.000000 0.000000 0.000000
0.557275 1.217929 2.384146 0.000000 0.000000 0.000000
0.558827 1.207838 2.375851 0.000000 0.000000 0.000000
0.554894 1.201235 2.365271 0.000000 0.000000 0.000000
0.559012 1.211446 2.377724 0.000000 0.000000 0.000000
0.559861 1.203783 2.369877 0.000000 0.000000 0.000000
0.557657 1.206058 2.374072 0.000000 0.000000 0.000000
0.555322 1.225208 2.423144 0.000000 0.000000 0.000000
0.552981 1.237829 2.420362 0.000000 0.000000 0.000000
0.551666 1.225182 2.420127 0.000000 0.000000 0.000000
0.555771 1.239609 2.423738 0.000000 0.000000 0.000000
0.467847 1.215324 2.397571 0.000000 0.000000 0.000000
0.475980 1.212415 2.378117 0.000000 0.000000 0.000000
0.465956 1.222403 2.376960 0.000000 0.000000 0.000000
0.537224 1.229821 2.386803 0.000000 0.000000 0.000000
0.535900 1.219684 2.402203 0.000000 0.000000 0.000000
0.485036 1.205160 2.391234 0.000000 0.000000 0.000000
0.469468 1.204441 2.400859 0.000000 0.000000 0.000000
0.492568 1.233626 2.376587 0.000000 0.000000 0.000000
0.447290 1.233805 2.390551 0.000000 0.000000 0.000000
0.493275 1.229488 2.382783 0.000000 0.000000 0.000000
0.470080 1.247236 2.354260 0.000000 0.000000 0.000000
0.467871 1.205771 2.406207 0.000000 0.000000 0.000000
0.478653 1.207173 2.382150 0.000000 0.000000 0.000000
0.453805 1.224301 2.386527 0.000000 0.000000 0.000000
0.456388 1.227885 2.388216 0.000000 0.000000 0.000000
0.454323 1.232995 2.376630 0.000000 0.000000 0.000000
0.531312 1.237589 2.386792 0.000000 0.000000 0.000000
0.520010 1.242281 2.378952 0.000000 0.000000 0.000000
0.556321 1.229170 2.413224 0.000000 0.000000 0.000000
0.471003 1.217645 2.366951 0.000000 0.000000 0.000000
0.493426 1.235765 2.360691 0.000000 0.000000 0.000000
0.507314 1.227342 2.377712 0.000000 0.000000 0.000000
0.449058 1.226025 2.390059 0.000000 0.000000 0.000000
0.531931 1.218608 2.397445 0.000000 0.000000 0.000000
0.498119 1.213038 2.372183 0.000000 0.000000 0.000000
0.496510 1.247585 2.357056 0.000000 0.000000 0.000000
0.461252 1.205095 2.399860 0.000000 0.000000 0.000000
0.530407 1.217259 2.392316 0.000000 0.000000 0.000000
0.525994 1.211980 2.388719 0.000000 0.000000 0.000000
0.533293 1.231449 2.387485 0.000000 0.000000 0.000000
0.533915 1.220027 2.395765 0.000000 0.000000 0.000000
0.474761 1.221367 2.370902 0.000000 0.000000 0.000000
0.465351 1.207733 2.411116 0.000000 0.000000 0.000000
0.454333 1.228988 2.380359 0.000000 0.000000 0.000000
0.526554 1.244763 2.374291 0.000000 0.000000 0.000000
0.449077 1.229215 2.395884 0.000000 0.000000 0.000000
0.501000 1.228670 2.380704 0.000000 0.000000 0.000000
0.509494 1.237846 2.360673 0.000000 0.000000 0.000000
0.452742 1.226418 2.379296 0.000000 0.000000 0.000000
0.513422 1.242069 2.374544 0.000000 0.000000 0.000000
0.481964 1.208534 2.387491 0.000000 0.000000 0.000000
0.526065 1.217003 2.394675 0.000000 0.000000 0.000000
0.515156 1.247565 2.372120 0.000000 0.000000 0.000000
0.479452 1.232490 2.365020 0.000000 0.000000 0.000000
0.521818 1.219885 2.373728 0.000000 0.000000 0.000000
0.482469 1.233733 2.359215 0.000000 0.000000 0.000000
0.461774 1.210319 2.395155 0.000000 0.000000 0.000000
0.449307 1.230955 2.390304 0.000000 0.000000 0.000000
0.517687 1.245264 2.362746 0.000000 0.000000 0.000000
0.506745 1.248801 2.367959 0.000000 0.000000 0.000000
0.444769 1.243299 2.382860 0.000000 0.000000 0.000000
0.445572 1.235567 2.393893 0.000000 0.000000 0.000000
0.506623 1.209084 2.379422 0.000000 0.000000 0.000000
0.467367 1.217721 2.383214 0.000000 0.000000 0.000000
0.466871 1.236023 2.362818 0.000000 0.000000 0.000000
0.472248 1.238647 2.358995 0.000000 0.000000 0.000000
0.505821 1.215896 2.372176 0.000000 0.000000 0.000000
0.537642 1.217630 2.397303 0.000000 0.000000 0.000000
0.461547 1.220065 2.381158 0.000000 0.000000 0.000000
0.457953 1.243960 2.366145 0.000000 0.000000 0.000000
0.514642 1.250253 2.365353 0.000000 0.000000 0.000000
0.506640 1.244588 2.362735 0.000000 0.000000 0.000000
0.501551 1.235762 2.363494 0.000000 0.000000 0.000000
0.493060 1.243577 2.367802 0.000000 0.000000 0.000000
0.514266 1.224077 2.373397 0.000000 0.000000 0.000000
0.510525 1.243638 2.369273 0.000000 0.000000 0.000000
0.522869 1.213169 2.386985 0.000000 0.000000 0.000000
0.532123 1.233069 2.385195 0.000000 0.000000 0.000000
0.487875 1.236087 2.370816 0.000000 0.000000 0.000000
0.460594 1.221381 2.388563 0.000000 0.000000 0.000000
0.474218 1.219944 2.387141 0.000000 0.000000 0.000000
0.520909 1.237310 2.374935 0.000000 0.000000 0.000000
0.470284 1.243108 2.357067 0.000000 0.000000 0.000000
0.498440 1.237855 2.367657 0.000000 0.000000 0.000000
0.510735 1.244341 2.381080 0.000000 0.000000 0.000000
0.448072 1.228620 2.404775 0.000000 0.000000 0.000000
0.511681 1.214469 2.387758 0.000000 0.000000 0.000000
0.529312 1.228139 2.391509 0.000000 0.000000 0.000000
0.489740 1.242404 2.357986 0.000000 0.000000 0.000000
0.488339 1.199429 2.394807 0.000000 0.000000 0.000000
0.463091 1.237461 2.365751 0.000000 0.000000 0.000000
0.526329 1.229874 2.390719 0.000000 0.000000 0.000000
0.492281 1.242117 2.358671 0.000000 0.000000 0.000000
0.485228 1.234488 2.360165 0.000000 0.000000 0.000000
0.458692 1.214078 2.407158 0.000000 0.000000 0.000000
0.456858 1.234643 2.378694 0.000000 0.000000 0.000000
0.452319 1.217992 2.406041 0.000000 0.000000 0.000000
0.466171 1.221239 2.376911 0.000000 0.000000 0.000000
0.472716 1.208181 2.385569 0.000000 0.000000 0.000000
0.479773 1.196664 2.407961 0.000000 0.000000 0.000000
0.481766 1.247334 2.354047 0.000000 0.000000 0.000000
0.468673 1.220626 2.377631 0.000000 0.000000 0.000000
0.512898 1.227993 2.385467 0.000000 0.000000 0.000000
0.470419 1.231117 2.368039 0.000000 0.000000 0.000000
0.503844 1.232001 2.363650 0.000000 0.000000 0.000000
0.534487 1.237722 2.382985 0.000000 0.000000 0.000000
0.522252 1.208322 2.399004 0.000000 0.000000 0.000000
0.462288 1.221902 2.368519 0.000000 0.000000 0.000000
0.523251 1.215955 2.384956 0.000000 0.000000 0.000000
0.485383 1.198662 2.403684 0.000000 0.000000 0.000000
0.537156 1.239512 2.385865 0.000000 0.000000 0.000000
0.500546 1.206311 2.389008 0.000000 0.000000 0.000000
0.461819 1.204380 2.412308 0.000000 0.000000 0.000000
0.470593 1.200223 2.410062 0.000000 0.000000 0.000000
0.466111 1.200964 2.403934 0.000000 0.000000 0.000000
0.491038 1.211358 2.393976 0.000000 0.000000 0.000000
0.477652 1.200167 2.399057 0.000000 0.000000 0.000000
0.452141 1.215419 2.393374 0.000000 0.000000 0.000000
0.461737 1.203859 2.403181 0.000000 0.000000 0.000000
0.517404 1.210898 2.386726 0.000000 0.000000 0.000000
0.460199 1.228293 2.376477 0.000000 0.000000 0.000000
0.483862 1.201135 2.389882 0.000000 0.000000 0.000000
0.485806 1.243694 2.356317 0.000000 0.000000 0.000000
0.483213 1.227082 2.361593 0.000000 0.000000 0.000000
0.470069 1.225749 2.366598 0.000000 0.000000 0.000000
0.461444 1.241031 2.362941 0.000000 0.000000 0.000000
0.473816 1.219909 2.376158 0.000000 0.000000 0.000000
0.508570 1.202976 2.384835 0.000000 0.000000 0.000000
0.467348 1.213956 2.389079 0.000000 0.000000 0.000000
0.509995 1.219398 2.374495 0.000000 0.000000 0.000000
0.512918 1.219404 2.373909 0.000000 0.000000 0.000000
0.466733 1.232214 2.375170 0.000000 0.000000 0.000000
0.489581 1.239692 2.358781 0.000000 0.000000 0.000000
0.457240 1.239140 2.369040 0.000000 0.000000 0.000000
0.461032 1.237785 2.369052 0.000000 0.000000 0.000000
0.526518 1.213079 2.391291 0.000000 0.000000 0.000000
0.485077 1.240293 2.356690 0.000000 0.000000 0.000000
0.474957 1.197361 2.411539 0.000000 0.000000 0.000000
0.458992 1.236022 2.369644 0.000000 0.000000 0.000000
0.479827 1.243359 2.355654 0.000000 0.000000 0.000000
0.459608 1.203958 2.399086 0.000000 0.000000 0.000000
0.477856 1.203481 2.387666 0.000000 0.000000 0.000000
0.466474 1.203605 2.403757 0.000000 0.000000 0.000000
0.479602 1.200011 2.401409 0.000000 0.000000 0.000000
0.489958 1.237699 2.354976 0.000000 0.000000 0.000000
0.487013 1.200090 2.396065 0.000000 0.000000 0.000000
0.473783 1.214725 2.377425 0.000000 0.000000 0.000000
0.490088 1.245409 2.355722 0.000000 0.000000 0.000000
0.481134 1.201481 2.392662 0.000000 0.000000 0.000000
0.463970 1.204140 2.413639 0.000000 0.000000 0.000000
0.487407 1.243990 2.355229 0.000000 0.000000 0.000000
0.474629 1.240088 2.360274 0.000000 0.000000 0.000000
0.464726 1.226059 2.374088 0.000000 0.000000 0.000000
0.489900 1.248706 2.356179 0.000000 0.000000 0.000000
0.491753 1.197245 2.400329 0.000000 0.000000 0.000000
0.536626 1.232641 2.396621 0.000000 0.000000 0.000000
0.552128 1.233287 2.405245 0.000000 0.000000 0.000000
0.464783 1.234353 2.366251 0.000000 0.000000 0.000000
0.485880 1.227229 2.370943 0.000000 0.000000 0.000000
0.465639 1.220062 2.392370 0.000000 0.000000 0.000000
0.508966 1.251481 2.360787 0.000000 0.000000 0.000000
0.501947 1.249542 2.358570 0.000000 0.000000 0.000000
0.453928 1.223784 2.395439 0.000000 0.000000 0.000000
0.455293 1.206517 2.413070 0.000000 0.000000 0.000000
0.500120 1.224617 2.363070 0.000000 0.000000 0.000000
0.482923 1.223646 2.375652 0.000000 0.000000 0.000000
0.460003 1.216094 2.403679 0.000000 0.000000 0.000000
0.457383 1.234731 2.372204 0.000000 0.000000 0.000000
0.448229 1.241876 2.384145 0.000000 0.000000 0.000000
0.446958 1.235597 2.396715 0.000000 0.000000 0.000000
0.514843 1.203617 2.383601 0.000000 0.000000 0.000000
0.460544 1.204681 2.388196 0.000000 0.000000 0.000000
0.554132 1.234637 2.409023 0.000000 0.000000 0.000000
0.473188 1.202905 2.405418 0.000000 0.000000 0.000000
0.513920 1.249699 2.367361 0.000000 0.000000 0.000000
0.488539 1.250026 2.353183 0.000000 0.000000 0.000000
0.510892 1.254398 2.362305 0.000000 0.000000 0.000000
0.513003 1.252854 2.367550 0.000000 0.000000 0.000000
0.495389 1.249008 2.356405 0.000000 0.000000 0.000000
0.454638 1.210244 2.399291 0.000000 0.000000 0.000000
0.470405 1.209829 2.375657 0.000000 0.000000 0.000000
0.482886 1.202942 2.407803 0.000000 0.000000 0.000000
0.454873 1.208726 2.405676 0.000000 0.000000 0.000000
0.462617 1.209039 2.384954 0.000000 0.000000 0.000000
0.467352 1.199950 2.415766 0.000000 0.000000 0.000000
0.472600 1.198961 2.414706 0.000000 0.000000 0.000000
0.464191 1.210200 2.386354 0.000000 0.000000 0.000000
0.460606 1.204535 2.408352 0.000000 0.000000 0.000000
0.457476 1.211197 2.410827 0.000000 0.000000 0.000000
0.485262 1.198829 2.404168 0.000000 0.000000 0.000000
0.453684 1.212389 2.414875 0.000000 0.000000 0.000000
0.481096 1.197682 2.400416 0.000000 0.000000 0.000000
0.473161 1.235067 2.359885 0.000000 0.000000 0.000000
0.473487 1.231739 2.362800 0.000000 0.000000 0.000000
0.473420 1.239074 2.358950 0.000000 0.000000 0.000000
0.495241 1.229803 2.369553 0.000000 0.000000 0.000000
0.533316 1.239753 2.388224 0.000000 0.000000 0.000000
0.490032 1.245683 2.358708 0.000000 0.000000 0.000000
0.444527 1.223246 2.407914 0.000000 0.000000 0.000000
0.467511 1.230334 2.365276 0.000000 0.000000 0.000000
0.458810 1.202136 2.416683 0.000000 0.000000 0.000000
0.491107 1.239178 2.360361 0.000000 0.000000 0.000000
0.459323 1.210306 2.402003 0.000000 0.000000 0.000000
0.496965 1.218690 2.383111 0.000000 0.000000 0.000000
0.479825 1.219843 2.369546 0.000000 0.000000 0.000000
0.498708 1.213470 2.369670 0.000000 0.000000 0.000000
0.510576 1.207356 2.389774 0.000000 0.000000 0.000000
0.467751 1.207692 2.386266 0.000000 0.000000 0.000000
0.486535 1.206729 2.381310 0.000000 0.000000 0.000000
0.486219 1.218104 2.371164 0.000000 0.000000 0.000000
0.485159 1.213305 2.364522 0.000000 0.000000 0.000000
0.448700 1.211239 2.416508 0.000000 0.000000 0.000000
0.453611 1.239254 2.375525 0.000000 0.000000 0.000000
0.546835 1.232556 2.404936 0.000000 0.000000 0.000000
0.460511 1.238917 2.366113 0.000000 0.000000 0.000000
0.543435 1.228430 2.405158 0.000000 0.000000 0.000000
0.545805 1.242918 2.398805 0.000000 0.000000 0.000000
0.528926 1.208661 2.400703 0.000000 0.000000 0.000000
0.518894 1.206930 2.383736 0.000000 0.000000 0.000000
0.515993 1.202704 2.400851 0.000000 0.000000 0.000000
0.527134 1.225418 2.377186 0.000000 0.000000 0.000000
0.518483 1.249409 2.365316 0.000000 0.000000 0.000000
0.526515 1.248492 2.367926 0.000000 0.000000 0.000000
0.476464 1.235084 2.369797 0.000000 0.000000 0.000000
0.505028 1.234761 2.373247 0.000000 0.000000 0.000000
0.495883 1.246107 2.364227 0.000000 0.000000 0.000000
0.500975 1.250279 2.358104 0.000000 0.000000 0.000000
0.482406 1.246246 2.355864 0.000000 0.000000 0.000000
0.460587 1.201646 2.414733 0.000000 0.000000 0.000000
0.477471 1.201056 2.396366 0.000000 0.000000 0.000000
0.532311 1.252900 2.376591 0.000000 0.000000 0.000000
0.453940 1.219814 2.382848 0.000000 0.000000 0.000000
0.545417 1.228876 2.396606 0.000000 0.000000 0.000000
0.461051 1.206146 2.392954 0.000000 0.000000 0.000000
0.474617 1.228503 2.360806 0.000000 0.000000 0.000000
0.530741 1.251917 2.372826 0.000000 0.000000 0.000000
0.486612 1.232117 2.359616 0.000000 0.000000 0.000000
0.538853 1.225440 2.398787 0.000000 0.000000 0.000000
0.489875 1.226151 2.364804 0.000000 0.000000 0.000000
0.523532 1.218394 2.397274 0.000000 0.000000 0.000000
0.549944 1.235657 2.409467 0.000000 0.000000 0.000000
0.467702 1.222956 2.373514 0.000000 0.000000 0.000000
0.455154 1.207949 2.413968 0.000000 0.000000 0.000000
0.446867 1.220357 2.405755 0.000000 0.000000 0.000000
0.448409 1.220410 2.412268 0.000000 0.000000 0.000000
0.447247 1.228753 2.394167 0.000000 0.000000 0.000000
0.443818 1.225264 2.414621 0.000000 0.000000 0.000000
0.452955 1.209376 2.415181 0.000000 0.000000 0.000000
0.447708 1.241247 2.389896 0.000000 0.000000 0.000000
0.463440 1.201119 2.416555 0.000000 0.000000 0.000000
0.444223 1.232422 2.401060 0.000000 0.000000 0.000000
0.483329 1.216158 2.375469 0.000000 0.000000 0.000000
0.456748 1.209303 2.416925 0.000000 0.000000 0.000000
0.448589 1.228116 2.409932 0.000000 0.000000 0.000000
0.442465 1.231251 2.414316 0.000000 0.000000 0.000000
0.444539 1.222981 2.420642 0.000000 0.000000 0.000000
0.453277 1.224643 2.402027 0.000000 0.000000 0.000000
0.445787 1.227452 2.402727 0.000000 0.000000 0.000000
0.448545 1.213559 2.414921 0.000000 0.000000 0.000000
0.465633 1.204012 2.416435 0.000000 0.000000 0.000000
0.450172 1.207604 2.406796 0.000000 0.000000 0.000000
0.443649 1.231552 2.405902 0.000000 0.000000 0.000000
0.443600 1.236897 2.401451 0.000000 0.000000 0.000000
0.453185 1.208705 2.418835 0.000000 0.000000 0.000000
0.443167 1.230645 2.411130 0.000000 0.000000 0.000000
0.449297 1.220373 2.419731 0.000000 0.000000 0.000000
0.443322 1.227716 2.418953 0.000000 0.000000 0.000000
0.446156 1.229770 2.414011 0.000000 0.000000 0.000000
0.442974 1.241207 2.398369 0.000000 0.000000 0.000000
0.452940 1.217687 2.417889 0.000000 0.000000 0.000000
0.510763 1.254996 2.361161 0.000000 0.000000 0.000000
0.481438 1.202992 2.407092 0.000000 0.000000 0.000000
0.508049 1.226754 2.387771 0.000000 0.000000 0.000000
0.446777 1.213391 2.418298 0.000000 0.000000 0.000000
0.465461 1.239494 2.361353 0.000000 0.000000 0.000000
0.466992 1.216038 2.373032 0.000000 0.000000 0.000000
0.463421 1.210244 2.385540 0.000000 0.000000 0.000000
0.461472 1.217585 2.379109 0.000000 0.000000 0.000000
0.471200 1.235984 2.361597 0.000000 0.000000 0.000000
0.450283 1.213263 2.402047 0.000000 0.000000 0.000000
0.466517 1.206360 2.386937 0.000000 0.000000 0.000000
0.467474 1.203134 2.397158 0.000000 0.000000 0.000000
0.479137 1.212880 2.394024 0.000000 0.000000 0.000000
0.538959 1.256441 2.379730 0.000000 0.000000 0.000000
0.449976 1.233141 2.392873 0.000000 0.000000 0.000000
0.449035 1.239019 2.379853 0.000000 0.000000 0.000000
0.476401 1.198392 2.413969 0.000000 0.000000 0.000000
0.453189 1.236885 2.374746 0.000000 0.000000 0.000000
0.448590 1.239534 2.388618 0.000000 0.000000 0.000000
0.449550 1.237883 2.383518 0.000000 0.000000 0.000000
0.505888 1.252421 2.361199 0.000000 0.000000 0.000000
0.530837 1.227154 2.390516 0.000000 0.000000 0.000000
0.461531 1.204169 2.410993 0.000000 0.000000 0.000000
0.468144 1.211499 2.388619 0.000000 0.000000 0.000000
0.458756 1.210108 2.388530 0.000000 0.000000 0.000000
0.550727 1.236937 2.412128 0.000000 0.000000 0.000000
0.531725 1.211210 2.393865 0.000000 0.000000 0.000000
0.497420 1.253398 2.355394 0.000000 0.000000 0.000000
0.486297 1.218416 2.368153 0.000000 0.000000 0.000000
0.500808 1.207449 2.386585 0.000000 0.000000 0.000000
0.506409 1.233962 2.364234 0.000000 0.000000 0.000000
0.472768 1.206256 2.392992 0.000000 0.000000 0.000000
0.474755 1.208657 2.399404 0.000000 0.000000 0.000000
0.494871 1.228631 2.363421 0.000000 0.000000 0.000000
0.487265 1.196715 2.404209 0.000000 0.000000 0.000000
0.495702 1.236508 2.355122 0.000000 0.000000 0.000000
0.487336 1.245803 2.355223 0.000000 0.000000 0.000000
0.496049 1.246765 2.356950 0.000000 0.000000 0.000000
0.496123 1.248638 2.356155 0.000000 0.000000 0.000000
0.443581 1.231620 2.408870 0.000000 0.000000 0.000000
0.454047 1.236596 2.381499 0.000000 0.000000 0.000000
0.442946 1.231773 2.406389 0.000000 0.000000 0.000000
0.446995 1.238955 2.390532 0.000000 0.000000 0.000000
0.543743 1.231817 2.399247 0.000000 0.000000 0.000000
0.543388 1.237979 2.399525 0.000000 0.000000 0.000000
0.463549 1.205738 2.381249 0.000000 0.000000 0.000000
0.549040 1.231324 2.399620 0.000000 0.000000 0.000000
0.470912 1.200524 2.415669 0.000000 0.000000 0.000000
0.538615 1.234258 2.384388 0.000000 0.000000 0.000000
0.528587 1.216161 2.387644 0.000000 0.000000 0.000000
0.537278 1.230428 2.381472 0.000000 0.000000 0.000000
0.534638 1.244775 2.374624 0.000000 0.000000 0.000000
0.496668 1.250820 2.353759 0.000000 0.000000 0.000000
0.494206 1.210923 2.379738 0.000000 0.000000 0.000000
0.515056 1.223155 2.371750 0.000000 0.000000 0.000000
0.549923 1.254373 2.388436 0.000000 0.000000 0.000000
0.506243 1.211538 2.382690 0.000000 0.000000 0.000000
0.495492 1.207042 2.376027 0.000000 0.000000 0.000000
0.531256 1.248163 2.385428 0.000000 0.000000 0.000000
0.549527 1.239455 2.400392 0.000000 0.000000 0.000000
0.507857 1.241466 2.379508 0.000000 0.000000 0.000000
0.527985 1.255078 2.369450 0.000000 0.000000 0.000000
0.503017 1.200585 2.389222 0.000000 0.000000 0.000000
0.503535 1.249114 2.358842 0.000000 0.000000 0.000000
0.485599 1.211706 2.377567 0.000000 0.000000 0.000000
0.515398 1.218394 2.379688 0.000000 0.000000 0.000000
0.542817 1.255639 2.379694 0.000000 0.000000 0.000000
0.496876 1.216531 2.371749 0.000000 0.000000 0.000000
0.477253 1.209303 2.387459 0.000000 0.000000 0.000000
0.536912 1.254251 2.374752 0.000000 0.000000 0.000000
0.492895 1.203082 2.386614 0.000000 0.000000 0.000000
0.516244 1.258870 2.367009 0.000000 0.000000 0.000000
0.501093 1.256129 2.356260 0.000000 0.000000 0.000000
0.524816 1.259994 2.366582 0.000000 0.000000 0.000000
0.537122 1.217384 2.402511 0.000000 0.000000 0.000000
0.509945 1.256550 2.362036 0.000000 0.000000 0.000000
0.527169 1.218331 2.401803 0.000000 0.000000 0.000000
0.470662 1.198326 2.413105 0.000000 0.000000 0.000000
0.523239 1.256795 2.366497 0.000000 0.000000 0.000000
0.518552 1.254228 2.368699 0.000000 0.000000 0.000000
0.453497 1.209791 2.413763 0.000000 0.000000 0.000000
0.448634 1.211187 2.420417 0.000000 0.000000 0.000000
0.447658 1.214251 2.421335 0.000000 0.000000 0.000000
0.444767 1.220275 2.417963 0.000000 0.000000 0.000000
0.449690 1.214027 2.421204 0.000000 0.000000 0.000000
0.445988 1.221054 2.411258 0.000000 0.000000 0.000000
0.445940 1.218487 2.417468 0.000000 0.000000 0.000000
0.445969 1.212497 2.420335 0.000000 0.000000 0.000000
0.447323 1.219329 2.419239 0.000000 0.000000 0.000000
0.450071 1.211068 2.421906 0.000000 0.000000 0.000000
0.449394 1.211164 2.417481 0.000000 0.000000 0.000000
0.448828 1.214607 2.408446 0.000000 0.000000 0.000000
0.446238 1.218035 2.417362 0.000000 0.000000 0.000000
0.455197 1.207671 2.417040 0.000000 0.000000 0.000000
0.471430 1.199262 2.413021 0.000000 0.000000 0.000000
0.463374 1.198263 2.418833 0.000000 0.000000 0.000000
0.523430 1.203779 2.400151 0.000000 0.000000 0.000000
0.498598 1.244312 2.360437 0.000000 0.000000 0.000000
0.508177 1.254027 2.358023 0.000000 0.000000 0.000000
0.484515 1.237931 2.358984 0.000000 0.000000 0.000000
0.524202 1.204163 2.400427 0.000000 0.000000 0.000000
0.513970 1.215207 2.397832 0.000000 0.000000 0.000000
0.469619 1.199355 2.407855 0.000000 0.000000 0.000000
0.466032 1.199371 2.408120 0.000000 0.000000 0.000000
0.494227 1.244293 2.357162 0.000000 0.000000 0.000000
0.502862 1.203268 2.394989 0.000000 0.000000 0.000000
0.517343 1.209976 2.403019 0.000000 0.000000 0.000000
0.516683 1.201936 2.397675 0.000000 0.000000 0.000000
0.514935 1.200924 2.396391 0.000000 0.000000 0.000000
0.519866 1.201451 2.397190 0.000000 0.000000 0.000000
0.503892 1.248746 2.358963 0.000000 0.000000 0.000000
0.514516 1.228613 2.369444 0.000000 0.000000 0.000000
0.521817 1.205533 2.392565 0.000000 0.000000 0.000000
0.530795 1.220954 2.399948 0.000000 0.000000 0.000000
0.466166 1.202143 2.393437 0.000000 0.000000 0.000000
0.466008 1.198877 2.411910 0.000000 0.000000 0.000000
0.501554 1.253720 2.356466 0.000000 0.000000 0.000000
0.509990 1.202215 2.400137 0.000000 0.000000 0.000000
0.512727 1.211730 2.397268 0.000000 0.000000 0.000000
0.519893 1.207598 2.400235 0.000000 0.000000 0.000000
0.511673 1.201029 2.398072 0.000000 0.000000 0.000000
0.493265 1.197339 2.406873 0.000000 0.000000 0.000000
0.527148 1.207985 2.396246 0.000000 0.000000 0.000000
0.533659 1.250785 2.372723 0.000000 0.000000 0.000000
0.521715 1.255082 2.368392 0.000000 0.000000 0.000000
0.521701 1.231349 2.375430 0.000000 0.000000 0.000000
0.528771 1.247270 2.373565 0.000000 0.000000 0.000000
0.522501 1.254291 2.368248 0.000000 0.000000 0.000000
0.516704 1.234718 2.369909 0.000000 0.000000 0.000000
0.520840 1.240654 2.368051 0.000000 0.000000 0.000000
0.468999 1.208060 2.383420 0.000000 0.000000 0.000000
0.456478 1.219897 2.386847 0.000000 0.000000 0.000000
0.459849 1.210967 2.382111 0.000000 0.000000 0.000000
0.476394 1.215734 2.368052 0.000000 0.000000 0.000000
0.514251 1.208198 2.381667 0.000000 0.000000 0.000000
0.455700 1.214328 2.383432 0.000000 0.000000 0.000000
0.511820 1.200797 2.388410 0.000000 0.000000 0.000000
0.495831 1.197041 2.399160 0.000000 0.000000 0.000000
0.448693 1.237792 2.382794 0.000000 0.000000 0.000000
0.446825 1.211540 2.420555 0.000000 0.000000 0.000000
0.516132 1.207057 2.377046 0.000000 0.000000 0.000000
0.503742 1.201078 2.385628 0.000000 0.000000 0.000000
0.496487 1.201715 2.383937 0.000000 0.000000 0.000000
0.467909 1.201857 2.411367 0.000000 0.000000 0.000000
0.478126 1.198051 2.405050 0.000000 0.000000 0.000000
0.502127 1.199628 2.390534 0.000000 0.000000 0.000000
0.492176 1.199022 2.395817 0.000000 0.000000 0.000000
0.496032 1.198130 2.389206 0.000000 0.000000 0.000000
0.487372 1.204087 2.391563 0.000000 0.000000 0.000000
0.517374 1.211509 2.381436 0.000000 0.000000 0.000000
0.521521 1.207848 2.398885 0.000000 0.000000 0.000000
0.501136 1.197578 2.396559 0.000000 0.000000 0.000000
0.539330 1.258368 2.382349 0.000000 0.000000 0.000000
0.509516 1.198797 2.396995 0.000000 0.000000 0.000000
0.484088 1.194772 2.404325 0.000000 0.000000 0.000000
0.513917 1.200777 2.391776 0.000000 0.000000 0.000000
0.492577 1.203013 2.392098 0.000000 0.000000 0.000000
0.516596 1.199542 2.397621 0.000000 0.000000 0.000000
0.480640 1.197822 2.402385 0.000000 0.000000 0.000000
0.486870 1.196569 2.401764 0.000000 0.000000 0.000000
0.522341 1.210841 2.385892 0.000000 0.000000 0.000000
0.526560 1.212915 2.403312 0.000000 0.000000 0.000000
0.491268 1.198908 2.396523 0.000000 0.000000 0.000000
0.539289 1.258958 2.379083 0.000000 0.000000 0.000000
0.477395 1.198517 2.396317 0.000000 0.000000 0.000000
0.545570 1.238653 2.408757 0.000000 0.000000 0.000000
0.548192 1.234891 2.405821 0.000000 0.000000 0.000000
0.545792 1.248829 2.381665 0.000000 0.000000 0.000000
0.498148 1.248755 2.360986 0.000000 0.000000 0.000000
0.534546 1.238211 2.382562 0.000000 0.000000 0.000000
0.501143 1.224843 2.366489 0.000000 0.000000 0.000000
0.545893 1.249079 2.387289 0.000000 0.000000 0.000000
0.545080 1.245715 2.388160 0.000000 0.000000 0.000000
0.550218 1.247615 2.393690 0.000000 0.000000 0.000000
0.489523 1.206842 2.380301 0.000000 0.000000 0.000000
0.539734 1.244117 2.379503 0.000000 0.000000 0.000000
0.538028 1.249236 2.382282 0.000000 0.000000 0.000000
0.506807 1.216374 2.374101 0.000000 0.000000 0.000000
0.547922 1.243146 2.390285 0.000000 0.000000 0.000000
0.544574 1.245856 2.390037 0.000000 0.000000 0.000000
0.495722 1.206415 2.382726 0.000000 0.000000 0.000000
0.483637 1.199403 2.403081 0.000000 0.000000 0.000000
0.466785 1.202356 2.397444 0.000000 0.000000 0.000000
0.478897 1.205379 2.392302 0.000000 0.000000 0.000000
0.458240 1.208164 2.404554 0.000000 0.000000 0.000000
0.450994 1.213086 2.401196 0.000000 0.000000 0.000000
0.458736 1.203134 2.406497 0.000000 0.000000 0.000000
0.454462 1.211895 2.392626 0.000000 0.000000 0.000000
0.452413 1.211431 2.398482 0.000000 0.000000 0.000000
0.494968 1.202662 2.383015 0.000000 0.000000 0.000000
0.456914 1.205009 2.392276 0.000000 0.000000 0.000000
0.456047 1.200437 2.399661 0.000000 0.000000 0.000000
0.507831 1.198219 2.391887 0.000000 0.000000 0.000000
0.449776 1.218699 2.388604 0.000000 0.000000 0.000000
0.496756 1.204505 2.381151 0.000000 0.000000 0.000000
0.473305 1.200081 2.400586 0.000000 0.000000 0.000000
0.453659 1.208529 2.393659 0.000000 0.000000 0.000000
0.485235 1.198139 2.385828 0.000000 0.000000 0.000000
0.448346 1.219937 2.397201 0.000000 0.000000 0.000000
0.511691 1.198673 2.394762 0.000000 0.000000 0.000000
0.455226 1.211792 2.395576 0.000000 0.000000 0.000000
0.457842 1.223080 2.379769 0.000000 0.000000 0.000000
0.450731 1.219174 2.399328 0.000000 0.000000 0.000000
0.457989 1.222592 2.381816 0.000000 0.000000 0.000000
0.538818 1.232771 2.411393 0.000000 0.000000 0.000000
0.547294 1.229534 2.402559 0.000000 0.000000 0.000000
0.541624 1.230739 2.399829 0.000000 0.000000 0.000000
0.537894 1.218638 2.404526 0.000000 0.000000 0.000000
0.525369 1.207942 2.402529 0.000000 0.000000 0.000000
0.537541 1.257671 2.377991 0.000000 0.000000 0.000000
0.550655 1.252062 2.381542 0.000000 0.000000 0.000000
0.477691 1.205116 2.382478 0.000000 0.000000 0.000000
0.491389 1.225623 2.380993 0.000000 0.000000 0.000000
0.531248 1.254306 2.375479 0.000000 0.000000 0.000000
0.489697 1.226869 2.373818 0.000000 0.000000 0.000000
0.500724 1.209726 2.389965 0.000000 0.000000 0.000000
0.487914 1.213576 2.373569 0.000000 0.000000 0.000000
0.530010 1.257432 2.374437 0.000000 0.000000 0.000000
0.534267 1.257579 2.380402 0.000000 0.000000 0.000000
0.538801 1.251769 2.377204 0.000000 0.000000 0.000000
0.477292 1.204534 2.386046 0.000000 0.000000 0.000000
0.486396 1.222969 2.386480 0.000000 0.000000 0.000000
0.529599 1.257713 2.369723 0.000000 0.000000 0.000000
0.477936 1.217522 2.370833 0.000000 0.000000 0.000000
0.478682 1.206803 2.375464 0.000000 0.000000 0.000000
0.520024 1.257204 2.369882 0.000000 0.000000 0.000000
0.543723 1.251810 2.383670 0.000000 0.000000 0.000000
0.485225 1.211305 2.399101 0.000000 0.000000 0.000000
0.492803 1.214023 2.396430 0.000000 0.000000 0.000000
0.534699 1.219496 2.404594 0.000000 0.000000 0.000000
0.513591 1.208137 2.386574 0.000000 0.000000 0.000000
0.492954 1.213280 2.378570 0.000000 0.000000 0.000000
0.530123 1.213895 2.403429 0.000000 0.000000 0.000000
0.505826 1.209491 2.379522 0.000000 0.000000 0.000000
0.530173 1.212510 2.405538 0.000000 0.000000 0.000000
0.504392 1.197151 2.405392 0.000000 0.000000 0.000000
0.496453 1.197957 2.404848 0.000000 0.000000 0.000000
0.473180 1.193638 2.413986 0.000000 0.000000 0.000000
0.482148 1.195986 2.410046 0.000000 0.000000 0.000000
0.505414 1.196706 2.399491 0.000000 0.000000 0.000000
0.495085 1.198066 2.402631 0.000000 0.000000 0.000000
0.490803 1.199822 2.407336 0.000000 0.000000 0.000000
0.495568 1.196649 2.404534 0.000000 0.000000 0.000000
0.479659 1.195300 2.406842 0.000000 0.000000 0.000000
0.495648 1.197647 2.406386 0.000000 0.000000 0.000000
0.508800 1.197991 2.400494 0.000000 0.000000 0.000000
0.501231 1.197048 2.401016 0.000000 0.000000 0.000000
0.495362 1.196818 2.399133 0.000000 0.000000 0.000000
0.483283 1.197116 2.398775 0.000000 0.000000 0.000000
0.445013 1.221294 2.419335 0.000000 0.000000 0.000000
0.449724 1.216682 2.412882 0.000000 0.000000 0.000000
0.511259 1.255394 2.361347 0.000000 0.000000 0.000000
0.524177 1.207041 2.399782 0.000000 0.000000 0.000000
0.512715 1.255622 2.370098 0.000000 0.000000 0.000000
0.486162 1.245054 2.360291 0.000000 0.000000 0.000000
0.518264 1.256904 2.363126 0.000000 0.000000 0.000000
0.538788 1.222720 2.401899 0.000000 0.000000 0.000000
0.512869 1.252500 2.371616 0.000000 0.000000 0.000000
0.505195 1.257421 2.361952 0.000000 0.000000 0.000000
0.559284 1.216608 2.394603 0.000000 0.000000 0.000000
0.556532 1.212701 2.416597 0.000000 0.000000 0.000000
0.558644 1.208043 2.419334 0.000000 0.000000 0.000000
0.559443 1.220250 2.415551 0.000000 0.000000 0.000000
0.558689 1.214019 2.418494 0.000000 0.000000 0.000000
0.554115 1.206559 2.422618 0.000000 0.000000 0.000000
0.558671 1.200083 2.421081 0.000000 0.000000 0.000000
