ply
format ascii 1.0
comment VCGLIB generated
obj_info Generated by SPFormer!
element vertex 884
property float x
property float y
property float z
property float nx
property float ny
property float nz
end_header
0.481289 0.640081 2.461546 0.000000 0.000000 0.000000
0.330160 0.480099 2.344208 0.000000 0.000000 0.000000
0.576829 0.424462 2.392991 0.000000 0.000000 0.000000
0.396419 0.501284 2.393486 0.000000 0.000000 0.000000
0.417159 0.473394 2.388223 0.000000 0.000000 0.000000
0.385828 0.517327 2.387329 0.000000 0.000000 0.000000
0.354282 0.414670 2.363781 0.000000 0.000000 0.000000
0.394153 0.484221 2.374188 0.000000 0.000000 0.000000
0.481792 0.630867 2.466341 0.000000 0.000000 0.000000
0.378452 0.469424 2.379805 0.000000 0.000000 0.000000
0.367622 0.484697 2.369850 0.000000 0.000000 0.000000
0.334442 0.458371 2.355194 0.000000 0.000000 0.000000
0.414685 0.389614 2.350111 0.000000 0.000000 0.000000
0.417100 0.391588 2.353231 0.000000 0.000000 0.000000
0.336484 0.456297 2.360066 0.000000 0.000000 0.000000
0.324629 0.455572 2.340624 0.000000 0.000000 0.000000
0.475270 0.645603 2.451556 0.000000 0.000000 0.000000
0.505934 0.650908 2.556276 0.000000 0.000000 0.000000
0.433254 0.425674 2.379511 0.000000 0.000000 0.000000
0.327248 0.476997 2.329723 0.000000 0.000000 0.000000
0.553714 0.415975 2.370862 0.000000 0.000000 0.000000
0.414119 0.560331 2.409259 0.000000 0.000000 0.000000
0.403801 0.494703 2.396221 0.000000 0.000000 0.000000
0.380444 0.540363 2.386101 0.000000 0.000000 0.000000
0.350633 0.433280 2.371855 0.000000 0.000000 0.000000
0.382391 0.501745 2.386959 0.000000 0.000000 0.000000
0.482924 0.632746 2.468095 0.000000 0.000000 0.000000
0.430148 0.503477 2.406323 0.000000 0.000000 0.000000
0.465117 0.643506 2.440319 0.000000 0.000000 0.000000
0.439742 0.656836 2.413524 0.000000 0.000000 0.000000
0.375104 0.434704 2.386932 0.000000 0.000000 0.000000
0.353431 0.552046 2.359224 0.000000 0.000000 0.000000
0.371066 0.485100 2.371941 0.000000 0.000000 0.000000
0.350910 0.566212 2.353127 0.000000 0.000000 0.000000
0.331031 0.456944 2.353106 0.000000 0.000000 0.000000
0.341180 0.525468 2.324752 0.000000 0.000000 0.000000
0.350988 0.571990 2.338372 0.000000 0.000000 0.000000
0.334058 0.421568 2.354761 0.000000 0.000000 0.000000
0.347910 0.480486 2.363470 0.000000 0.000000 0.000000
0.593664 0.593256 2.489383 0.000000 0.000000 0.000000
0.593982 0.479501 2.417933 0.000000 0.000000 0.000000
0.329366 0.488635 2.332983 0.000000 0.000000 0.000000
0.507989 0.654126 2.569117 0.000000 0.000000 0.000000
0.511102 0.655043 2.575584 0.000000 0.000000 0.000000
0.530612 0.638341 2.570083 0.000000 0.000000 0.000000
0.523137 0.647822 2.575087 0.000000 0.000000 0.000000
0.344609 0.535246 2.352895 0.000000 0.000000 0.000000
0.516790 0.646790 2.571936 0.000000 0.000000 0.000000
0.343666 0.557057 2.339028 0.000000 0.000000 0.000000
0.389342 0.439554 2.378825 0.000000 0.000000 0.000000
0.354354 0.468963 2.368285 0.000000 0.000000 0.000000
0.360365 0.567821 2.364458 0.000000 0.000000 0.000000
0.370438 0.400928 2.356943 0.000000 0.000000 0.000000
0.421735 0.384911 2.344983 0.000000 0.000000 0.000000
0.421885 0.389724 2.354280 0.000000 0.000000 0.000000
0.441935 0.502120 2.408309 0.000000 0.000000 0.000000
0.436934 0.581986 2.430622 0.000000 0.000000 0.000000
0.356292 0.575605 2.356923 0.000000 0.000000 0.000000
0.488679 0.419148 2.376376 0.000000 0.000000 0.000000
0.516592 0.639570 2.558004 0.000000 0.000000 0.000000
0.350440 0.578633 2.337401 0.000000 0.000000 0.000000
0.338501 0.534616 2.329287 0.000000 0.000000 0.000000
0.350831 0.569452 2.336599 0.000000 0.000000 0.000000
0.563160 0.530808 2.424003 0.000000 0.000000 0.000000
0.349007 0.571890 2.340985 0.000000 0.000000 0.000000
0.359920 0.473153 2.378451 0.000000 0.000000 0.000000
0.370636 0.569056 2.376961 0.000000 0.000000 0.000000
0.489010 0.661809 2.481305 0.000000 0.000000 0.000000
0.386036 0.400890 2.359058 0.000000 0.000000 0.000000
0.344440 0.552542 2.344909 0.000000 0.000000 0.000000
0.416750 0.625091 2.399923 0.000000 0.000000 0.000000
0.457501 0.507917 2.408890 0.000000 0.000000 0.000000
0.565669 0.628371 2.569206 0.000000 0.000000 0.000000
0.545333 0.404476 2.359272 0.000000 0.000000 0.000000
0.334552 0.513724 2.339354 0.000000 0.000000 0.000000
0.411455 0.408237 2.363696 0.000000 0.000000 0.000000
0.471032 0.381004 2.340449 0.000000 0.000000 0.000000
0.560179 0.412952 2.369024 0.000000 0.000000 0.000000
0.596818 0.558709 2.447821 0.000000 0.000000 0.000000
0.483581 0.598346 2.465814 0.000000 0.000000 0.000000
0.567241 0.561296 2.448852 0.000000 0.000000 0.000000
0.354739 0.578933 2.352388 0.000000 0.000000 0.000000
0.407840 0.624249 2.397442 0.000000 0.000000 0.000000
0.343781 0.491503 2.352082 0.000000 0.000000 0.000000
0.574931 0.585000 2.478111 0.000000 0.000000 0.000000
0.409050 0.392499 2.351320 0.000000 0.000000 0.000000
0.496272 0.426672 2.383743 0.000000 0.000000 0.000000
0.549955 0.632383 2.570663 0.000000 0.000000 0.000000
0.486874 0.390840 2.352427 0.000000 0.000000 0.000000
0.562285 0.405844 2.360112 0.000000 0.000000 0.000000
0.394852 0.396807 2.353625 0.000000 0.000000 0.000000
0.485838 0.631372 2.477149 0.000000 0.000000 0.000000
0.549222 0.622408 2.559189 0.000000 0.000000 0.000000
0.592062 0.598940 2.502380 0.000000 0.000000 0.000000
0.484778 0.649891 2.464534 0.000000 0.000000 0.000000
0.333495 0.480598 2.348805 0.000000 0.000000 0.000000
0.323387 0.474040 2.346428 0.000000 0.000000 0.000000
0.597371 0.478618 2.413189 0.000000 0.000000 0.000000
0.414739 0.632169 2.399321 0.000000 0.000000 0.000000
0.329387 0.493823 2.344795 0.000000 0.000000 0.000000
0.558745 0.627641 2.559703 0.000000 0.000000 0.000000
0.544459 0.627364 2.554326 0.000000 0.000000 0.000000
0.601104 0.467480 2.425462 0.000000 0.000000 0.000000
0.572436 0.619569 2.554557 0.000000 0.000000 0.000000
0.599325 0.480887 2.419623 0.000000 0.000000 0.000000
0.600927 0.516594 2.431767 0.000000 0.000000 0.000000
0.415811 0.647977 2.398386 0.000000 0.000000 0.000000
0.591619 0.515494 2.432240 0.000000 0.000000 0.000000
0.337031 0.511390 2.340671 0.000000 0.000000 0.000000
0.337206 0.406021 2.363160 0.000000 0.000000 0.000000
0.486883 0.652671 2.472989 0.000000 0.000000 0.000000
0.336752 0.516739 2.347231 0.000000 0.000000 0.000000
0.341098 0.541586 2.338715 0.000000 0.000000 0.000000
0.587597 0.477172 2.415820 0.000000 0.000000 0.000000
0.590321 0.477227 2.420000 0.000000 0.000000 0.000000
0.587872 0.477087 2.418232 0.000000 0.000000 0.000000
0.584613 0.487449 2.416877 0.000000 0.000000 0.000000
0.382156 0.591866 2.371776 0.000000 0.000000 0.000000
0.339160 0.524956 2.345401 0.000000 0.000000 0.000000
0.332948 0.474530 2.351130 0.000000 0.000000 0.000000
0.428283 0.406000 2.360170 0.000000 0.000000 0.000000
0.472451 0.379796 2.339716 0.000000 0.000000 0.000000
0.329212 0.480978 2.337773 0.000000 0.000000 0.000000
0.601259 0.504947 2.422711 0.000000 0.000000 0.000000
0.602011 0.463902 2.420363 0.000000 0.000000 0.000000
0.325092 0.463746 2.341490 0.000000 0.000000 0.000000
0.411313 0.412519 2.363460 0.000000 0.000000 0.000000
0.595592 0.476072 2.420698 0.000000 0.000000 0.000000
0.419350 0.646011 2.399401 0.000000 0.000000 0.000000
0.598494 0.572722 2.457664 0.000000 0.000000 0.000000
0.593447 0.445972 2.409924 0.000000 0.000000 0.000000
0.595531 0.496377 2.426662 0.000000 0.000000 0.000000
0.382579 0.391571 2.352727 0.000000 0.000000 0.000000
0.533782 0.419590 2.373341 0.000000 0.000000 0.000000
0.527030 0.393268 2.349810 0.000000 0.000000 0.000000
0.439634 0.378601 2.338601 0.000000 0.000000 0.000000
0.323835 0.455486 2.331064 0.000000 0.000000 0.000000
0.323557 0.465787 2.332793 0.000000 0.000000 0.000000
0.350427 0.550087 2.357164 0.000000 0.000000 0.000000
0.598257 0.469236 2.417294 0.000000 0.000000 0.000000
0.540736 0.451877 2.392569 0.000000 0.000000 0.000000
0.603532 0.594398 2.489399 0.000000 0.000000 0.000000
0.589000 0.472058 2.414335 0.000000 0.000000 0.000000
0.586268 0.484168 2.417925 0.000000 0.000000 0.000000
0.596864 0.490244 2.420478 0.000000 0.000000 0.000000
0.505209 0.403738 2.366019 0.000000 0.000000 0.000000
0.513086 0.607941 2.512433 0.000000 0.000000 0.000000
0.334515 0.495316 2.347222 0.000000 0.000000 0.000000
0.596135 0.460692 2.420772 0.000000 0.000000 0.000000
0.594767 0.567562 2.461693 0.000000 0.000000 0.000000
0.594276 0.480515 2.420351 0.000000 0.000000 0.000000
0.532782 0.393004 2.348289 0.000000 0.000000 0.000000
0.364575 0.588659 2.363661 0.000000 0.000000 0.000000
0.432797 0.642072 2.417192 0.000000 0.000000 0.000000
0.547626 0.536310 2.429065 0.000000 0.000000 0.000000
0.594380 0.526695 2.434441 0.000000 0.000000 0.000000
0.522225 0.529144 2.420244 0.000000 0.000000 0.000000
0.465722 0.407143 2.354563 0.000000 0.000000 0.000000
0.558436 0.570754 2.461637 0.000000 0.000000 0.000000
0.545966 0.646481 2.581526 0.000000 0.000000 0.000000
0.343009 0.409478 2.364169 0.000000 0.000000 0.000000
0.330941 0.416948 2.363791 0.000000 0.000000 0.000000
0.393036 0.617037 2.385799 0.000000 0.000000 0.000000
0.332466 0.465428 2.352380 0.000000 0.000000 0.000000
0.351970 0.447081 2.367435 0.000000 0.000000 0.000000
0.337909 0.442043 2.361550 0.000000 0.000000 0.000000
0.496458 0.429577 2.376842 0.000000 0.000000 0.000000
0.343893 0.418089 2.367183 0.000000 0.000000 0.000000
0.456940 0.441319 2.374297 0.000000 0.000000 0.000000
0.567162 0.439930 2.397115 0.000000 0.000000 0.000000
0.337697 0.439907 2.361847 0.000000 0.000000 0.000000
0.524410 0.615778 2.528930 0.000000 0.000000 0.000000
0.339612 0.439007 2.364357 0.000000 0.000000 0.000000
0.336326 0.425615 2.368348 0.000000 0.000000 0.000000
0.433109 0.384640 2.348867 0.000000 0.000000 0.000000
0.534687 0.648145 2.582952 0.000000 0.000000 0.000000
0.349848 0.568223 2.341468 0.000000 0.000000 0.000000
0.330961 0.426427 2.364415 0.000000 0.000000 0.000000
0.474068 0.399997 2.357138 0.000000 0.000000 0.000000
0.321521 0.449640 2.331705 0.000000 0.000000 0.000000
0.535140 0.404108 2.359904 0.000000 0.000000 0.000000
0.493506 0.659570 2.526579 0.000000 0.000000 0.000000
0.334021 0.509967 2.333124 0.000000 0.000000 0.000000
0.597223 0.478221 2.416955 0.000000 0.000000 0.000000
0.535265 0.615118 2.528470 0.000000 0.000000 0.000000
0.579948 0.609949 2.516076 0.000000 0.000000 0.000000
0.393998 0.403871 2.362257 0.000000 0.000000 0.000000
0.466501 0.397592 2.346268 0.000000 0.000000 0.000000
0.324079 0.460749 2.339082 0.000000 0.000000 0.000000
0.601495 0.520932 2.431014 0.000000 0.000000 0.000000
0.588420 0.568995 2.459305 0.000000 0.000000 0.000000
0.384219 0.391096 2.352249 0.000000 0.000000 0.000000
0.393622 0.389554 2.348489 0.000000 0.000000 0.000000
0.582723 0.614845 2.526258 0.000000 0.000000 0.000000
0.418891 0.387091 2.347121 0.000000 0.000000 0.000000
0.327533 0.424968 2.358417 0.000000 0.000000 0.000000
0.409230 0.383408 2.343272 0.000000 0.000000 0.000000
0.491855 0.662304 2.512159 0.000000 0.000000 0.000000
0.344167 0.559123 2.345843 0.000000 0.000000 0.000000
0.572701 0.612543 2.521194 0.000000 0.000000 0.000000
0.567518 0.606724 2.510568 0.000000 0.000000 0.000000
0.402960 0.393197 2.355124 0.000000 0.000000 0.000000
0.602466 0.584862 2.471246 0.000000 0.000000 0.000000
0.333566 0.484777 2.335382 0.000000 0.000000 0.000000
0.387536 0.396170 2.354878 0.000000 0.000000 0.000000
0.329442 0.477972 2.333766 0.000000 0.000000 0.000000
0.333186 0.492781 2.327940 0.000000 0.000000 0.000000
0.347989 0.564617 2.343509 0.000000 0.000000 0.000000
0.347899 0.564303 2.334663 0.000000 0.000000 0.000000
0.545135 0.643170 2.581213 0.000000 0.000000 0.000000
0.567077 0.415686 2.375102 0.000000 0.000000 0.000000
0.542779 0.641082 2.577826 0.000000 0.000000 0.000000
0.350452 0.560844 2.354632 0.000000 0.000000 0.000000
0.371266 0.591376 2.369144 0.000000 0.000000 0.000000
0.322660 0.461637 2.328631 0.000000 0.000000 0.000000
0.349356 0.568489 2.346731 0.000000 0.000000 0.000000
0.473869 0.387133 2.347180 0.000000 0.000000 0.000000
0.410900 0.399547 2.360649 0.000000 0.000000 0.000000
0.340646 0.543454 2.338641 0.000000 0.000000 0.000000
0.573702 0.411077 2.370130 0.000000 0.000000 0.000000
0.384632 0.384618 2.347967 0.000000 0.000000 0.000000
0.565329 0.414880 2.373056 0.000000 0.000000 0.000000
0.495250 0.657879 2.547639 0.000000 0.000000 0.000000
0.479880 0.657577 2.452049 0.000000 0.000000 0.000000
0.391665 0.595922 2.391076 0.000000 0.000000 0.000000
0.346044 0.562007 2.333857 0.000000 0.000000 0.000000
0.345726 0.560453 2.343460 0.000000 0.000000 0.000000
0.347342 0.567873 2.337477 0.000000 0.000000 0.000000
0.564845 0.410716 2.366156 0.000000 0.000000 0.000000
0.583600 0.441209 2.410222 0.000000 0.000000 0.000000
0.509365 0.632794 2.530803 0.000000 0.000000 0.000000
0.367551 0.578805 2.370515 0.000000 0.000000 0.000000
0.383761 0.389116 2.350889 0.000000 0.000000 0.000000
0.427315 0.386802 2.351650 0.000000 0.000000 0.000000
0.403094 0.613733 2.396349 0.000000 0.000000 0.000000
0.345136 0.557731 2.339208 0.000000 0.000000 0.000000
0.353939 0.579309 2.342108 0.000000 0.000000 0.000000
0.350588 0.575717 2.338183 0.000000 0.000000 0.000000
0.592405 0.534548 2.435724 0.000000 0.000000 0.000000
0.524460 0.643609 2.567885 0.000000 0.000000 0.000000
0.343433 0.548971 2.340965 0.000000 0.000000 0.000000
0.425496 0.391435 2.355124 0.000000 0.000000 0.000000
0.569208 0.407742 2.363214 0.000000 0.000000 0.000000
0.593201 0.601753 2.501144 0.000000 0.000000 0.000000
0.590454 0.536362 2.436561 0.000000 0.000000 0.000000
0.440140 0.654916 2.415471 0.000000 0.000000 0.000000
0.489372 0.667871 2.483274 0.000000 0.000000 0.000000
0.485664 0.667683 2.452189 0.000000 0.000000 0.000000
0.404158 0.622428 2.393097 0.000000 0.000000 0.000000
0.343123 0.539621 2.325490 0.000000 0.000000 0.000000
0.338671 0.535434 2.341218 0.000000 0.000000 0.000000
0.332708 0.510899 2.330832 0.000000 0.000000 0.000000
0.577828 0.432824 2.397057 0.000000 0.000000 0.000000
0.463356 0.413371 2.366571 0.000000 0.000000 0.000000
0.593848 0.547422 2.440482 0.000000 0.000000 0.000000
0.338363 0.517210 2.322833 0.000000 0.000000 0.000000
0.573645 0.601344 2.501570 0.000000 0.000000 0.000000
0.393081 0.396198 2.356801 0.000000 0.000000 0.000000
0.602150 0.517931 2.438470 0.000000 0.000000 0.000000
0.505055 0.483021 2.395362 0.000000 0.000000 0.000000
0.343358 0.551687 2.343991 0.000000 0.000000 0.000000
0.464260 0.417864 2.366310 0.000000 0.000000 0.000000
0.594622 0.541492 2.438354 0.000000 0.000000 0.000000
0.371951 0.601112 2.367360 0.000000 0.000000 0.000000
0.330852 0.420226 2.359220 0.000000 0.000000 0.000000
0.347357 0.569825 2.347510 0.000000 0.000000 0.000000
0.361801 0.572673 2.365362 0.000000 0.000000 0.000000
0.335900 0.514477 2.322164 0.000000 0.000000 0.000000
0.427816 0.388264 2.352557 0.000000 0.000000 0.000000
0.525735 0.612721 2.531990 0.000000 0.000000 0.000000
0.466884 0.383287 2.341500 0.000000 0.000000 0.000000
0.344660 0.453888 2.361486 0.000000 0.000000 0.000000
0.581239 0.563818 2.456918 0.000000 0.000000 0.000000
0.390266 0.398722 2.358213 0.000000 0.000000 0.000000
0.466983 0.386357 2.346336 0.000000 0.000000 0.000000
0.564313 0.420726 2.381381 0.000000 0.000000 0.000000
0.587198 0.579702 2.471345 0.000000 0.000000 0.000000
0.580436 0.437301 2.400345 0.000000 0.000000 0.000000
0.328055 0.477824 2.329295 0.000000 0.000000 0.000000
0.551381 0.402563 2.358042 0.000000 0.000000 0.000000
0.562479 0.616750 2.541836 0.000000 0.000000 0.000000
0.355060 0.582092 2.348419 0.000000 0.000000 0.000000
0.589428 0.449205 2.412253 0.000000 0.000000 0.000000
0.588234 0.566130 2.455822 0.000000 0.000000 0.000000
0.409609 0.382224 2.344064 0.000000 0.000000 0.000000
0.573459 0.456422 2.405442 0.000000 0.000000 0.000000
0.550313 0.416197 2.371372 0.000000 0.000000 0.000000
0.497249 0.630144 2.503290 0.000000 0.000000 0.000000
0.497660 0.641836 2.525064 0.000000 0.000000 0.000000
0.493568 0.659725 2.519043 0.000000 0.000000 0.000000
0.487321 0.654102 2.472053 0.000000 0.000000 0.000000
0.492325 0.653530 2.504583 0.000000 0.000000 0.000000
0.522015 0.454830 2.387794 0.000000 0.000000 0.000000
0.492042 0.661763 2.503412 0.000000 0.000000 0.000000
0.488621 0.664396 2.487916 0.000000 0.000000 0.000000
0.496222 0.646319 2.521734 0.000000 0.000000 0.000000
0.395560 0.383748 2.345210 0.000000 0.000000 0.000000
0.497406 0.635175 2.513191 0.000000 0.000000 0.000000
0.492024 0.643184 2.496922 0.000000 0.000000 0.000000
0.501434 0.617695 2.499165 0.000000 0.000000 0.000000
0.504794 0.624601 2.515368 0.000000 0.000000 0.000000
0.425125 0.640282 2.412367 0.000000 0.000000 0.000000
0.494998 0.660071 2.507564 0.000000 0.000000 0.000000
0.490618 0.668202 2.511527 0.000000 0.000000 0.000000
0.388836 0.614736 2.383772 0.000000 0.000000 0.000000
0.423905 0.650336 2.404631 0.000000 0.000000 0.000000
0.342655 0.455338 2.362274 0.000000 0.000000 0.000000
0.425903 0.632456 2.415173 0.000000 0.000000 0.000000
0.408755 0.623601 2.399905 0.000000 0.000000 0.000000
0.445680 0.430994 2.369200 0.000000 0.000000 0.000000
0.495627 0.604970 2.479825 0.000000 0.000000 0.000000
0.324027 0.475123 2.334268 0.000000 0.000000 0.000000
0.481137 0.458640 2.386504 0.000000 0.000000 0.000000
0.526236 0.411388 2.366524 0.000000 0.000000 0.000000
0.502775 0.622916 2.510844 0.000000 0.000000 0.000000
0.512724 0.617565 2.517790 0.000000 0.000000 0.000000
0.494239 0.647949 2.516690 0.000000 0.000000 0.000000
0.492512 0.658315 2.509608 0.000000 0.000000 0.000000
0.497371 0.624459 2.494244 0.000000 0.000000 0.000000
0.489677 0.641760 2.488758 0.000000 0.000000 0.000000
0.536949 0.417779 2.372078 0.000000 0.000000 0.000000
0.494325 0.637031 2.509717 0.000000 0.000000 0.000000
0.490737 0.663144 2.519728 0.000000 0.000000 0.000000
0.493854 0.661354 2.500361 0.000000 0.000000 0.000000
0.411511 0.397142 2.358679 0.000000 0.000000 0.000000
0.492644 0.634328 2.487935 0.000000 0.000000 0.000000
0.499658 0.618494 2.498083 0.000000 0.000000 0.000000
0.489323 0.656702 2.524149 0.000000 0.000000 0.000000
0.393816 0.635605 2.385888 0.000000 0.000000 0.000000
0.413780 0.630429 2.402536 0.000000 0.000000 0.000000
0.329047 0.425278 2.361798 0.000000 0.000000 0.000000
0.408170 0.639917 2.397109 0.000000 0.000000 0.000000
0.418868 0.381132 2.339249 0.000000 0.000000 0.000000
0.502791 0.616876 2.503974 0.000000 0.000000 0.000000
0.500466 0.619537 2.501546 0.000000 0.000000 0.000000
0.462177 0.384154 2.342702 0.000000 0.000000 0.000000
0.598830 0.592126 2.485588 0.000000 0.000000 0.000000
0.416368 0.387666 2.346891 0.000000 0.000000 0.000000
0.520420 0.389144 2.345348 0.000000 0.000000 0.000000
0.603384 0.568297 2.446618 0.000000 0.000000 0.000000
0.396435 0.633426 2.384408 0.000000 0.000000 0.000000
0.327973 0.481211 2.330920 0.000000 0.000000 0.000000
0.602529 0.573738 2.460208 0.000000 0.000000 0.000000
0.326806 0.475541 2.330620 0.000000 0.000000 0.000000
0.370143 0.601984 2.363871 0.000000 0.000000 0.000000
0.564238 0.623385 2.553503 0.000000 0.000000 0.000000
0.517617 0.392089 2.350148 0.000000 0.000000 0.000000
0.542568 0.614385 2.526244 0.000000 0.000000 0.000000
0.582917 0.440425 2.402901 0.000000 0.000000 0.000000
0.604037 0.466321 2.427084 0.000000 0.000000 0.000000
0.514171 0.387560 2.343933 0.000000 0.000000 0.000000
0.497701 0.394367 2.357954 0.000000 0.000000 0.000000
0.361123 0.398286 2.355707 0.000000 0.000000 0.000000
0.392030 0.395431 2.355043 0.000000 0.000000 0.000000
0.415509 0.639138 2.398495 0.000000 0.000000 0.000000
0.605604 0.572783 2.464425 0.000000 0.000000 0.000000
0.573748 0.612718 2.527876 0.000000 0.000000 0.000000
0.330812 0.492419 2.332484 0.000000 0.000000 0.000000
0.412569 0.619483 2.408720 0.000000 0.000000 0.000000
0.412441 0.608504 2.409495 0.000000 0.000000 0.000000
0.329852 0.410696 2.371531 0.000000 0.000000 0.000000
0.560594 0.628080 2.556960 0.000000 0.000000 0.000000
0.501199 0.650939 2.542373 0.000000 0.000000 0.000000
0.514749 0.391379 2.349981 0.000000 0.000000 0.000000
0.589396 0.440247 2.405146 0.000000 0.000000 0.000000
0.591918 0.474734 2.419400 0.000000 0.000000 0.000000
0.576734 0.416741 2.381893 0.000000 0.000000 0.000000
0.551232 0.611435 2.520029 0.000000 0.000000 0.000000
0.555559 0.519709 2.415809 0.000000 0.000000 0.000000
0.370278 0.398764 2.357843 0.000000 0.000000 0.000000
0.326132 0.463259 2.336166 0.000000 0.000000 0.000000
0.602515 0.567050 2.455531 0.000000 0.000000 0.000000
0.608085 0.533007 2.435602 0.000000 0.000000 0.000000
0.584049 0.450680 2.410749 0.000000 0.000000 0.000000
0.381482 0.436119 2.373351 0.000000 0.000000 0.000000
0.344380 0.559232 2.331450 0.000000 0.000000 0.000000
0.365633 0.404085 2.359263 0.000000 0.000000 0.000000
0.415119 0.598539 2.403388 0.000000 0.000000 0.000000
0.397341 0.620743 2.391251 0.000000 0.000000 0.000000
0.494838 0.382929 2.342934 0.000000 0.000000 0.000000
0.376325 0.400452 2.359302 0.000000 0.000000 0.000000
0.385875 0.389596 2.351642 0.000000 0.000000 0.000000
0.385875 0.595031 2.382272 0.000000 0.000000 0.000000
0.571999 0.427930 2.391058 0.000000 0.000000 0.000000
0.388074 0.392757 2.352728 0.000000 0.000000 0.000000
0.523826 0.617072 2.530678 0.000000 0.000000 0.000000
0.495995 0.416345 2.380251 0.000000 0.000000 0.000000
0.398966 0.403878 2.361208 0.000000 0.000000 0.000000
0.607354 0.516071 2.432291 0.000000 0.000000 0.000000
0.541478 0.396683 2.352957 0.000000 0.000000 0.000000
0.603078 0.524038 2.436743 0.000000 0.000000 0.000000
0.326574 0.438662 2.346960 0.000000 0.000000 0.000000
0.324509 0.471354 2.329195 0.000000 0.000000 0.000000
0.602682 0.484740 2.422002 0.000000 0.000000 0.000000
0.598440 0.519989 2.427481 0.000000 0.000000 0.000000
0.370085 0.595600 2.367733 0.000000 0.000000 0.000000
0.430919 0.466988 2.386493 0.000000 0.000000 0.000000
0.477575 0.379951 2.340087 0.000000 0.000000 0.000000
0.563393 0.406363 2.360301 0.000000 0.000000 0.000000
0.340218 0.509216 2.347480 0.000000 0.000000 0.000000
0.556025 0.400557 2.354142 0.000000 0.000000 0.000000
0.403256 0.626838 2.394266 0.000000 0.000000 0.000000
0.327035 0.430887 2.356343 0.000000 0.000000 0.000000
0.343183 0.546290 2.326916 0.000000 0.000000 0.000000
0.327526 0.466936 2.335879 0.000000 0.000000 0.000000
0.324913 0.470362 2.335564 0.000000 0.000000 0.000000
0.604138 0.479696 2.426519 0.000000 0.000000 0.000000
0.323497 0.478176 2.343817 0.000000 0.000000 0.000000
0.381185 0.602589 2.377077 0.000000 0.000000 0.000000
0.484347 0.469299 2.394814 0.000000 0.000000 0.000000
0.400918 0.628701 2.388807 0.000000 0.000000 0.000000
0.399857 0.630905 2.388628 0.000000 0.000000 0.000000
0.408952 0.595027 2.404672 0.000000 0.000000 0.000000
0.351962 0.555742 2.361187 0.000000 0.000000 0.000000
0.325666 0.452251 2.345309 0.000000 0.000000 0.000000
0.365421 0.593244 2.362534 0.000000 0.000000 0.000000
0.325583 0.446830 2.343529 0.000000 0.000000 0.000000
0.324407 0.452244 2.338039 0.000000 0.000000 0.000000
0.389734 0.497439 2.393117 0.000000 0.000000 0.000000
0.514721 0.633150 2.542115 0.000000 0.000000 0.000000
0.324936 0.461301 2.346898 0.000000 0.000000 0.000000
0.342213 0.551247 2.337752 0.000000 0.000000 0.000000
0.457029 0.459729 2.394879 0.000000 0.000000 0.000000
0.455967 0.503965 2.405656 0.000000 0.000000 0.000000
0.406821 0.608806 2.398499 0.000000 0.000000 0.000000
0.407701 0.634715 2.393651 0.000000 0.000000 0.000000
0.337495 0.509009 2.342766 0.000000 0.000000 0.000000
0.496441 0.652552 2.536489 0.000000 0.000000 0.000000
0.600742 0.537465 2.433747 0.000000 0.000000 0.000000
0.325157 0.446971 2.342490 0.000000 0.000000 0.000000
0.325368 0.446341 2.342541 0.000000 0.000000 0.000000
0.388343 0.512845 2.393554 0.000000 0.000000 0.000000
0.506937 0.651931 2.561770 0.000000 0.000000 0.000000
0.324296 0.456702 2.332482 0.000000 0.000000 0.000000
0.401314 0.639307 2.388045 0.000000 0.000000 0.000000
0.467655 0.409552 2.359913 0.000000 0.000000 0.000000
0.414054 0.380234 2.339112 0.000000 0.000000 0.000000
0.475948 0.405820 2.364723 0.000000 0.000000 0.000000
0.467115 0.407391 2.351672 0.000000 0.000000 0.000000
0.605598 0.534655 2.439915 0.000000 0.000000 0.000000
0.399567 0.638417 2.384200 0.000000 0.000000 0.000000
0.588965 0.434355 2.400817 0.000000 0.000000 0.000000
0.512241 0.647205 2.560749 0.000000 0.000000 0.000000
0.323392 0.449233 2.337978 0.000000 0.000000 0.000000
0.489495 0.663264 2.537502 0.000000 0.000000 0.000000
0.514413 0.649492 2.570677 0.000000 0.000000 0.000000
0.404866 0.385791 2.347672 0.000000 0.000000 0.000000
0.491382 0.666142 2.502441 0.000000 0.000000 0.000000
0.341744 0.549375 2.336611 0.000000 0.000000 0.000000
0.538563 0.425551 2.377568 0.000000 0.000000 0.000000
0.556290 0.551792 2.441047 0.000000 0.000000 0.000000
0.412386 0.642908 2.395638 0.000000 0.000000 0.000000
0.411119 0.377856 2.339783 0.000000 0.000000 0.000000
0.479963 0.396892 2.345082 0.000000 0.000000 0.000000
0.466473 0.396839 2.349437 0.000000 0.000000 0.000000
0.333216 0.504568 2.324837 0.000000 0.000000 0.000000
0.585244 0.607243 2.514216 0.000000 0.000000 0.000000
0.566331 0.541351 2.435311 0.000000 0.000000 0.000000
0.547900 0.600004 2.504034 0.000000 0.000000 0.000000
0.487147 0.665674 2.460464 0.000000 0.000000 0.000000
0.572477 0.607893 2.514685 0.000000 0.000000 0.000000
0.379799 0.394821 2.354626 0.000000 0.000000 0.000000
0.492825 0.517535 2.414128 0.000000 0.000000 0.000000
0.588492 0.607035 2.513080 0.000000 0.000000 0.000000
0.559567 0.598779 2.498615 0.000000 0.000000 0.000000
0.591731 0.544428 2.437536 0.000000 0.000000 0.000000
0.518243 0.396200 2.353567 0.000000 0.000000 0.000000
0.555998 0.612496 2.524468 0.000000 0.000000 0.000000
0.552802 0.596435 2.494388 0.000000 0.000000 0.000000
0.489082 0.662516 2.470556 0.000000 0.000000 0.000000
0.577135 0.616412 2.530476 0.000000 0.000000 0.000000
0.492265 0.381531 2.341510 0.000000 0.000000 0.000000
0.334041 0.440603 2.359153 0.000000 0.000000 0.000000
0.580730 0.462517 2.410112 0.000000 0.000000 0.000000
0.508388 0.527805 2.418259 0.000000 0.000000 0.000000
0.578683 0.543696 2.433873 0.000000 0.000000 0.000000
0.586909 0.489763 2.417559 0.000000 0.000000 0.000000
0.580405 0.455414 2.407233 0.000000 0.000000 0.000000
0.546481 0.493959 2.404161 0.000000 0.000000 0.000000
0.563218 0.493365 2.412529 0.000000 0.000000 0.000000
0.568924 0.461007 2.412405 0.000000 0.000000 0.000000
0.549833 0.459254 2.396102 0.000000 0.000000 0.000000
0.570148 0.452384 2.403551 0.000000 0.000000 0.000000
0.427022 0.620218 2.421771 0.000000 0.000000 0.000000
0.568994 0.558335 2.449729 0.000000 0.000000 0.000000
0.409120 0.486268 2.397235 0.000000 0.000000 0.000000
0.552513 0.616343 2.544159 0.000000 0.000000 0.000000
0.569384 0.470341 2.407593 0.000000 0.000000 0.000000
0.466343 0.400504 2.351566 0.000000 0.000000 0.000000
0.497542 0.619311 2.492312 0.000000 0.000000 0.000000
0.589537 0.625317 2.522211 0.000000 0.000000 0.000000
0.567347 0.613308 2.524990 0.000000 0.000000 0.000000
0.570073 0.461359 2.407500 0.000000 0.000000 0.000000
0.531101 0.554012 2.440467 0.000000 0.000000 0.000000
0.577165 0.549928 2.436345 0.000000 0.000000 0.000000
0.584594 0.494357 2.418771 0.000000 0.000000 0.000000
0.558836 0.510583 2.412993 0.000000 0.000000 0.000000
0.554372 0.502688 2.410474 0.000000 0.000000 0.000000
0.558822 0.507285 2.414509 0.000000 0.000000 0.000000
0.561202 0.447702 2.404197 0.000000 0.000000 0.000000
0.582116 0.450725 2.409008 0.000000 0.000000 0.000000
0.595912 0.485712 2.420142 0.000000 0.000000 0.000000
0.465305 0.659081 2.435094 0.000000 0.000000 0.000000
0.536114 0.555702 2.443755 0.000000 0.000000 0.000000
0.394130 0.473062 2.388921 0.000000 0.000000 0.000000
0.567392 0.622129 2.558052 0.000000 0.000000 0.000000
0.566464 0.475351 2.405266 0.000000 0.000000 0.000000
0.465226 0.403713 2.353552 0.000000 0.000000 0.000000
0.434824 0.381957 2.343182 0.000000 0.000000 0.000000
0.386957 0.613424 2.381811 0.000000 0.000000 0.000000
0.496961 0.656996 2.540815 0.000000 0.000000 0.000000
0.494174 0.646838 2.506824 0.000000 0.000000 0.000000
0.491814 0.667060 2.525830 0.000000 0.000000 0.000000
0.493390 0.661648 2.547701 0.000000 0.000000 0.000000
0.580306 0.415083 2.381529 0.000000 0.000000 0.000000
0.417720 0.402459 2.358393 0.000000 0.000000 0.000000
0.494553 0.551021 2.446452 0.000000 0.000000 0.000000
0.337946 0.530085 2.336416 0.000000 0.000000 0.000000
0.463015 0.519043 2.418888 0.000000 0.000000 0.000000
0.582722 0.529909 2.433189 0.000000 0.000000 0.000000
0.546945 0.402474 2.357064 0.000000 0.000000 0.000000
0.431832 0.380208 2.338818 0.000000 0.000000 0.000000
0.525567 0.604374 2.514236 0.000000 0.000000 0.000000
0.432528 0.381959 2.343158 0.000000 0.000000 0.000000
0.494082 0.595914 2.473046 0.000000 0.000000 0.000000
0.504577 0.633706 2.527292 0.000000 0.000000 0.000000
0.499887 0.627840 2.510837 0.000000 0.000000 0.000000
0.496003 0.655154 2.538690 0.000000 0.000000 0.000000
0.495918 0.647458 2.529507 0.000000 0.000000 0.000000
0.486573 0.547303 2.440349 0.000000 0.000000 0.000000
0.436002 0.504021 2.406825 0.000000 0.000000 0.000000
0.597810 0.524141 2.428280 0.000000 0.000000 0.000000
0.433217 0.381866 2.342201 0.000000 0.000000 0.000000
0.444937 0.378443 2.340228 0.000000 0.000000 0.000000
0.515831 0.603396 2.505690 0.000000 0.000000 0.000000
0.437828 0.379800 2.340785 0.000000 0.000000 0.000000
0.492103 0.622077 2.479972 0.000000 0.000000 0.000000
0.399788 0.497425 2.394933 0.000000 0.000000 0.000000
0.344094 0.545964 2.347408 0.000000 0.000000 0.000000
0.383384 0.605544 2.379775 0.000000 0.000000 0.000000
0.492139 0.659426 2.531069 0.000000 0.000000 0.000000
0.405002 0.390859 2.349537 0.000000 0.000000 0.000000
0.339965 0.535015 2.346694 0.000000 0.000000 0.000000
0.346330 0.562397 2.337093 0.000000 0.000000 0.000000
0.604927 0.476256 2.424104 0.000000 0.000000 0.000000
0.339923 0.536175 2.331742 0.000000 0.000000 0.000000
0.347408 0.559166 2.348594 0.000000 0.000000 0.000000
0.338279 0.534841 2.339324 0.000000 0.000000 0.000000
0.369229 0.395535 2.354111 0.000000 0.000000 0.000000
0.345784 0.550400 2.352947 0.000000 0.000000 0.000000
0.471926 0.379020 2.339404 0.000000 0.000000 0.000000
0.465241 0.387106 2.343076 0.000000 0.000000 0.000000
0.493006 0.655430 2.537231 0.000000 0.000000 0.000000
0.359106 0.406673 2.360135 0.000000 0.000000 0.000000
0.372597 0.393255 2.353014 0.000000 0.000000 0.000000
0.448856 0.523710 2.422166 0.000000 0.000000 0.000000
0.492895 0.662199 2.508428 0.000000 0.000000 0.000000
0.429690 0.641111 2.411005 0.000000 0.000000 0.000000
0.390290 0.616942 2.382677 0.000000 0.000000 0.000000
0.503327 0.452013 2.389934 0.000000 0.000000 0.000000
0.525857 0.491535 2.402250 0.000000 0.000000 0.000000
0.575414 0.417301 2.382022 0.000000 0.000000 0.000000
0.375778 0.398118 2.355650 0.000000 0.000000 0.000000
0.491126 0.650753 2.497203 0.000000 0.000000 0.000000
0.420710 0.650978 2.401363 0.000000 0.000000 0.000000
0.532952 0.437738 2.389246 0.000000 0.000000 0.000000
0.568842 0.619687 2.543705 0.000000 0.000000 0.000000
0.371676 0.405238 2.358260 0.000000 0.000000 0.000000
0.440114 0.657951 2.412605 0.000000 0.000000 0.000000
0.486704 0.384329 2.342629 0.000000 0.000000 0.000000
0.344954 0.404744 2.361283 0.000000 0.000000 0.000000
0.593749 0.511792 2.426269 0.000000 0.000000 0.000000
0.441468 0.379168 2.337341 0.000000 0.000000 0.000000
0.394827 0.629171 2.384590 0.000000 0.000000 0.000000
0.323259 0.453688 2.335860 0.000000 0.000000 0.000000
0.427607 0.377260 2.338487 0.000000 0.000000 0.000000
0.363670 0.395511 2.355533 0.000000 0.000000 0.000000
0.501019 0.385322 2.344842 0.000000 0.000000 0.000000
0.450725 0.657749 2.424205 0.000000 0.000000 0.000000
0.416301 0.382290 2.341816 0.000000 0.000000 0.000000
0.463796 0.629595 2.441617 0.000000 0.000000 0.000000
0.379000 0.394710 2.354949 0.000000 0.000000 0.000000
0.586343 0.532868 2.430925 0.000000 0.000000 0.000000
0.368198 0.450287 2.377549 0.000000 0.000000 0.000000
0.602779 0.506761 2.425682 0.000000 0.000000 0.000000
0.344354 0.443574 2.367286 0.000000 0.000000 0.000000
0.354365 0.407792 2.362847 0.000000 0.000000 0.000000
0.452361 0.663193 2.420505 0.000000 0.000000 0.000000
0.420054 0.381918 2.344021 0.000000 0.000000 0.000000
0.373306 0.395838 2.354577 0.000000 0.000000 0.000000
0.437807 0.632789 2.422405 0.000000 0.000000 0.000000
0.500902 0.389610 2.352348 0.000000 0.000000 0.000000
0.409179 0.381532 2.341512 0.000000 0.000000 0.000000
0.413647 0.640258 2.398410 0.000000 0.000000 0.000000
0.471461 0.628623 2.447198 0.000000 0.000000 0.000000
0.363135 0.409397 2.363269 0.000000 0.000000 0.000000
0.357593 0.451422 2.370836 0.000000 0.000000 0.000000
0.446422 0.658077 2.421817 0.000000 0.000000 0.000000
0.366502 0.403392 2.359255 0.000000 0.000000 0.000000
0.473665 0.659446 2.443232 0.000000 0.000000 0.000000
0.463650 0.395088 2.344887 0.000000 0.000000 0.000000
0.357864 0.580282 2.357949 0.000000 0.000000 0.000000
0.424470 0.388837 2.352557 0.000000 0.000000 0.000000
0.469019 0.380868 2.340106 0.000000 0.000000 0.000000
0.438873 0.548783 2.427307 0.000000 0.000000 0.000000
0.463627 0.569737 2.444299 0.000000 0.000000 0.000000
0.583137 0.590191 2.485151 0.000000 0.000000 0.000000
0.588916 0.600792 2.500738 0.000000 0.000000 0.000000
0.454161 0.540726 2.431142 0.000000 0.000000 0.000000
0.445597 0.541986 2.429628 0.000000 0.000000 0.000000
0.497431 0.423845 2.376827 0.000000 0.000000 0.000000
0.349413 0.572313 2.346063 0.000000 0.000000 0.000000
0.438153 0.566465 2.428041 0.000000 0.000000 0.000000
0.575075 0.591135 2.487070 0.000000 0.000000 0.000000
0.587191 0.593104 2.496005 0.000000 0.000000 0.000000
0.435553 0.531395 2.419507 0.000000 0.000000 0.000000
0.452678 0.513497 2.414157 0.000000 0.000000 0.000000
0.488306 0.575628 2.461409 0.000000 0.000000 0.000000
0.346779 0.567043 2.336110 0.000000 0.000000 0.000000
0.566592 0.504405 2.413343 0.000000 0.000000 0.000000
0.476738 0.390931 2.352604 0.000000 0.000000 0.000000
0.334219 0.507438 2.336853 0.000000 0.000000 0.000000
0.329073 0.465957 2.343725 0.000000 0.000000 0.000000
0.608168 0.494605 2.429659 0.000000 0.000000 0.000000
0.409209 0.384317 2.344732 0.000000 0.000000 0.000000
0.607545 0.513578 2.429256 0.000000 0.000000 0.000000
0.582516 0.527224 2.428373 0.000000 0.000000 0.000000
0.579986 0.419269 2.384601 0.000000 0.000000 0.000000
0.345138 0.555179 2.343496 0.000000 0.000000 0.000000
0.441526 0.378881 2.340622 0.000000 0.000000 0.000000
0.596699 0.521274 2.430364 0.000000 0.000000 0.000000
0.592525 0.502348 2.427113 0.000000 0.000000 0.000000
0.329308 0.436243 2.357876 0.000000 0.000000 0.000000
0.415881 0.636962 2.399698 0.000000 0.000000 0.000000
0.335079 0.516981 2.332242 0.000000 0.000000 0.000000
0.608015 0.507800 2.431328 0.000000 0.000000 0.000000
0.354502 0.581932 2.345676 0.000000 0.000000 0.000000
0.484582 0.414925 2.375551 0.000000 0.000000 0.000000
0.376095 0.390028 2.351317 0.000000 0.000000 0.000000
0.598920 0.510592 2.432548 0.000000 0.000000 0.000000
0.548031 0.397621 2.353074 0.000000 0.000000 0.000000
0.329245 0.488868 2.322065 0.000000 0.000000 0.000000
0.415258 0.641870 2.396796 0.000000 0.000000 0.000000
0.523603 0.394082 2.350962 0.000000 0.000000 0.000000
0.510693 0.406258 2.367690 0.000000 0.000000 0.000000
0.562867 0.629185 2.563066 0.000000 0.000000 0.000000
0.602397 0.526330 2.433552 0.000000 0.000000 0.000000
0.323232 0.460833 2.332750 0.000000 0.000000 0.000000
0.439904 0.377786 2.338516 0.000000 0.000000 0.000000
0.527570 0.392447 2.349678 0.000000 0.000000 0.000000
0.597247 0.505801 2.425876 0.000000 0.000000 0.000000
0.577394 0.542618 2.436135 0.000000 0.000000 0.000000
0.586725 0.515057 2.424370 0.000000 0.000000 0.000000
0.603280 0.536205 2.436497 0.000000 0.000000 0.000000
0.426105 0.379052 2.338099 0.000000 0.000000 0.000000
0.523034 0.392238 2.349036 0.000000 0.000000 0.000000
0.594996 0.518046 2.430093 0.000000 0.000000 0.000000
0.564006 0.622363 2.537331 0.000000 0.000000 0.000000
0.608783 0.538628 2.438996 0.000000 0.000000 0.000000
0.434598 0.653527 2.410355 0.000000 0.000000 0.000000
0.355982 0.582113 2.343736 0.000000 0.000000 0.000000
0.513202 0.486313 2.396189 0.000000 0.000000 0.000000
0.605205 0.542326 2.438203 0.000000 0.000000 0.000000
0.524505 0.394985 2.354111 0.000000 0.000000 0.000000
0.569650 0.504015 2.417721 0.000000 0.000000 0.000000
0.596905 0.535146 2.434655 0.000000 0.000000 0.000000
0.592363 0.549904 2.440526 0.000000 0.000000 0.000000
0.570348 0.628631 2.557507 0.000000 0.000000 0.000000
0.584842 0.621424 2.538666 0.000000 0.000000 0.000000
0.606220 0.516546 2.434099 0.000000 0.000000 0.000000
0.562121 0.619775 2.553009 0.000000 0.000000 0.000000
0.414202 0.643612 2.396585 0.000000 0.000000 0.000000
0.609072 0.503367 2.431245 0.000000 0.000000 0.000000
0.417797 0.644682 2.399256 0.000000 0.000000 0.000000
0.332467 0.478799 2.344139 0.000000 0.000000 0.000000
0.329803 0.477706 2.341527 0.000000 0.000000 0.000000
0.324602 0.472373 2.327835 0.000000 0.000000 0.000000
0.323133 0.452937 2.335407 0.000000 0.000000 0.000000
0.325567 0.470433 2.328977 0.000000 0.000000 0.000000
0.586462 0.510496 2.422163 0.000000 0.000000 0.000000
0.608803 0.547561 2.443179 0.000000 0.000000 0.000000
0.348485 0.514044 2.359824 0.000000 0.000000 0.000000
0.327705 0.471988 2.343671 0.000000 0.000000 0.000000
0.460644 0.667622 2.430110 0.000000 0.000000 0.000000
0.326638 0.453957 2.350735 0.000000 0.000000 0.000000
0.447310 0.660148 2.418723 0.000000 0.000000 0.000000
0.354209 0.411124 2.362649 0.000000 0.000000 0.000000
0.422713 0.411164 2.362457 0.000000 0.000000 0.000000
0.341478 0.546217 2.328104 0.000000 0.000000 0.000000
0.334801 0.509606 2.324752 0.000000 0.000000 0.000000
0.460134 0.656484 2.431436 0.000000 0.000000 0.000000
0.330815 0.493927 2.337071 0.000000 0.000000 0.000000
0.421529 0.399942 2.358692 0.000000 0.000000 0.000000
0.353838 0.404359 2.359333 0.000000 0.000000 0.000000
0.324510 0.455283 2.337659 0.000000 0.000000 0.000000
0.428756 0.411819 2.363128 0.000000 0.000000 0.000000
0.423412 0.403482 2.364174 0.000000 0.000000 0.000000
0.421923 0.651360 2.399984 0.000000 0.000000 0.000000
0.471010 0.380648 2.346255 0.000000 0.000000 0.000000
0.489566 0.665340 2.488919 0.000000 0.000000 0.000000
0.451910 0.377048 2.338197 0.000000 0.000000 0.000000
0.430459 0.405084 2.360609 0.000000 0.000000 0.000000
0.322103 0.462526 2.334475 0.000000 0.000000 0.000000
0.602396 0.501846 2.426451 0.000000 0.000000 0.000000
0.483292 0.672063 2.444342 0.000000 0.000000 0.000000
0.432114 0.378817 2.337838 0.000000 0.000000 0.000000
0.390152 0.616868 2.384042 0.000000 0.000000 0.000000
0.607715 0.491396 2.427856 0.000000 0.000000 0.000000
0.576726 0.616823 2.553675 0.000000 0.000000 0.000000
0.465301 0.647357 2.440589 0.000000 0.000000 0.000000
0.477059 0.662055 2.450691 0.000000 0.000000 0.000000
0.463035 0.647983 2.437903 0.000000 0.000000 0.000000
0.413615 0.380678 2.341621 0.000000 0.000000 0.000000
0.474603 0.637499 2.451497 0.000000 0.000000 0.000000
0.370038 0.400914 2.358024 0.000000 0.000000 0.000000
0.569057 0.620650 2.549253 0.000000 0.000000 0.000000
0.445822 0.661595 2.418786 0.000000 0.000000 0.000000
0.595587 0.593135 2.489733 0.000000 0.000000 0.000000
0.588938 0.511819 2.429949 0.000000 0.000000 0.000000
0.467884 0.471623 2.391471 0.000000 0.000000 0.000000
0.471502 0.662467 2.441162 0.000000 0.000000 0.000000
0.478874 0.646693 2.460805 0.000000 0.000000 0.000000
0.470945 0.653952 2.443647 0.000000 0.000000 0.000000
0.475534 0.658181 2.446846 0.000000 0.000000 0.000000
0.592446 0.501688 2.422252 0.000000 0.000000 0.000000
0.333198 0.409376 2.365391 0.000000 0.000000 0.000000
0.571707 0.618241 2.528389 0.000000 0.000000 0.000000
0.395206 0.617990 2.388422 0.000000 0.000000 0.000000
0.607885 0.484044 2.423486 0.000000 0.000000 0.000000
0.463904 0.385011 2.345274 0.000000 0.000000 0.000000
0.327472 0.482111 2.326188 0.000000 0.000000 0.000000
0.377726 0.601773 2.374047 0.000000 0.000000 0.000000
0.395722 0.623386 2.389244 0.000000 0.000000 0.000000
0.366007 0.409857 2.363248 0.000000 0.000000 0.000000
0.408521 0.632814 2.397218 0.000000 0.000000 0.000000
0.504452 0.385991 2.345791 0.000000 0.000000 0.000000
0.457873 0.665734 2.425841 0.000000 0.000000 0.000000
0.568723 0.614464 2.536119 0.000000 0.000000 0.000000
0.379432 0.403752 2.362819 0.000000 0.000000 0.000000
0.517310 0.389843 2.346305 0.000000 0.000000 0.000000
0.455903 0.659041 2.425288 0.000000 0.000000 0.000000
0.576390 0.618781 2.544167 0.000000 0.000000 0.000000
0.562553 0.623305 2.567280 0.000000 0.000000 0.000000
0.324760 0.475191 2.322856 0.000000 0.000000 0.000000
0.476576 0.381464 2.340397 0.000000 0.000000 0.000000
0.547244 0.408469 2.364478 0.000000 0.000000 0.000000
0.376816 0.609233 2.372266 0.000000 0.000000 0.000000
0.353682 0.575104 2.348226 0.000000 0.000000 0.000000
0.602604 0.561237 2.447668 0.000000 0.000000 0.000000
0.449316 0.419959 2.370789 0.000000 0.000000 0.000000
0.340977 0.545060 2.323987 0.000000 0.000000 0.000000
0.456374 0.379991 2.340815 0.000000 0.000000 0.000000
0.430178 0.402633 2.359789 0.000000 0.000000 0.000000
0.400290 0.383768 2.344993 0.000000 0.000000 0.000000
0.534309 0.646003 2.579911 0.000000 0.000000 0.000000
0.465190 0.398661 2.348414 0.000000 0.000000 0.000000
0.531185 0.650181 2.586867 0.000000 0.000000 0.000000
0.530604 0.646131 2.579504 0.000000 0.000000 0.000000
0.328727 0.487285 2.327319 0.000000 0.000000 0.000000
0.542746 0.646575 2.585676 0.000000 0.000000 0.000000
0.419836 0.380689 2.339748 0.000000 0.000000 0.000000
0.520697 0.652725 2.582369 0.000000 0.000000 0.000000
0.523111 0.646702 2.577854 0.000000 0.000000 0.000000
0.347779 0.463288 2.362191 0.000000 0.000000 0.000000
0.343066 0.482738 2.359422 0.000000 0.000000 0.000000
0.539704 0.644595 2.586536 0.000000 0.000000 0.000000
0.516692 0.644812 2.565458 0.000000 0.000000 0.000000
0.341770 0.461651 2.361776 0.000000 0.000000 0.000000
0.540587 0.643712 2.581886 0.000000 0.000000 0.000000
0.326511 0.474312 2.347416 0.000000 0.000000 0.000000
0.324563 0.441081 2.345125 0.000000 0.000000 0.000000
0.477841 0.649868 2.453123 0.000000 0.000000 0.000000
0.523232 0.642042 2.565762 0.000000 0.000000 0.000000
0.510018 0.654797 2.573868 0.000000 0.000000 0.000000
0.329330 0.462629 2.350221 0.000000 0.000000 0.000000
0.338878 0.473612 2.357311 0.000000 0.000000 0.000000
0.340526 0.466846 2.359104 0.000000 0.000000 0.000000
0.513303 0.654319 2.576214 0.000000 0.000000 0.000000
0.513198 0.656744 2.583273 0.000000 0.000000 0.000000
0.344599 0.544641 2.326960 0.000000 0.000000 0.000000
0.370138 0.464202 2.374483 0.000000 0.000000 0.000000
0.324553 0.467679 2.344924 0.000000 0.000000 0.000000
0.323800 0.424619 2.352669 0.000000 0.000000 0.000000
0.336191 0.522002 2.324011 0.000000 0.000000 0.000000
0.467218 0.382861 2.342516 0.000000 0.000000 0.000000
0.377053 0.608536 2.373889 0.000000 0.000000 0.000000
0.524365 0.647891 2.583872 0.000000 0.000000 0.000000
0.535255 0.649441 2.584615 0.000000 0.000000 0.000000
0.555252 0.404611 2.359269 0.000000 0.000000 0.000000
0.329820 0.487768 2.326955 0.000000 0.000000 0.000000
0.379323 0.387970 2.348824 0.000000 0.000000 0.000000
0.384120 0.388346 2.348538 0.000000 0.000000 0.000000
0.440420 0.378676 2.339643 0.000000 0.000000 0.000000
0.537458 0.396977 2.353565 0.000000 0.000000 0.000000
0.529031 0.398062 2.356155 0.000000 0.000000 0.000000
0.584932 0.602124 2.502096 0.000000 0.000000 0.000000
0.378303 0.591976 2.367886 0.000000 0.000000 0.000000
0.514379 0.388539 2.346121 0.000000 0.000000 0.000000
0.413559 0.643007 2.395608 0.000000 0.000000 0.000000
0.398592 0.637111 2.386502 0.000000 0.000000 0.000000
0.387171 0.597144 2.385287 0.000000 0.000000 0.000000
0.593536 0.605895 2.511356 0.000000 0.000000 0.000000
0.591403 0.603391 2.506621 0.000000 0.000000 0.000000
0.605633 0.585024 2.480777 0.000000 0.000000 0.000000
0.592287 0.593607 2.485333 0.000000 0.000000 0.000000
0.601042 0.596982 2.495332 0.000000 0.000000 0.000000
0.374048 0.599929 2.372264 0.000000 0.000000 0.000000
0.377355 0.589450 2.377236 0.000000 0.000000 0.000000
0.378054 0.603460 2.369100 0.000000 0.000000 0.000000
0.396215 0.631659 2.386021 0.000000 0.000000 0.000000
0.597929 0.600583 2.500758 0.000000 0.000000 0.000000
0.591810 0.616835 2.525979 0.000000 0.000000 0.000000
0.527277 0.391032 2.347914 0.000000 0.000000 0.000000
0.436757 0.379741 2.339901 0.000000 0.000000 0.000000
0.373616 0.393626 2.352982 0.000000 0.000000 0.000000
0.323667 0.466263 2.335618 0.000000 0.000000 0.000000
0.604886 0.590233 2.485923 0.000000 0.000000 0.000000
0.428526 0.383001 2.345510 0.000000 0.000000 0.000000
0.470506 0.379888 2.341146 0.000000 0.000000 0.000000
0.600291 0.496263 2.420012 0.000000 0.000000 0.000000
0.322247 0.469643 2.327687 0.000000 0.000000 0.000000
0.439284 0.378195 2.337497 0.000000 0.000000 0.000000
0.459565 0.649991 2.438609 0.000000 0.000000 0.000000
0.607186 0.491438 2.424510 0.000000 0.000000 0.000000
0.600139 0.578601 2.472334 0.000000 0.000000 0.000000
0.595857 0.426101 2.402231 0.000000 0.000000 0.000000
0.415093 0.649367 2.397471 0.000000 0.000000 0.000000
0.423537 0.638228 2.415957 0.000000 0.000000 0.000000
0.443847 0.660394 2.420708 0.000000 0.000000 0.000000
0.433432 0.416985 2.370556 0.000000 0.000000 0.000000
0.492638 0.381152 2.342168 0.000000 0.000000 0.000000
0.474425 0.383654 2.345477 0.000000 0.000000 0.000000
0.461260 0.379339 2.339396 0.000000 0.000000 0.000000
0.471897 0.388145 2.347003 0.000000 0.000000 0.000000
0.465997 0.378712 2.339636 0.000000 0.000000 0.000000
0.468928 0.385234 2.341971 0.000000 0.000000 0.000000
0.388452 0.385965 2.348523 0.000000 0.000000 0.000000
0.466619 0.384244 2.342461 0.000000 0.000000 0.000000
0.463137 0.380164 2.342622 0.000000 0.000000 0.000000
0.463161 0.385376 2.339807 0.000000 0.000000 0.000000
0.464102 0.384453 2.344277 0.000000 0.000000 0.000000
0.385191 0.387433 2.349214 0.000000 0.000000 0.000000
0.478450 0.381201 2.339703 0.000000 0.000000 0.000000
0.460814 0.381110 2.342260 0.000000 0.000000 0.000000
0.338368 0.416793 2.368670 0.000000 0.000000 0.000000
0.507050 0.647487 2.552078 0.000000 0.000000 0.000000
0.543017 0.611977 2.521824 0.000000 0.000000 0.000000
0.514229 0.637175 2.549373 0.000000 0.000000 0.000000
0.484350 0.382645 2.341852 0.000000 0.000000 0.000000
0.601709 0.592214 2.488880 0.000000 0.000000 0.000000
0.465846 0.383498 2.341708 0.000000 0.000000 0.000000
0.464645 0.389067 2.345700 0.000000 0.000000 0.000000
0.450784 0.376015 2.336960 0.000000 0.000000 0.000000
0.469014 0.400336 2.351676 0.000000 0.000000 0.000000
0.373449 0.402666 2.359212 0.000000 0.000000 0.000000
0.492215 0.664118 2.515982 0.000000 0.000000 0.000000
0.471815 0.379572 2.339578 0.000000 0.000000 0.000000
0.475916 0.383389 2.342695 0.000000 0.000000 0.000000
0.501015 0.651641 2.550311 0.000000 0.000000 0.000000
0.546306 0.614411 2.525645 0.000000 0.000000 0.000000
0.512346 0.642618 2.554787 0.000000 0.000000 0.000000
0.465156 0.392725 2.348011 0.000000 0.000000 0.000000
0.469325 0.385775 2.343379 0.000000 0.000000 0.000000
0.468335 0.393700 2.342889 0.000000 0.000000 0.000000
0.552086 0.404301 2.359808 0.000000 0.000000 0.000000
0.468542 0.392799 2.346508 0.000000 0.000000 0.000000
0.359014 0.401172 2.359921 0.000000 0.000000 0.000000
0.500290 0.642334 2.530511 0.000000 0.000000 0.000000
0.482249 0.380180 2.339615 0.000000 0.000000 0.000000
0.473366 0.383906 2.344695 0.000000 0.000000 0.000000
0.427750 0.399403 2.360563 0.000000 0.000000 0.000000
0.419867 0.382898 2.342684 0.000000 0.000000 0.000000
0.530553 0.396961 2.353129 0.000000 0.000000 0.000000
0.464817 0.658073 2.436679 0.000000 0.000000 0.000000
0.464270 0.377410 2.338657 0.000000 0.000000 0.000000
0.464798 0.383791 2.342209 0.000000 0.000000 0.000000
0.455519 0.665143 2.418902 0.000000 0.000000 0.000000
0.465477 0.667205 2.433035 0.000000 0.000000 0.000000
0.428198 0.400707 2.360405 0.000000 0.000000 0.000000
0.477197 0.670905 2.446609 0.000000 0.000000 0.000000
0.352487 0.399559 2.358826 0.000000 0.000000 0.000000
0.474205 0.665848 2.444759 0.000000 0.000000 0.000000
0.448794 0.667297 2.423272 0.000000 0.000000 0.000000
0.456315 0.663222 2.425160 0.000000 0.000000 0.000000
