ply
format ascii 1.0
comment VCGLIB generated
obj_info Generated by SPFormer!
element vertex 853
property float x
property float y
property float z
property float nx
property float ny
property float nz
end_header
-0.749967 -0.616764 0.666941 0.000000 0.000000 0.000000
-0.775715 -0.801576 0.795576 0.000000 0.000000 0.000000
-1.037012 -0.598963 0.952702 0.000000 0.000000 0.000000
-0.780607 -0.692275 0.723066 0.000000 0.000000 0.000000
-0.690513 -0.803757 0.708578 0.000000 0.000000 0.000000
-0.961870 -0.659664 0.862242 0.000000 0.000000 0.000000
-0.640096 -0.764494 0.674192 0.000000 0.000000 0.000000
-0.645622 -0.775187 0.678363 0.000000 0.000000 0.000000
-0.695764 -0.804404 0.711256 0.000000 0.000000 0.000000
-1.049274 -0.595361 0.956671 0.000000 0.000000 0.000000
-0.783998 -0.807507 0.800674 0.000000 0.000000 0.000000
-1.053894 -0.595405 0.963178 0.000000 0.000000 0.000000
-0.775399 -0.808331 0.795507 0.000000 0.000000 0.000000
-0.773020 -0.598587 0.681793 0.000000 0.000000 0.000000
-0.770908 -0.698042 0.719479 0.000000 0.000000 0.000000
-0.821756 -0.585017 0.716606 0.000000 0.000000 0.000000
-0.625670 -0.756640 0.658708 0.000000 0.000000 0.000000
-0.691748 -0.804465 0.709740 0.000000 0.000000 0.000000
-0.868627 -0.649028 0.757876 0.000000 0.000000 0.000000
-0.970151 -0.659323 0.871975 0.000000 0.000000 0.000000
-1.050653 -0.592396 0.955323 0.000000 0.000000 0.000000
-0.650831 -0.764580 0.685247 0.000000 0.000000 0.000000
-0.640931 -0.768772 0.675293 0.000000 0.000000 0.000000
-0.781208 -0.815115 0.786513 0.000000 0.000000 0.000000
-0.859009 -0.769018 0.844339 0.000000 0.000000 0.000000
-0.848695 -0.597917 0.742092 0.000000 0.000000 0.000000
-0.831862 -0.605722 0.741455 0.000000 0.000000 0.000000
-0.645455 -0.713476 0.641653 0.000000 0.000000 0.000000
-1.062935 -0.605353 0.984917 0.000000 0.000000 0.000000
-0.885118 -0.760731 0.861043 0.000000 0.000000 0.000000
-0.776133 -0.810127 0.795612 0.000000 0.000000 0.000000
-0.851128 -0.588546 0.741113 0.000000 0.000000 0.000000
-0.771438 -0.811805 0.791496 0.000000 0.000000 0.000000
-0.847547 -0.621293 0.736394 0.000000 0.000000 0.000000
-0.767330 -0.815628 0.786020 0.000000 0.000000 0.000000
-0.975053 -0.691031 0.921762 0.000000 0.000000 0.000000
-0.644660 -0.713280 0.650523 0.000000 0.000000 0.000000
-0.986981 -0.579612 0.859058 0.000000 0.000000 0.000000
-0.858199 -0.624539 0.745178 0.000000 0.000000 0.000000
-0.771764 -0.808213 0.793796 0.000000 0.000000 0.000000
-0.858613 -0.739582 0.835643 0.000000 0.000000 0.000000
-0.954868 -0.717405 0.905089 0.000000 0.000000 0.000000
-0.897919 -0.597672 0.790081 0.000000 0.000000 0.000000
-0.648934 -0.707306 0.644136 0.000000 0.000000 0.000000
-0.892834 -0.589611 0.775616 0.000000 0.000000 0.000000
-0.821054 -0.760035 0.787906 0.000000 0.000000 0.000000
-0.729042 -0.817926 0.744137 0.000000 0.000000 0.000000
-0.829844 -0.587021 0.727731 0.000000 0.000000 0.000000
-1.030283 -0.626623 0.955215 0.000000 0.000000 0.000000
-0.876891 -0.764835 0.853892 0.000000 0.000000 0.000000
-0.672561 -0.802118 0.698161 0.000000 0.000000 0.000000
-0.776931 -0.813164 0.794566 0.000000 0.000000 0.000000
-0.769486 -0.817685 0.780782 0.000000 0.000000 0.000000
-0.788451 -0.592774 0.692260 0.000000 0.000000 0.000000
-0.806515 -0.801268 0.811741 0.000000 0.000000 0.000000
-0.664461 -0.784344 0.692531 0.000000 0.000000 0.000000
-0.666250 -0.795024 0.693037 0.000000 0.000000 0.000000
-0.900705 -0.580740 0.774706 0.000000 0.000000 0.000000
-0.647922 -0.781641 0.676317 0.000000 0.000000 0.000000
-0.910752 -0.584805 0.797425 0.000000 0.000000 0.000000
-0.871757 -0.666368 0.787358 0.000000 0.000000 0.000000
-0.949768 -0.707530 0.906929 0.000000 0.000000 0.000000
-0.743085 -0.770650 0.733081 0.000000 0.000000 0.000000
-0.770249 -0.607786 0.686211 0.000000 0.000000 0.000000
-1.019889 -0.636945 0.951853 0.000000 0.000000 0.000000
-0.979656 -0.691066 0.927033 0.000000 0.000000 0.000000
-0.790937 -0.603503 0.706599 0.000000 0.000000 0.000000
-0.813420 -0.583967 0.709699 0.000000 0.000000 0.000000
-1.049659 -0.587802 0.947488 0.000000 0.000000 0.000000
-0.895095 -0.588951 0.781902 0.000000 0.000000 0.000000
-0.955794 -0.712011 0.907491 0.000000 0.000000 0.000000
-1.036264 -0.639643 0.964379 0.000000 0.000000 0.000000
-0.751493 -0.744701 0.724080 0.000000 0.000000 0.000000
-1.042266 -0.624646 0.973429 0.000000 0.000000 0.000000
-0.674020 -0.676899 0.644328 0.000000 0.000000 0.000000
-0.805986 -0.594626 0.716845 0.000000 0.000000 0.000000
-0.807356 -0.582718 0.706786 0.000000 0.000000 0.000000
-1.024090 -0.652228 0.955762 0.000000 0.000000 0.000000
-0.649633 -0.784262 0.675645 0.000000 0.000000 0.000000
-0.937164 -0.580740 0.818927 0.000000 0.000000 0.000000
-0.936949 -0.576855 0.817915 0.000000 0.000000 0.000000
-0.812469 -0.599470 0.721678 0.000000 0.000000 0.000000
-0.631842 -0.768355 0.664008 0.000000 0.000000 0.000000
-0.926028 -0.579274 0.801233 0.000000 0.000000 0.000000
-0.639121 -0.767827 0.675121 0.000000 0.000000 0.000000
-0.951098 -0.597128 0.830852 0.000000 0.000000 0.000000
-0.953088 -0.576625 0.832456 0.000000 0.000000 0.000000
-0.932403 -0.584117 0.811696 0.000000 0.000000 0.000000
-0.938649 -0.698796 0.904127 0.000000 0.000000 0.000000
-0.934011 -0.586372 0.816609 0.000000 0.000000 0.000000
-0.937862 -0.575713 0.819587 0.000000 0.000000 0.000000
-0.881264 -0.588207 0.762066 0.000000 0.000000 0.000000
-0.647210 -0.769522 0.685300 0.000000 0.000000 0.000000
-0.919820 -0.651467 0.800331 0.000000 0.000000 0.000000
-0.634486 -0.713411 0.647085 0.000000 0.000000 0.000000
-0.936107 -0.586575 0.818682 0.000000 0.000000 0.000000
-0.958413 -0.584926 0.835251 0.000000 0.000000 0.000000
-0.939651 -0.579662 0.818585 0.000000 0.000000 0.000000
-0.934395 -0.576590 0.811856 0.000000 0.000000 0.000000
-0.878868 -0.586877 0.760104 0.000000 0.000000 0.000000
-0.675744 -0.670337 0.645015 0.000000 0.000000 0.000000
-0.643198 -0.710473 0.649133 0.000000 0.000000 0.000000
-0.953182 -0.577950 0.839427 0.000000 0.000000 0.000000
-0.624085 -0.747478 0.659324 0.000000 0.000000 0.000000
-0.738471 -0.625005 0.668713 0.000000 0.000000 0.000000
-0.782064 -0.811752 0.799098 0.000000 0.000000 0.000000
-0.965789 -0.576770 0.835079 0.000000 0.000000 0.000000
-0.675200 -0.801382 0.697515 0.000000 0.000000 0.000000
-0.624369 -0.744663 0.660835 0.000000 0.000000 0.000000
-0.964873 -0.578753 0.837924 0.000000 0.000000 0.000000
-0.717442 -0.641014 0.661833 0.000000 0.000000 0.000000
-0.635991 -0.774180 0.665548 0.000000 0.000000 0.000000
-0.745794 -0.594128 0.658194 0.000000 0.000000 0.000000
-0.619436 -0.754577 0.659099 0.000000 0.000000 0.000000
-0.953473 -0.584095 0.828463 0.000000 0.000000 0.000000
-0.953992 -0.590907 0.834223 0.000000 0.000000 0.000000
-0.953349 -0.637549 0.842201 0.000000 0.000000 0.000000
-0.956245 -0.607833 0.846043 0.000000 0.000000 0.000000
-0.946437 -0.598041 0.828557 0.000000 0.000000 0.000000
-0.743317 -0.621459 0.668102 0.000000 0.000000 0.000000
-0.725318 -0.639188 0.663651 0.000000 0.000000 0.000000
-0.730411 -0.626000 0.659916 0.000000 0.000000 0.000000
-0.955039 -0.624052 0.834229 0.000000 0.000000 0.000000
-0.961163 -0.573694 0.829850 0.000000 0.000000 0.000000
-0.826676 -0.777625 0.825619 0.000000 0.000000 0.000000
-0.689903 -0.669822 0.655431 0.000000 0.000000 0.000000
-0.773662 -0.596645 0.684557 0.000000 0.000000 0.000000
-0.944850 -0.689202 0.902874 0.000000 0.000000 0.000000
-0.941262 -0.596062 0.826267 0.000000 0.000000 0.000000
-0.954346 -0.618708 0.835684 0.000000 0.000000 0.000000
-0.961781 -0.583356 0.836706 0.000000 0.000000 0.000000
-0.951246 -0.650514 0.851959 0.000000 0.000000 0.000000
-0.750024 -0.621708 0.676863 0.000000 0.000000 0.000000
-0.950177 -0.608783 0.833829 0.000000 0.000000 0.000000
-0.949968 -0.579853 0.827810 0.000000 0.000000 0.000000
-0.713075 -0.643195 0.658075 0.000000 0.000000 0.000000
-0.973620 -0.576936 0.841542 0.000000 0.000000 0.000000
-0.708378 -0.653225 0.659035 0.000000 0.000000 0.000000
-0.830224 -0.583317 0.724174 0.000000 0.000000 0.000000
-0.704432 -0.655853 0.660814 0.000000 0.000000 0.000000
-0.713409 -0.648142 0.655257 0.000000 0.000000 0.000000
-0.815298 -0.771241 0.811041 0.000000 0.000000 0.000000
-0.742447 -0.611182 0.660726 0.000000 0.000000 0.000000
-0.946432 -0.611900 0.833390 0.000000 0.000000 0.000000
-0.852969 -0.714063 0.802339 0.000000 0.000000 0.000000
-0.719851 -0.637241 0.660963 0.000000 0.000000 0.000000
-0.732016 -0.621404 0.659886 0.000000 0.000000 0.000000
-0.990736 -0.580437 0.872280 0.000000 0.000000 0.000000
-0.988959 -0.582583 0.867771 0.000000 0.000000 0.000000
-0.981322 -0.585393 0.860191 0.000000 0.000000 0.000000
-0.930275 -0.579111 0.810666 0.000000 0.000000 0.000000
-0.682964 -0.661919 0.640700 0.000000 0.000000 0.000000
-0.837973 -0.715242 0.793102 0.000000 0.000000 0.000000
-0.977978 -0.584501 0.867210 0.000000 0.000000 0.000000
-0.974757 -0.587356 0.867210 0.000000 0.000000 0.000000
-0.969076 -0.588227 0.861202 0.000000 0.000000 0.000000
-0.935135 -0.576283 0.813657 0.000000 0.000000 0.000000
-0.761984 -0.818376 0.780187 0.000000 0.000000 0.000000
-0.630807 -0.753179 0.665289 0.000000 0.000000 0.000000
-0.647092 -0.780775 0.672361 0.000000 0.000000 0.000000
-0.729970 -0.623756 0.659683 0.000000 0.000000 0.000000
-0.633898 -0.754463 0.661129 0.000000 0.000000 0.000000
-0.946709 -0.575748 0.827147 0.000000 0.000000 0.000000
-0.657176 -0.696348 0.642621 0.000000 0.000000 0.000000
-0.760661 -0.812744 0.779774 0.000000 0.000000 0.000000
-0.841015 -0.591912 0.736058 0.000000 0.000000 0.000000
-0.753892 -0.814695 0.772097 0.000000 0.000000 0.000000
-0.670024 -0.674363 0.642012 0.000000 0.000000 0.000000
-0.765476 -0.814155 0.784106 0.000000 0.000000 0.000000
-0.753105 -0.812560 0.771353 0.000000 0.000000 0.000000
-0.760677 -0.817063 0.781240 0.000000 0.000000 0.000000
-0.989608 -0.592016 0.871449 0.000000 0.000000 0.000000
-0.760505 -0.821338 0.777034 0.000000 0.000000 0.000000
-0.646362 -0.702576 0.634816 0.000000 0.000000 0.000000
-0.997921 -0.574962 0.873953 0.000000 0.000000 0.000000
-1.007834 -0.577575 0.883819 0.000000 0.000000 0.000000
-0.640301 -0.771050 0.671114 0.000000 0.000000 0.000000
-0.768350 -0.818207 0.786340 0.000000 0.000000 0.000000
-0.902707 -0.753258 0.875988 0.000000 0.000000 0.000000
-0.701293 -0.664133 0.662811 0.000000 0.000000 0.000000
-0.844843 -0.761016 0.832416 0.000000 0.000000 0.000000
-0.755317 -0.815733 0.776433 0.000000 0.000000 0.000000
-0.676719 -0.687839 0.658157 0.000000 0.000000 0.000000
-0.761127 -0.808071 0.783577 0.000000 0.000000 0.000000
-0.853430 -0.767657 0.839567 0.000000 0.000000 0.000000
-0.711690 -0.640221 0.655362 0.000000 0.000000 0.000000
-0.712143 -0.643504 0.657639 0.000000 0.000000 0.000000
-0.928637 -0.577651 0.808806 0.000000 0.000000 0.000000
-0.814799 -0.595778 0.718821 0.000000 0.000000 0.000000
-0.712261 -0.635843 0.649407 0.000000 0.000000 0.000000
-0.811428 -0.793188 0.816602 0.000000 0.000000 0.000000
-0.740554 -0.813766 0.759912 0.000000 0.000000 0.000000
-0.641814 -0.710925 0.640871 0.000000 0.000000 0.000000
-0.765658 -0.816834 0.783206 0.000000 0.000000 0.000000
-1.052113 -0.587251 0.949204 0.000000 0.000000 0.000000
-0.761734 -0.591904 0.670099 0.000000 0.000000 0.000000
-0.757184 -0.624695 0.682838 0.000000 0.000000 0.000000
-1.059117 -0.590090 0.961781 0.000000 0.000000 0.000000
-0.776206 -0.595468 0.685902 0.000000 0.000000 0.000000
-1.007685 -0.585422 0.895524 0.000000 0.000000 0.000000
-0.943920 -0.578143 0.821025 0.000000 0.000000 0.000000
-0.998956 -0.591332 0.889447 0.000000 0.000000 0.000000
-1.008403 -0.587566 0.895015 0.000000 0.000000 0.000000
-0.806094 -0.587897 0.703061 0.000000 0.000000 0.000000
-1.012489 -0.578323 0.895684 0.000000 0.000000 0.000000
-0.698077 -0.645078 0.644710 0.000000 0.000000 0.000000
-0.635425 -0.770908 0.665572 0.000000 0.000000 0.000000
-0.766087 -0.601877 0.679680 0.000000 0.000000 0.000000
-0.766284 -0.813224 0.785380 0.000000 0.000000 0.000000
-0.813043 -0.712105 0.805442 0.000000 0.000000 0.000000
-0.768279 -0.606733 0.684517 0.000000 0.000000 0.000000
-1.014303 -0.579055 0.899617 0.000000 0.000000 0.000000
-1.013133 -0.582628 0.902329 0.000000 0.000000 0.000000
-0.771707 -0.605049 0.688203 0.000000 0.000000 0.000000
-0.774580 -0.598683 0.684933 0.000000 0.000000 0.000000
-0.650231 -0.784603 0.674417 0.000000 0.000000 0.000000
-0.830394 -0.718531 0.819084 0.000000 0.000000 0.000000
-0.769799 -0.606816 0.685083 0.000000 0.000000 0.000000
-1.021929 -0.580180 0.909540 0.000000 0.000000 0.000000
-1.007183 -0.581876 0.890460 0.000000 0.000000 0.000000
-1.010295 -0.578167 0.887441 0.000000 0.000000 0.000000
-0.774364 -0.602064 0.685177 0.000000 0.000000 0.000000
-0.774462 -0.599490 0.684627 0.000000 0.000000 0.000000
-0.800096 -0.719374 0.773929 0.000000 0.000000 0.000000
-0.862260 -0.762854 0.844642 0.000000 0.000000 0.000000
-0.652461 -0.694013 0.638247 0.000000 0.000000 0.000000
-0.797741 -0.801759 0.810072 0.000000 0.000000 0.000000
-1.034598 -0.626955 0.967287 0.000000 0.000000 0.000000
-0.998061 -0.681307 0.941016 0.000000 0.000000 0.000000
-0.958022 -0.599543 0.844549 0.000000 0.000000 0.000000
-0.826762 -0.593262 0.729472 0.000000 0.000000 0.000000
-1.028950 -0.581207 0.913970 0.000000 0.000000 0.000000
-0.744575 -0.611049 0.662534 0.000000 0.000000 0.000000
-0.991355 -0.680162 0.931640 0.000000 0.000000 0.000000
-1.026044 -0.577191 0.912692 0.000000 0.000000 0.000000
-0.635427 -0.770683 0.664123 0.000000 0.000000 0.000000
-0.635126 -0.766870 0.669359 0.000000 0.000000 0.000000
-0.643638 -0.702905 0.640306 0.000000 0.000000 0.000000
-1.026228 -0.590277 0.920816 0.000000 0.000000 0.000000
-1.058067 -0.617520 0.980014 0.000000 0.000000 0.000000
-1.044858 -0.622642 0.968608 0.000000 0.000000 0.000000
-1.027994 -0.577628 0.912022 0.000000 0.000000 0.000000
-0.922378 -0.572227 0.800279 0.000000 0.000000 0.000000
-1.071437 -0.600986 0.971330 0.000000 0.000000 0.000000
-1.048930 -0.623194 0.975481 0.000000 0.000000 0.000000
-1.044374 -0.586880 0.940809 0.000000 0.000000 0.000000
-0.942039 -0.618104 0.826946 0.000000 0.000000 0.000000
-1.052031 -0.620454 0.972755 0.000000 0.000000 0.000000
-1.018347 -0.594540 0.909566 0.000000 0.000000 0.000000
-1.039731 -0.636272 0.965996 0.000000 0.000000 0.000000
-1.025982 -0.578124 0.911135 0.000000 0.000000 0.000000
-1.019294 -0.582275 0.911840 0.000000 0.000000 0.000000
-1.032616 -0.580476 0.928128 0.000000 0.000000 0.000000
-1.041888 -0.628482 0.968804 0.000000 0.000000 0.000000
-0.952135 -0.609323 0.834954 0.000000 0.000000 0.000000
-0.754311 -0.603230 0.662727 0.000000 0.000000 0.000000
-0.876314 -0.769036 0.852070 0.000000 0.000000 0.000000
-0.651855 -0.698725 0.656835 0.000000 0.000000 0.000000
-0.904310 -0.750436 0.876932 0.000000 0.000000 0.000000
-0.943490 -0.718038 0.909333 0.000000 0.000000 0.000000
-0.868148 -0.758232 0.842041 0.000000 0.000000 0.000000
-0.640430 -0.728810 0.655304 0.000000 0.000000 0.000000
-0.812686 -0.783930 0.820765 0.000000 0.000000 0.000000
-0.643956 -0.711042 0.653845 0.000000 0.000000 0.000000
-0.869434 -0.752186 0.848007 0.000000 0.000000 0.000000
-0.758767 -0.819359 0.781134 0.000000 0.000000 0.000000
-0.786380 -0.809386 0.802155 0.000000 0.000000 0.000000
-0.806909 -0.782293 0.807959 0.000000 0.000000 0.000000
-0.882070 -0.764597 0.857245 0.000000 0.000000 0.000000
-0.620613 -0.750210 0.656919 0.000000 0.000000 0.000000
-0.634925 -0.771981 0.666664 0.000000 0.000000 0.000000
-0.927680 -0.576942 0.808242 0.000000 0.000000 0.000000
-0.645440 -0.782184 0.673416 0.000000 0.000000 0.000000
-0.709671 -0.635083 0.650173 0.000000 0.000000 0.000000
-0.889998 -0.714202 0.841175 0.000000 0.000000 0.000000
-0.680417 -0.711747 0.674100 0.000000 0.000000 0.000000
-1.012458 -0.604473 0.903049 0.000000 0.000000 0.000000
-0.916523 -0.699257 0.881494 0.000000 0.000000 0.000000
-0.843042 -0.616100 0.750786 0.000000 0.000000 0.000000
-0.999281 -0.620668 0.905960 0.000000 0.000000 0.000000
-1.032977 -0.593859 0.935164 0.000000 0.000000 0.000000
-0.817011 -0.626157 0.728278 0.000000 0.000000 0.000000
-0.813476 -0.642407 0.721769 0.000000 0.000000 0.000000
-0.841508 -0.734594 0.780913 0.000000 0.000000 0.000000
-0.759412 -0.632342 0.688427 0.000000 0.000000 0.000000
-0.768331 -0.683018 0.710981 0.000000 0.000000 0.000000
-0.670654 -0.695175 0.657169 0.000000 0.000000 0.000000
-0.708904 -0.726583 0.693858 0.000000 0.000000 0.000000
-0.872904 -0.755442 0.848430 0.000000 0.000000 0.000000
-0.679638 -0.711837 0.669560 0.000000 0.000000 0.000000
-0.857721 -0.628587 0.749680 0.000000 0.000000 0.000000
-0.714726 -0.641446 0.659838 0.000000 0.000000 0.000000
-0.845126 -0.667615 0.769449 0.000000 0.000000 0.000000
-0.663132 -0.745570 0.678085 0.000000 0.000000 0.000000
-0.830232 -0.617294 0.727204 0.000000 0.000000 0.000000
-0.793846 -0.637246 0.709497 0.000000 0.000000 0.000000
-0.930149 -0.583680 0.813705 0.000000 0.000000 0.000000
-0.778771 -0.688412 0.717203 0.000000 0.000000 0.000000
-0.764258 -0.689968 0.712235 0.000000 0.000000 0.000000
-0.912006 -0.655302 0.792889 0.000000 0.000000 0.000000
-0.673743 -0.723430 0.672363 0.000000 0.000000 0.000000
-0.724973 -0.646037 0.669822 0.000000 0.000000 0.000000
-0.707708 -0.740353 0.699200 0.000000 0.000000 0.000000
-0.656712 -0.726848 0.666140 0.000000 0.000000 0.000000
-0.865679 -0.766445 0.845499 0.000000 0.000000 0.000000
-0.683846 -0.739008 0.682772 0.000000 0.000000 0.000000
-0.662764 -0.699003 0.654653 0.000000 0.000000 0.000000
-0.646778 -0.779213 0.676762 0.000000 0.000000 0.000000
-1.001707 -0.608889 0.887016 0.000000 0.000000 0.000000
-0.869611 -0.755631 0.841170 0.000000 0.000000 0.000000
-0.846212 -0.617055 0.750690 0.000000 0.000000 0.000000
-1.011797 -0.606508 0.902436 0.000000 0.000000 0.000000
-0.831872 -0.631748 0.740582 0.000000 0.000000 0.000000
-0.816537 -0.643902 0.725258 0.000000 0.000000 0.000000
-0.772643 -0.618911 0.694253 0.000000 0.000000 0.000000
-0.769319 -0.676766 0.707737 0.000000 0.000000 0.000000
-0.676258 -0.692958 0.659476 0.000000 0.000000 0.000000
-0.690351 -0.727265 0.687481 0.000000 0.000000 0.000000
-0.691361 -0.723561 0.693756 0.000000 0.000000 0.000000
-0.754792 -0.688096 0.697613 0.000000 0.000000 0.000000
-0.877219 -0.751198 0.847592 0.000000 0.000000 0.000000
-0.678562 -0.735350 0.684471 0.000000 0.000000 0.000000
-0.658921 -0.707265 0.656300 0.000000 0.000000 0.000000
-0.857191 -0.597222 0.746934 0.000000 0.000000 0.000000
-0.670295 -0.716772 0.668137 0.000000 0.000000 0.000000
-0.822152 -0.642445 0.727262 0.000000 0.000000 0.000000
-0.825589 -0.603359 0.726312 0.000000 0.000000 0.000000
-0.675272 -0.701593 0.662420 0.000000 0.000000 0.000000
-0.666298 -0.735888 0.680915 0.000000 0.000000 0.000000
-0.855296 -0.593616 0.748221 0.000000 0.000000 0.000000
-0.741831 -0.665340 0.689378 0.000000 0.000000 0.000000
-0.755874 -0.656859 0.690774 0.000000 0.000000 0.000000
-0.906643 -0.659133 0.790187 0.000000 0.000000 0.000000
-0.706666 -0.707414 0.682022 0.000000 0.000000 0.000000
-0.755556 -0.627202 0.683434 0.000000 0.000000 0.000000
-0.689954 -0.725960 0.684133 0.000000 0.000000 0.000000
-0.727362 -0.757020 0.709950 0.000000 0.000000 0.000000
-0.873727 -0.760783 0.852101 0.000000 0.000000 0.000000
-0.686419 -0.686180 0.663572 0.000000 0.000000 0.000000
-0.707120 -0.730908 0.695069 0.000000 0.000000 0.000000
-0.627938 -0.748637 0.662732 0.000000 0.000000 0.000000
-0.631741 -0.737553 0.662749 0.000000 0.000000 0.000000
-0.663006 -0.694176 0.653040 0.000000 0.000000 0.000000
-0.640466 -0.764281 0.673754 0.000000 0.000000 0.000000
-0.787501 -0.799861 0.804793 0.000000 0.000000 0.000000
-0.786704 -0.592952 0.690654 0.000000 0.000000 0.000000
-1.064631 -0.603328 0.982180 0.000000 0.000000 0.000000
-0.887600 -0.750682 0.864500 0.000000 0.000000 0.000000
-0.811975 -0.794185 0.818905 0.000000 0.000000 0.000000
-0.832647 -0.782491 0.829835 0.000000 0.000000 0.000000
-0.887055 -0.588045 0.768181 0.000000 0.000000 0.000000
-0.673375 -0.700240 0.669328 0.000000 0.000000 0.000000
-0.677167 -0.803442 0.699352 0.000000 0.000000 0.000000
-0.701769 -0.639904 0.649052 0.000000 0.000000 0.000000
-0.868844 -0.770026 0.847331 0.000000 0.000000 0.000000
-0.874842 -0.757318 0.852255 0.000000 0.000000 0.000000
-0.987222 -0.586382 0.868947 0.000000 0.000000 0.000000
-0.947396 -0.574655 0.822853 0.000000 0.000000 0.000000
-0.654164 -0.703974 0.659862 0.000000 0.000000 0.000000
-0.634489 -0.757451 0.667376 0.000000 0.000000 0.000000
-0.755847 -0.601862 0.668374 0.000000 0.000000 0.000000
-0.724758 -0.632453 0.660118 0.000000 0.000000 0.000000
-0.625757 -0.727609 0.648036 0.000000 0.000000 0.000000
-0.627944 -0.727170 0.654271 0.000000 0.000000 0.000000
-0.759253 -0.604004 0.668971 0.000000 0.000000 0.000000
-0.769692 -0.607972 0.685756 0.000000 0.000000 0.000000
-0.776446 -0.600951 0.687751 0.000000 0.000000 0.000000
-0.776263 -0.600134 0.685113 0.000000 0.000000 0.000000
-0.854260 -0.753466 0.813326 0.000000 0.000000 0.000000
-0.894884 -0.600713 0.777211 0.000000 0.000000 0.000000
-0.899122 -0.605822 0.787711 0.000000 0.000000 0.000000
-0.771785 -0.605632 0.685121 0.000000 0.000000 0.000000
-0.904989 -0.732615 0.862222 0.000000 0.000000 0.000000
-0.889293 -0.640456 0.771798 0.000000 0.000000 0.000000
-0.982610 -0.648229 0.898333 0.000000 0.000000 0.000000
-0.863290 -0.678806 0.778757 0.000000 0.000000 0.000000
-0.906230 -0.660776 0.804375 0.000000 0.000000 0.000000
-0.713336 -0.748280 0.703457 0.000000 0.000000 0.000000
-0.733000 -0.794279 0.751861 0.000000 0.000000 0.000000
-0.706103 -0.764787 0.713402 0.000000 0.000000 0.000000
-0.739897 -0.725591 0.715796 0.000000 0.000000 0.000000
-0.693947 -0.698256 0.675260 0.000000 0.000000 0.000000
-0.882621 -0.586959 0.767914 0.000000 0.000000 0.000000
-0.904145 -0.639019 0.771774 0.000000 0.000000 0.000000
-0.669568 -0.749852 0.682181 0.000000 0.000000 0.000000
-0.763989 -0.611826 0.683216 0.000000 0.000000 0.000000
-0.676626 -0.714557 0.669590 0.000000 0.000000 0.000000
-0.745907 -0.682878 0.690993 0.000000 0.000000 0.000000
-0.735086 -0.644563 0.676703 0.000000 0.000000 0.000000
-0.956062 -0.711709 0.913196 0.000000 0.000000 0.000000
-0.660820 -0.717873 0.666222 0.000000 0.000000 0.000000
-0.771432 -0.719584 0.725691 0.000000 0.000000 0.000000
-0.787021 -0.594444 0.692534 0.000000 0.000000 0.000000
-0.755709 -0.617634 0.676206 0.000000 0.000000 0.000000
-0.747663 -0.649036 0.686748 0.000000 0.000000 0.000000
-0.818598 -0.676091 0.741886 0.000000 0.000000 0.000000
-0.953148 -0.577020 0.829993 0.000000 0.000000 0.000000
-0.817156 -0.698552 0.734202 0.000000 0.000000 0.000000
-0.862202 -0.584016 0.744319 0.000000 0.000000 0.000000
-1.037715 -0.622988 0.963138 0.000000 0.000000 0.000000
-0.834342 -0.756793 0.806958 0.000000 0.000000 0.000000
-0.990061 -0.579344 0.867215 0.000000 0.000000 0.000000
-1.020285 -0.649236 0.950930 0.000000 0.000000 0.000000
-1.044430 -0.585946 0.932283 0.000000 0.000000 0.000000
-0.771626 -0.602242 0.684385 0.000000 0.000000 0.000000
-0.768143 -0.607773 0.684564 0.000000 0.000000 0.000000
-0.763669 -0.605402 0.678758 0.000000 0.000000 0.000000
-0.772555 -0.604459 0.685830 0.000000 0.000000 0.000000
-0.977461 -0.582968 0.851961 0.000000 0.000000 0.000000
-0.739464 -0.717172 0.706766 0.000000 0.000000 0.000000
-0.692838 -0.733178 0.690758 0.000000 0.000000 0.000000
-0.680630 -0.683462 0.658832 0.000000 0.000000 0.000000
-0.652914 -0.737895 0.673180 0.000000 0.000000 0.000000
-0.681385 -0.715502 0.672633 0.000000 0.000000 0.000000
-0.874431 -0.750300 0.831358 0.000000 0.000000 0.000000
-0.894868 -0.608316 0.772881 0.000000 0.000000 0.000000
-0.889289 -0.602631 0.779161 0.000000 0.000000 0.000000
-0.771655 -0.607912 0.686837 0.000000 0.000000 0.000000
-0.894219 -0.733541 0.850255 0.000000 0.000000 0.000000
-0.885625 -0.633088 0.768281 0.000000 0.000000 0.000000
-0.997352 -0.648529 0.903724 0.000000 0.000000 0.000000
-0.880480 -0.671076 0.792102 0.000000 0.000000 0.000000
-0.916600 -0.656657 0.797556 0.000000 0.000000 0.000000
-0.712488 -0.754795 0.701819 0.000000 0.000000 0.000000
-0.790097 -0.783664 0.799360 0.000000 0.000000 0.000000
-0.708453 -0.773252 0.720721 0.000000 0.000000 0.000000
-0.734216 -0.727064 0.708540 0.000000 0.000000 0.000000
-0.683444 -0.706105 0.672142 0.000000 0.000000 0.000000
-0.877818 -0.588804 0.761856 0.000000 0.000000 0.000000
-0.850946 -0.646621 0.745875 0.000000 0.000000 0.000000
-0.666900 -0.752356 0.682455 0.000000 0.000000 0.000000
-0.764534 -0.611825 0.683187 0.000000 0.000000 0.000000
-0.710300 -0.712133 0.686396 0.000000 0.000000 0.000000
-0.968333 -0.703406 0.920495 0.000000 0.000000 0.000000
-0.776301 -0.715636 0.729516 0.000000 0.000000 0.000000
-1.046468 -0.592180 0.950486 0.000000 0.000000 0.000000
-0.782547 -0.597307 0.692005 0.000000 0.000000 0.000000
-0.732834 -0.785015 0.744408 0.000000 0.000000 0.000000
-0.753213 -0.628249 0.682684 0.000000 0.000000 0.000000
-0.824695 -0.687817 0.737136 0.000000 0.000000 0.000000
-1.027652 -0.619443 0.961783 0.000000 0.000000 0.000000
-1.060412 -0.587866 0.957852 0.000000 0.000000 0.000000
-0.769720 -0.758990 0.751340 0.000000 0.000000 0.000000
-0.989988 -0.580046 0.862750 0.000000 0.000000 0.000000
-1.028341 -0.639982 0.960631 0.000000 0.000000 0.000000
-0.777547 -0.600828 0.688284 0.000000 0.000000 0.000000
-0.775862 -0.599325 0.684548 0.000000 0.000000 0.000000
-0.764501 -0.608468 0.680333 0.000000 0.000000 0.000000
-0.757331 -0.617453 0.677512 0.000000 0.000000 0.000000
-0.978078 -0.580352 0.850922 0.000000 0.000000 0.000000
-0.675552 -0.723306 0.673380 0.000000 0.000000 0.000000
-0.686361 -0.724465 0.684212 0.000000 0.000000 0.000000
-0.679927 -0.746868 0.694179 0.000000 0.000000 0.000000
-0.644983 -0.719272 0.655890 0.000000 0.000000 0.000000
-0.662449 -0.740253 0.678548 0.000000 0.000000 0.000000
-0.685574 -0.716498 0.674972 0.000000 0.000000 0.000000
-0.727839 -0.816855 0.743947 0.000000 0.000000 0.000000
-0.780309 -0.591095 0.683178 0.000000 0.000000 0.000000
-0.841936 -0.772852 0.836545 0.000000 0.000000 0.000000
-0.934295 -0.578144 0.810068 0.000000 0.000000 0.000000
-0.644496 -0.776536 0.675240 0.000000 0.000000 0.000000
-0.722027 -0.808234 0.741513 0.000000 0.000000 0.000000
-0.988391 -0.578631 0.857850 0.000000 0.000000 0.000000
-0.724541 -0.795019 0.740703 0.000000 0.000000 0.000000
-0.856234 -0.762106 0.837664 0.000000 0.000000 0.000000
-0.708627 -0.744055 0.720959 0.000000 0.000000 0.000000
-0.826345 -0.702987 0.755477 0.000000 0.000000 0.000000
-0.835776 -0.770862 0.829873 0.000000 0.000000 0.000000
-0.893833 -0.630690 0.771626 0.000000 0.000000 0.000000
-0.895926 -0.642528 0.783251 0.000000 0.000000 0.000000
-0.709207 -0.807687 0.727883 0.000000 0.000000 0.000000
-0.850961 -0.704919 0.779566 0.000000 0.000000 0.000000
-0.883890 -0.670782 0.783683 0.000000 0.000000 0.000000
-0.684294 -0.703548 0.669105 0.000000 0.000000 0.000000
-0.969982 -0.695194 0.920050 0.000000 0.000000 0.000000
-0.849785 -0.668852 0.756536 0.000000 0.000000 0.000000
-0.881919 -0.677533 0.788676 0.000000 0.000000 0.000000
-0.950773 -0.709233 0.908361 0.000000 0.000000 0.000000
-0.721392 -0.809239 0.741505 0.000000 0.000000 0.000000
-0.694680 -0.806193 0.713073 0.000000 0.000000 0.000000
-0.900192 -0.585019 0.783776 0.000000 0.000000 0.000000
-0.916367 -0.645615 0.802641 0.000000 0.000000 0.000000
-0.901610 -0.752592 0.873585 0.000000 0.000000 0.000000
-0.913238 -0.739263 0.886057 0.000000 0.000000 0.000000
-1.038821 -0.583475 0.931432 0.000000 0.000000 0.000000
-0.665429 -0.726926 0.670059 0.000000 0.000000 0.000000
-0.736592 -0.788907 0.750658 0.000000 0.000000 0.000000
-1.000835 -0.653072 0.914097 0.000000 0.000000 0.000000
-0.851969 -0.765489 0.837511 0.000000 0.000000 0.000000
-0.727727 -0.745198 0.739065 0.000000 0.000000 0.000000
-0.759855 -0.729137 0.729248 0.000000 0.000000 0.000000
-0.885455 -0.638130 0.774990 0.000000 0.000000 0.000000
-0.879598 -0.655674 0.771490 0.000000 0.000000 0.000000
-0.709369 -0.801616 0.729296 0.000000 0.000000 0.000000
-0.866339 -0.695431 0.784721 0.000000 0.000000 0.000000
-0.879746 -0.673284 0.782048 0.000000 0.000000 0.000000
-0.687012 -0.696409 0.667261 0.000000 0.000000 0.000000
-0.971822 -0.690642 0.925086 0.000000 0.000000 0.000000
-0.812014 -0.585759 0.707405 0.000000 0.000000 0.000000
-0.879186 -0.683858 0.790637 0.000000 0.000000 0.000000
-0.948806 -0.710388 0.905742 0.000000 0.000000 0.000000
-0.717681 -0.809589 0.735870 0.000000 0.000000 0.000000
-0.711244 -0.806292 0.731136 0.000000 0.000000 0.000000
-0.900191 -0.587518 0.793625 0.000000 0.000000 0.000000
-0.912366 -0.629665 0.790398 0.000000 0.000000 0.000000
-0.902020 -0.750076 0.875241 0.000000 0.000000 0.000000
-1.047329 -0.588521 0.947214 0.000000 0.000000 0.000000
-0.652449 -0.733538 0.661394 0.000000 0.000000 0.000000
-0.946907 -0.714577 0.910527 0.000000 0.000000 0.000000
-0.958739 -0.702114 0.911262 0.000000 0.000000 0.000000
-0.842070 -0.589356 0.739769 0.000000 0.000000 0.000000
-0.750953 -0.819262 0.768467 0.000000 0.000000 0.000000
-0.818903 -0.584398 0.713622 0.000000 0.000000 0.000000
-0.845186 -0.590794 0.737212 0.000000 0.000000 0.000000
-0.756771 -0.819063 0.774521 0.000000 0.000000 0.000000
-0.830395 -0.779420 0.828656 0.000000 0.000000 0.000000
-0.845616 -0.585857 0.738400 0.000000 0.000000 0.000000
-0.705838 -0.814025 0.716391 0.000000 0.000000 0.000000
-0.840191 -0.589461 0.731777 0.000000 0.000000 0.000000
-0.632783 -0.769220 0.661554 0.000000 0.000000 0.000000
-0.840660 -0.586934 0.735453 0.000000 0.000000 0.000000
-0.853013 -0.581866 0.734146 0.000000 0.000000 0.000000
-0.895470 -0.755898 0.867107 0.000000 0.000000 0.000000
-0.836502 -0.591179 0.739390 0.000000 0.000000 0.000000
-0.895206 -0.754800 0.866527 0.000000 0.000000 0.000000
-0.958422 -0.709331 0.913134 0.000000 0.000000 0.000000
-0.841064 -0.584650 0.733639 0.000000 0.000000 0.000000
-0.964307 -0.589178 0.845744 0.000000 0.000000 0.000000
-0.744619 -0.659218 0.681389 0.000000 0.000000 0.000000
-1.004079 -0.645673 0.908944 0.000000 0.000000 0.000000
-1.023889 -0.577138 0.911091 0.000000 0.000000 0.000000
-0.850382 -0.588010 0.742343 0.000000 0.000000 0.000000
-0.853932 -0.614859 0.759582 0.000000 0.000000 0.000000
-1.024428 -0.579056 0.911220 0.000000 0.000000 0.000000
-0.833930 -0.582473 0.727488 0.000000 0.000000 0.000000
-1.021877 -0.582799 0.918689 0.000000 0.000000 0.000000
-1.010347 -0.580911 0.895451 0.000000 0.000000 0.000000
-0.823799 -0.775961 0.826069 0.000000 0.000000 0.000000
-0.821954 -0.687063 0.751965 0.000000 0.000000 0.000000
-0.766035 -0.804733 0.784968 0.000000 0.000000 0.000000
-0.865812 -0.604980 0.758815 0.000000 0.000000 0.000000
-0.867202 -0.767981 0.846810 0.000000 0.000000 0.000000
-0.744997 -0.812410 0.765325 0.000000 0.000000 0.000000
-0.939679 -0.721898 0.906282 0.000000 0.000000 0.000000
-0.718211 -0.649434 0.678367 0.000000 0.000000 0.000000
-0.952242 -0.678606 0.891929 0.000000 0.000000 0.000000
-0.752882 -0.821868 0.772091 0.000000 0.000000 0.000000
-0.746059 -0.792956 0.764975 0.000000 0.000000 0.000000
-0.893217 -0.754007 0.866910 0.000000 0.000000 0.000000
-0.832377 -0.601949 0.743972 0.000000 0.000000 0.000000
-0.752952 -0.815408 0.770988 0.000000 0.000000 0.000000
-0.894128 -0.751860 0.866638 0.000000 0.000000 0.000000
-0.836982 -0.583958 0.730082 0.000000 0.000000 0.000000
-0.968740 -0.584478 0.848016 0.000000 0.000000 0.000000
-0.742528 -0.650599 0.679067 0.000000 0.000000 0.000000
-1.028103 -0.580383 0.916652 0.000000 0.000000 0.000000
-0.858214 -0.602696 0.749893 0.000000 0.000000 0.000000
-0.841035 -0.603909 0.740206 0.000000 0.000000 0.000000
-1.016788 -0.577016 0.902338 0.000000 0.000000 0.000000
-0.846633 -0.586456 0.734972 0.000000 0.000000 0.000000
-0.914553 -0.627150 0.794669 0.000000 0.000000 0.000000
-1.027210 -0.583624 0.917397 0.000000 0.000000 0.000000
-1.018921 -0.577947 0.904076 0.000000 0.000000 0.000000
-0.834451 -0.765663 0.833512 0.000000 0.000000 0.000000
-0.812228 -0.778082 0.821187 0.000000 0.000000 0.000000
-0.833144 -0.683733 0.749455 0.000000 0.000000 0.000000
-0.746813 -0.816045 0.768875 0.000000 0.000000 0.000000
-0.851897 -0.596828 0.749025 0.000000 0.000000 0.000000
-0.759535 -0.818132 0.777638 0.000000 0.000000 0.000000
-0.938290 -0.717887 0.906145 0.000000 0.000000 0.000000
-0.934372 -0.714310 0.899727 0.000000 0.000000 0.000000
-0.757199 -0.818495 0.776371 0.000000 0.000000 0.000000
-0.731643 -0.636562 0.669529 0.000000 0.000000 0.000000
-0.823424 -0.788180 0.823405 0.000000 0.000000 0.000000
-0.662619 -0.795785 0.688790 0.000000 0.000000 0.000000
-1.002206 -0.578930 0.864234 0.000000 0.000000 0.000000
-0.670161 -0.797105 0.693764 0.000000 0.000000 0.000000
-0.634435 -0.764553 0.667982 0.000000 0.000000 0.000000
-0.664474 -0.685200 0.641849 0.000000 0.000000 0.000000
-0.901003 -0.752116 0.873811 0.000000 0.000000 0.000000
-0.891024 -0.750572 0.865502 0.000000 0.000000 0.000000
-0.884621 -0.750344 0.860994 0.000000 0.000000 0.000000
-0.890128 -0.758949 0.862331 0.000000 0.000000 0.000000
-0.854012 -0.769413 0.840954 0.000000 0.000000 0.000000
-0.663491 -0.683662 0.643990 0.000000 0.000000 0.000000
-0.685638 -0.666356 0.647964 0.000000 0.000000 0.000000
-0.672407 -0.680202 0.644894 0.000000 0.000000 0.000000
-0.743663 -0.631313 0.679752 0.000000 0.000000 0.000000
-0.681934 -0.677749 0.651012 0.000000 0.000000 0.000000
-0.734463 -0.683266 0.684391 0.000000 0.000000 0.000000
-0.639656 -0.723427 0.656235 0.000000 0.000000 0.000000
-0.888969 -0.762419 0.857237 0.000000 0.000000 0.000000
-0.992147 -0.576447 0.861434 0.000000 0.000000 0.000000
-0.710472 -0.650330 0.665728 0.000000 0.000000 0.000000
-0.794824 -0.705556 0.737110 0.000000 0.000000 0.000000
-0.659711 -0.687719 0.644868 0.000000 0.000000 0.000000
-0.667195 -0.676392 0.640522 0.000000 0.000000 0.000000
-0.694166 -0.665296 0.657725 0.000000 0.000000 0.000000
-0.697427 -0.658339 0.656672 0.000000 0.000000 0.000000
-0.676877 -0.674522 0.645253 0.000000 0.000000 0.000000
-0.713395 -0.696275 0.677681 0.000000 0.000000 0.000000
-0.768851 -0.793462 0.777383 0.000000 0.000000 0.000000
-0.690195 -0.665064 0.652949 0.000000 0.000000 0.000000
-0.630698 -0.741411 0.662570 0.000000 0.000000 0.000000
-0.964241 -0.709560 0.906790 0.000000 0.000000 0.000000
-0.671078 -0.675051 0.649668 0.000000 0.000000 0.000000
-0.649023 -0.695883 0.645576 0.000000 0.000000 0.000000
-0.819993 -0.583452 0.714098 0.000000 0.000000 0.000000
-0.759933 -0.606453 0.671286 0.000000 0.000000 0.000000
-0.898550 -0.757737 0.869350 0.000000 0.000000 0.000000
-0.782440 -0.593374 0.686533 0.000000 0.000000 0.000000
-0.841293 -0.782620 0.832836 0.000000 0.000000 0.000000
-0.747224 -0.813996 0.767259 0.000000 0.000000 0.000000
-0.932107 -0.576055 0.807757 0.000000 0.000000 0.000000
-0.769430 -0.606709 0.688828 0.000000 0.000000 0.000000
-0.839763 -0.581050 0.728050 0.000000 0.000000 0.000000
-0.746746 -0.819346 0.765079 0.000000 0.000000 0.000000
-0.740917 -0.818708 0.761798 0.000000 0.000000 0.000000
-0.783527 -0.598607 0.690512 0.000000 0.000000 0.000000
-0.771760 -0.593794 0.678523 0.000000 0.000000 0.000000
-0.785752 -0.595428 0.691217 0.000000 0.000000 0.000000
-0.772784 -0.604089 0.686629 0.000000 0.000000 0.000000
-0.889769 -0.752267 0.865164 0.000000 0.000000 0.000000
-0.753560 -0.814220 0.774123 0.000000 0.000000 0.000000
-0.896632 -0.756036 0.869248 0.000000 0.000000 0.000000
-0.898110 -0.753362 0.869510 0.000000 0.000000 0.000000
-0.752443 -0.819034 0.773925 0.000000 0.000000 0.000000
-0.729973 -0.688978 0.686092 0.000000 0.000000 0.000000
-0.768372 -0.606307 0.685614 0.000000 0.000000 0.000000
-0.784978 -0.586427 0.683364 0.000000 0.000000 0.000000
-0.817112 -0.625798 0.722830 0.000000 0.000000 0.000000
-0.813042 -0.586237 0.710189 0.000000 0.000000 0.000000
-0.788547 -0.596705 0.695458 0.000000 0.000000 0.000000
-0.965262 -0.703353 0.918290 0.000000 0.000000 0.000000
-0.743863 -0.816625 0.764248 0.000000 0.000000 0.000000
-0.743571 -0.816087 0.763512 0.000000 0.000000 0.000000
-0.852241 -0.682981 0.757186 0.000000 0.000000 0.000000
-1.001913 -0.579801 0.880221 0.000000 0.000000 0.000000
-1.061300 -0.593242 0.968766 0.000000 0.000000 0.000000
-0.781663 -0.596917 0.695287 0.000000 0.000000 0.000000
-1.066561 -0.594770 0.974427 0.000000 0.000000 0.000000
-0.782960 -0.601607 0.694702 0.000000 0.000000 0.000000
-0.767366 -0.610429 0.685041 0.000000 0.000000 0.000000
-0.650222 -0.724307 0.661770 0.000000 0.000000 0.000000
-0.772040 -0.603322 0.684532 0.000000 0.000000 0.000000
-1.043438 -0.584139 0.935027 0.000000 0.000000 0.000000
-0.744106 -0.820257 0.764943 0.000000 0.000000 0.000000
-0.766625 -0.597203 0.674918 0.000000 0.000000 0.000000
-0.788604 -0.702451 0.736820 0.000000 0.000000 0.000000
-0.716447 -0.701096 0.683106 0.000000 0.000000 0.000000
-0.776292 -0.613851 0.695338 0.000000 0.000000 0.000000
-0.778526 -0.603874 0.695246 0.000000 0.000000 0.000000
-0.974315 -0.693765 0.923728 0.000000 0.000000 0.000000
-0.777288 -0.597167 0.690305 0.000000 0.000000 0.000000
-0.969481 -0.699971 0.922364 0.000000 0.000000 0.000000
-0.760950 -0.808779 0.780803 0.000000 0.000000 0.000000
-0.743689 -0.813776 0.763673 0.000000 0.000000 0.000000
-0.762370 -0.817743 0.780150 0.000000 0.000000 0.000000
-0.847505 -0.685986 0.760042 0.000000 0.000000 0.000000
-1.004469 -0.579033 0.883812 0.000000 0.000000 0.000000
-1.064724 -0.593427 0.970589 0.000000 0.000000 0.000000
-0.731866 -0.628411 0.668034 0.000000 0.000000 0.000000
-1.052128 -0.593823 0.960763 0.000000 0.000000 0.000000
-0.772025 -0.598230 0.677954 0.000000 0.000000 0.000000
-0.775060 -0.595537 0.681010 0.000000 0.000000 0.000000
-0.757911 -0.615431 0.677104 0.000000 0.000000 0.000000
-1.027139 -0.576759 0.907880 0.000000 0.000000 0.000000
-0.672122 -0.705773 0.662246 0.000000 0.000000 0.000000
-0.762563 -0.604917 0.678780 0.000000 0.000000 0.000000
-1.034809 -0.579473 0.922008 0.000000 0.000000 0.000000
-0.748998 -0.811574 0.773070 0.000000 0.000000 0.000000
-0.800584 -0.706678 0.741709 0.000000 0.000000 0.000000
-0.637279 -0.740957 0.662250 0.000000 0.000000 0.000000
-0.783640 -0.812211 0.797277 0.000000 0.000000 0.000000
-0.687504 -0.805173 0.701344 0.000000 0.000000 0.000000
-0.624591 -0.758548 0.666805 0.000000 0.000000 0.000000
-0.652969 -0.792990 0.679308 0.000000 0.000000 0.000000
-0.827529 -0.783153 0.826320 0.000000 0.000000 0.000000
-0.636898 -0.758197 0.670679 0.000000 0.000000 0.000000
-0.629281 -0.757168 0.663558 0.000000 0.000000 0.000000
-0.793555 -0.592621 0.704163 0.000000 0.000000 0.000000
-0.650724 -0.787846 0.681093 0.000000 0.000000 0.000000
-0.634141 -0.736106 0.668153 0.000000 0.000000 0.000000
-0.631934 -0.765510 0.663566 0.000000 0.000000 0.000000
-0.718275 -0.628473 0.660212 0.000000 0.000000 0.000000
-0.857982 -0.775633 0.840846 0.000000 0.000000 0.000000
-0.629549 -0.746366 0.666923 0.000000 0.000000 0.000000
-0.934616 -0.689044 0.888228 0.000000 0.000000 0.000000
-0.914268 -0.686178 0.816874 0.000000 0.000000 0.000000
-0.626516 -0.761657 0.663273 0.000000 0.000000 0.000000
-0.918960 -0.676749 0.817988 0.000000 0.000000 0.000000
-0.701436 -0.643598 0.649888 0.000000 0.000000 0.000000
-1.002790 -0.673580 0.941013 0.000000 0.000000 0.000000
-0.626835 -0.755713 0.663024 0.000000 0.000000 0.000000
-1.042721 -0.587741 0.941178 0.000000 0.000000 0.000000
-0.771177 -0.603913 0.692047 0.000000 0.000000 0.000000
-0.769588 -0.606059 0.685025 0.000000 0.000000 0.000000
-0.936717 -0.683540 0.883279 0.000000 0.000000 0.000000
-0.916676 -0.681833 0.816451 0.000000 0.000000 0.000000
-0.627028 -0.755527 0.663224 0.000000 0.000000 0.000000
-0.702488 -0.642922 0.650658 0.000000 0.000000 0.000000
-1.013777 -0.663226 0.947461 0.000000 0.000000 0.000000
-0.847083 -0.763782 0.835776 0.000000 0.000000 0.000000
-0.710808 -0.633687 0.650169 0.000000 0.000000 0.000000
-1.060629 -0.595960 0.971141 0.000000 0.000000 0.000000
-0.745913 -0.620469 0.678089 0.000000 0.000000 0.000000
-0.649435 -0.786111 0.681686 0.000000 0.000000 0.000000
-1.027185 -0.577337 0.922021 0.000000 0.000000 0.000000
-0.636222 -0.769217 0.665118 0.000000 0.000000 0.000000
-0.933567 -0.725429 0.896790 0.000000 0.000000 0.000000
-0.693969 -0.650335 0.649220 0.000000 0.000000 0.000000
-0.658447 -0.792400 0.689247 0.000000 0.000000 0.000000
-0.700426 -0.653408 0.652568 0.000000 0.000000 0.000000
-0.752910 -0.601366 0.663692 0.000000 0.000000 0.000000
-0.935742 -0.575635 0.812734 0.000000 0.000000 0.000000
-0.956724 -0.578513 0.831130 0.000000 0.000000 0.000000
-0.740694 -0.819154 0.759368 0.000000 0.000000 0.000000
-0.660954 -0.796054 0.690367 0.000000 0.000000 0.000000
-0.933644 -0.725059 0.901758 0.000000 0.000000 0.000000
-1.030962 -0.578260 0.915361 0.000000 0.000000 0.000000
-0.946214 -0.691075 0.879985 0.000000 0.000000 0.000000
-0.940461 -0.686963 0.871654 0.000000 0.000000 0.000000
-0.727255 -0.631515 0.662072 0.000000 0.000000 0.000000
-0.725921 -0.639062 0.667034 0.000000 0.000000 0.000000
-0.978375 -0.696353 0.926366 0.000000 0.000000 0.000000
-0.742898 -0.615918 0.664698 0.000000 0.000000 0.000000
-0.834171 -0.585518 0.728112 0.000000 0.000000 0.000000
-0.680569 -0.800139 0.697926 0.000000 0.000000 0.000000
-1.016666 -0.630953 0.927074 0.000000 0.000000 0.000000
-0.635403 -0.767149 0.669265 0.000000 0.000000 0.000000
-1.037300 -0.583345 0.929886 0.000000 0.000000 0.000000
-0.666108 -0.793310 0.691528 0.000000 0.000000 0.000000
-0.645371 -0.783599 0.676256 0.000000 0.000000 0.000000
-0.810201 -0.585237 0.698949 0.000000 0.000000 0.000000
-0.726418 -0.619664 0.653809 0.000000 0.000000 0.000000
-0.862695 -0.643010 0.755340 0.000000 0.000000 0.000000
-0.734755 -0.629221 0.669457 0.000000 0.000000 0.000000
-0.919047 -0.726649 0.887067 0.000000 0.000000 0.000000
-0.949044 -0.698671 0.890912 0.000000 0.000000 0.000000
-0.772607 -0.808493 0.795024 0.000000 0.000000 0.000000
-0.951579 -0.697352 0.878777 0.000000 0.000000 0.000000
-0.777286 -0.690267 0.715896 0.000000 0.000000 0.000000
-0.734259 -0.632655 0.667144 0.000000 0.000000 0.000000
-0.967699 -0.691759 0.919174 0.000000 0.000000 0.000000
-0.848759 -0.583686 0.736737 0.000000 0.000000 0.000000
-0.641411 -0.766796 0.677742 0.000000 0.000000 0.000000
-0.664119 -0.791833 0.688719 0.000000 0.000000 0.000000
-0.629621 -0.761740 0.665442 0.000000 0.000000 0.000000
-0.866408 -0.647310 0.757613 0.000000 0.000000 0.000000
-0.728566 -0.622321 0.663769 0.000000 0.000000 0.000000
-0.659183 -0.685655 0.638640 0.000000 0.000000 0.000000
-0.736629 -0.818013 0.753716 0.000000 0.000000 0.000000
-0.908801 -0.741016 0.883716 0.000000 0.000000 0.000000
-0.830601 -0.785796 0.826881 0.000000 0.000000 0.000000
-0.912206 -0.737712 0.883983 0.000000 0.000000 0.000000
-0.659432 -0.795460 0.687614 0.000000 0.000000 0.000000
-0.742952 -0.817609 0.764380 0.000000 0.000000 0.000000
-1.001473 -0.580715 0.881665 0.000000 0.000000 0.000000
-0.930835 -0.577407 0.809967 0.000000 0.000000 0.000000
-0.736806 -0.810124 0.754229 0.000000 0.000000 0.000000
-0.957779 -0.581848 0.834907 0.000000 0.000000 0.000000
-0.641248 -0.780071 0.672271 0.000000 0.000000 0.000000
-0.743268 -0.819520 0.761352 0.000000 0.000000 0.000000
-0.679937 -0.795683 0.697368 0.000000 0.000000 0.000000
-0.777885 -0.598522 0.686315 0.000000 0.000000 0.000000
-0.774484 -0.605528 0.688876 0.000000 0.000000 0.000000
-0.767673 -0.595203 0.676042 0.000000 0.000000 0.000000
-0.760372 -0.606634 0.675058 0.000000 0.000000 0.000000
-0.646679 -0.786855 0.678047 0.000000 0.000000 0.000000
-1.041101 -0.622777 0.956794 0.000000 0.000000 0.000000
-0.905805 -0.745170 0.878617 0.000000 0.000000 0.000000
-0.637793 -0.764576 0.673122 0.000000 0.000000 0.000000
-0.915223 -0.740421 0.884991 0.000000 0.000000 0.000000
-0.731554 -0.807899 0.751696 0.000000 0.000000 0.000000
-0.778797 -0.803469 0.798187 0.000000 0.000000 0.000000
-0.726312 -0.804717 0.746547 0.000000 0.000000 0.000000
-1.053051 -0.585548 0.947037 0.000000 0.000000 0.000000
-0.652980 -0.787989 0.674475 0.000000 0.000000 0.000000
-1.032573 -0.618981 0.937215 0.000000 0.000000 0.000000
-0.909291 -0.732882 0.879791 0.000000 0.000000 0.000000
-0.639342 -0.764270 0.673974 0.000000 0.000000 0.000000
-0.913114 -0.737871 0.884060 0.000000 0.000000 0.000000
-0.729827 -0.814290 0.749037 0.000000 0.000000 0.000000
-0.781322 -0.806440 0.802848 0.000000 0.000000 0.000000
-0.730083 -0.809368 0.749428 0.000000 0.000000 0.000000
-0.756197 -0.817790 0.779285 0.000000 0.000000 0.000000
-1.044881 -0.626157 0.970123 0.000000 0.000000 0.000000
-1.047917 -0.622353 0.977806 0.000000 0.000000 0.000000
-0.821776 -0.585883 0.718278 0.000000 0.000000 0.000000
-0.661039 -0.791786 0.682270 0.000000 0.000000 0.000000
-1.044990 -0.617432 0.973047 0.000000 0.000000 0.000000
-0.653554 -0.789955 0.679772 0.000000 0.000000 0.000000
-0.971274 -0.578936 0.849697 0.000000 0.000000 0.000000
-0.630607 -0.765175 0.661018 0.000000 0.000000 0.000000
-0.631090 -0.757223 0.664897 0.000000 0.000000 0.000000
-1.036554 -0.616766 0.966716 0.000000 0.000000 0.000000
-0.759041 -0.815564 0.780077 0.000000 0.000000 0.000000
-1.039805 -0.616963 0.966484 0.000000 0.000000 0.000000
-1.058617 -0.604014 0.977952 0.000000 0.000000 0.000000
-1.043525 -0.629385 0.973913 0.000000 0.000000 0.000000
-1.044139 -0.619805 0.969257 0.000000 0.000000 0.000000
-0.928676 -0.706638 0.859178 0.000000 0.000000 0.000000
-0.954133 -0.699481 0.904711 0.000000 0.000000 0.000000
-1.041516 -0.634271 0.964826 0.000000 0.000000 0.000000
-1.052763 -0.618398 0.974556 0.000000 0.000000 0.000000
-0.768152 -0.643676 0.694872 0.000000 0.000000 0.000000
-0.750169 -0.659785 0.687501 0.000000 0.000000 0.000000
-0.934115 -0.718399 0.900225 0.000000 0.000000 0.000000
-1.055478 -0.616059 0.977866 0.000000 0.000000 0.000000
-0.908483 -0.581761 0.800819 0.000000 0.000000 0.000000
-1.058468 -0.616109 0.979057 0.000000 0.000000 0.000000
-0.962005 -0.698920 0.913640 0.000000 0.000000 0.000000
-0.947942 -0.712892 0.911556 0.000000 0.000000 0.000000
-0.924641 -0.670174 0.829938 0.000000 0.000000 0.000000
-1.054814 -0.618948 0.979586 0.000000 0.000000 0.000000
-1.054498 -0.628432 0.971899 0.000000 0.000000 0.000000
-0.780264 -0.669360 0.705565 0.000000 0.000000 0.000000
-0.743204 -0.627878 0.682780 0.000000 0.000000 0.000000
-0.704424 -0.640201 0.648677 0.000000 0.000000 0.000000
-1.045995 -0.609167 0.962961 0.000000 0.000000 0.000000
-1.043163 -0.622240 0.970756 0.000000 0.000000 0.000000
-1.049872 -0.613006 0.974192 0.000000 0.000000 0.000000
-1.053281 -0.619854 0.976973 0.000000 0.000000 0.000000
-0.923231 -0.699620 0.844475 0.000000 0.000000 0.000000
-0.955804 -0.697691 0.905297 0.000000 0.000000 0.000000
-1.044931 -0.633886 0.967784 0.000000 0.000000 0.000000
-1.057113 -0.620080 0.973342 0.000000 0.000000 0.000000
-0.776783 -0.649465 0.698416 0.000000 0.000000 0.000000
-0.748560 -0.656746 0.685524 0.000000 0.000000 0.000000
-0.959966 -0.717455 0.907752 0.000000 0.000000 0.000000
-0.945598 -0.723800 0.902494 0.000000 0.000000 0.000000
-1.042920 -0.630336 0.969838 0.000000 0.000000 0.000000
-0.959988 -0.706333 0.914337 0.000000 0.000000 0.000000
-0.948619 -0.715848 0.910289 0.000000 0.000000 0.000000
-1.063517 -0.608262 0.980302 0.000000 0.000000 0.000000
-1.041350 -0.631365 0.971180 0.000000 0.000000 0.000000
-0.996047 -0.581126 0.880959 0.000000 0.000000 0.000000
-0.762061 -0.671064 0.694784 0.000000 0.000000 0.000000
-0.709096 -0.632718 0.648571 0.000000 0.000000 0.000000
-0.781545 -0.810115 0.799747 0.000000 0.000000 0.000000
-0.780852 -0.815620 0.795371 0.000000 0.000000 0.000000
-0.754412 -0.818113 0.773740 0.000000 0.000000 0.000000
-0.655071 -0.707953 0.648220 0.000000 0.000000 0.000000
-0.951878 -0.575358 0.831004 0.000000 0.000000 0.000000
-0.768730 -0.811655 0.789226 0.000000 0.000000 0.000000
-0.963012 -0.706565 0.916949 0.000000 0.000000 0.000000
-0.943547 -0.719828 0.907526 0.000000 0.000000 0.000000
-0.951871 -0.581223 0.826097 0.000000 0.000000 0.000000
-0.771281 -0.815275 0.791678 0.000000 0.000000 0.000000
-0.748926 -0.815152 0.768712 0.000000 0.000000 0.000000
-0.974076 -0.581850 0.847140 0.000000 0.000000 0.000000
-0.950151 -0.574861 0.825812 0.000000 0.000000 0.000000
-0.895822 -0.757476 0.869104 0.000000 0.000000 0.000000
