ply
format ascii 1.0
comment VCGLIB generated
obj_info Generated by SPFormer!
element vertex 339
property float x
property float y
property float z
property float nx
property float ny
property float nz
end_header
0.872848 0.927960 3.473112 0.000000 0.000000 0.000000
0.877073 0.927853 3.463742 0.000000 0.000000 0.000000
0.877319 0.930836 3.431109 0.000000 0.000000 0.000000
0.878656 0.920600 3.448348 0.000000 0.000000 0.000000
0.886920 0.922059 3.442604 0.000000 0.000000 0.000000
0.860414 0.918159 3.492031 0.000000 0.000000 0.000000
0.869758 0.931962 3.467188 0.000000 0.000000 0.000000
0.877659 0.936376 3.427303 0.000000 0.000000 0.000000
0.858395 0.919777 3.526076 0.000000 0.000000 0.000000
0.857158 0.923773 3.503095 0.000000 0.000000 0.000000
0.874826 0.926144 3.435569 0.000000 0.000000 0.000000
0.874226 0.930109 3.439489 0.000000 0.000000 0.000000
0.874432 0.922182 3.456726 0.000000 0.000000 0.000000
0.872817 0.921789 3.442612 0.000000 0.000000 0.000000
0.873585 0.915296 3.518676 0.000000 0.000000 0.000000
0.875472 0.914233 3.508283 0.000000 0.000000 0.000000
0.862276 0.923257 3.485420 0.000000 0.000000 0.000000
0.859004 0.918274 3.497416 0.000000 0.000000 0.000000
0.860405 0.909983 3.497262 0.000000 0.000000 0.000000
0.878799 0.930426 3.510510 0.000000 0.000000 0.000000
0.877518 0.921788 3.525070 0.000000 0.000000 0.000000
0.857567 0.932597 3.507930 0.000000 0.000000 0.000000
0.867498 0.923661 3.526390 0.000000 0.000000 0.000000
0.883588 0.929965 3.476407 0.000000 0.000000 0.000000
0.863545 0.914105 3.476409 0.000000 0.000000 0.000000
0.859863 0.909522 3.485041 0.000000 0.000000 0.000000
0.858078 0.918839 3.492475 0.000000 0.000000 0.000000
0.887961 0.916628 3.464062 0.000000 0.000000 0.000000
0.859429 0.917222 3.493701 0.000000 0.000000 0.000000
0.879775 0.932662 3.423585 0.000000 0.000000 0.000000
0.858589 0.923705 3.531476 0.000000 0.000000 0.000000
0.867976 0.906707 3.521560 0.000000 0.000000 0.000000
0.876715 0.920061 3.425676 0.000000 0.000000 0.000000
0.874332 0.929893 3.442928 0.000000 0.000000 0.000000
0.880587 0.918386 3.502990 0.000000 0.000000 0.000000
0.868044 0.925757 3.456686 0.000000 0.000000 0.000000
0.861778 0.923888 3.537584 0.000000 0.000000 0.000000
0.865987 0.927030 3.471562 0.000000 0.000000 0.000000
0.878960 0.931418 3.417868 0.000000 0.000000 0.000000
0.864072 0.907924 3.525125 0.000000 0.000000 0.000000
0.871115 0.919449 3.450688 0.000000 0.000000 0.000000
0.864300 0.939049 3.532381 0.000000 0.000000 0.000000
0.864479 0.912125 3.546213 0.000000 0.000000 0.000000
0.876058 0.936153 3.452041 0.000000 0.000000 0.000000
0.873885 0.919045 3.482183 0.000000 0.000000 0.000000
0.869227 0.912812 3.527543 0.000000 0.000000 0.000000
0.873574 0.931133 3.425291 0.000000 0.000000 0.000000
0.860677 0.912818 3.535364 0.000000 0.000000 0.000000
0.858973 0.900164 3.541337 0.000000 0.000000 0.000000
0.868597 0.941398 3.523704 0.000000 0.000000 0.000000
0.857793 0.905600 3.531610 0.000000 0.000000 0.000000
0.877920 0.925940 3.493550 0.000000 0.000000 0.000000
0.859045 0.918750 3.536478 0.000000 0.000000 0.000000
0.869609 0.920521 3.521688 0.000000 0.000000 0.000000
0.915115 0.947652 3.441890 0.000000 0.000000 0.000000
0.862412 0.914083 3.526384 0.000000 0.000000 0.000000
0.866978 0.914885 3.456872 0.000000 0.000000 0.000000
0.857920 0.907492 3.513494 0.000000 0.000000 0.000000
0.858453 0.926922 3.520274 0.000000 0.000000 0.000000
0.855131 0.925633 3.531424 0.000000 0.000000 0.000000
0.860327 0.915906 3.498990 0.000000 0.000000 0.000000
0.855766 0.920319 3.529831 0.000000 0.000000 0.000000
0.857451 0.908777 3.538977 0.000000 0.000000 0.000000
0.872219 0.914646 3.431921 0.000000 0.000000 0.000000
0.876113 0.933515 3.450935 0.000000 0.000000 0.000000
0.877091 0.911993 3.464893 0.000000 0.000000 0.000000
0.873109 0.911556 3.439885 0.000000 0.000000 0.000000
0.869243 0.917087 3.541185 0.000000 0.000000 0.000000
0.879372 0.911700 3.462035 0.000000 0.000000 0.000000
0.874543 0.926368 3.441571 0.000000 0.000000 0.000000
0.866736 0.912522 3.487410 0.000000 0.000000 0.000000
0.857119 0.936596 3.512745 0.000000 0.000000 0.000000
0.855235 0.929193 3.523312 0.000000 0.000000 0.000000
0.872813 0.911345 3.532817 0.000000 0.000000 0.000000
0.857964 0.928821 3.513607 0.000000 0.000000 0.000000
0.859881 0.939541 3.517809 0.000000 0.000000 0.000000
0.858893 0.920130 3.494360 0.000000 0.000000 0.000000
0.859236 0.905519 3.534197 0.000000 0.000000 0.000000
0.863443 0.941680 3.509167 0.000000 0.000000 0.000000
0.864555 0.927984 3.481277 0.000000 0.000000 0.000000
0.861470 0.931243 3.527534 0.000000 0.000000 0.000000
0.870470 0.936552 3.460683 0.000000 0.000000 0.000000
0.877618 0.918171 3.406065 0.000000 0.000000 0.000000
0.879033 0.916417 3.412338 0.000000 0.000000 0.000000
0.867494 0.911053 3.472597 0.000000 0.000000 0.000000
0.882721 0.913712 3.478853 0.000000 0.000000 0.000000
0.876714 0.911713 3.426143 0.000000 0.000000 0.000000
0.877210 0.915014 3.420696 0.000000 0.000000 0.000000
0.875813 0.910171 3.459136 0.000000 0.000000 0.000000
0.871714 0.901598 3.445115 0.000000 0.000000 0.000000
0.873232 0.920879 3.451148 0.000000 0.000000 0.000000
0.862463 0.914496 3.448102 0.000000 0.000000 0.000000
0.854856 0.917594 3.522301 0.000000 0.000000 0.000000
0.876867 0.904846 3.440025 0.000000 0.000000 0.000000
0.895068 0.921516 3.440296 0.000000 0.000000 0.000000
0.864405 0.938875 3.498847 0.000000 0.000000 0.000000
0.885273 0.920403 3.485491 0.000000 0.000000 0.000000
0.879151 0.914250 3.444488 0.000000 0.000000 0.000000
0.866910 0.939047 3.482993 0.000000 0.000000 0.000000
0.867562 0.906889 3.536080 0.000000 0.000000 0.000000
0.876660 0.924211 3.528503 0.000000 0.000000 0.000000
0.876538 0.925925 3.423666 0.000000 0.000000 0.000000
0.885868 0.942093 3.445562 0.000000 0.000000 0.000000
0.877392 0.940044 3.434435 0.000000 0.000000 0.000000
0.861872 0.903421 3.514108 0.000000 0.000000 0.000000
0.858206 0.906691 3.505049 0.000000 0.000000 0.000000
0.873027 0.908556 3.459967 0.000000 0.000000 0.000000
0.865313 0.920348 3.455930 0.000000 0.000000 0.000000
0.871908 0.912154 3.442151 0.000000 0.000000 0.000000
0.885155 0.935508 3.455459 0.000000 0.000000 0.000000
0.871984 0.909006 3.435263 0.000000 0.000000 0.000000
0.877227 0.929236 3.508698 0.000000 0.000000 0.000000
0.886975 0.941227 3.466915 0.000000 0.000000 0.000000
0.873948 0.909008 3.428319 0.000000 0.000000 0.000000
0.864800 0.917096 3.453111 0.000000 0.000000 0.000000
0.863037 0.928028 3.489361 0.000000 0.000000 0.000000
0.862394 0.915053 3.464121 0.000000 0.000000 0.000000
0.859429 0.914627 3.474996 0.000000 0.000000 0.000000
0.862473 0.915242 3.526723 0.000000 0.000000 0.000000
0.864660 0.909431 3.477201 0.000000 0.000000 0.000000
0.857392 0.916255 3.519441 0.000000 0.000000 0.000000
0.860405 0.928844 3.498327 0.000000 0.000000 0.000000
0.883132 0.936504 3.485155 0.000000 0.000000 0.000000
0.856756 0.908137 3.517333 0.000000 0.000000 0.000000
0.856495 0.913225 3.495332 0.000000 0.000000 0.000000
0.858641 0.917288 3.532909 0.000000 0.000000 0.000000
0.871447 0.910315 3.542770 0.000000 0.000000 0.000000
0.862117 0.905042 3.538788 0.000000 0.000000 0.000000
0.868211 0.917101 3.544008 0.000000 0.000000 0.000000
0.865813 0.902215 3.497322 0.000000 0.000000 0.000000
0.884953 0.933636 3.489790 0.000000 0.000000 0.000000
0.871025 0.911039 3.474891 0.000000 0.000000 0.000000
0.878133 0.909686 3.490160 0.000000 0.000000 0.000000
0.873639 0.912738 3.442603 0.000000 0.000000 0.000000
0.888802 0.917191 3.457642 0.000000 0.000000 0.000000
0.863494 0.908016 3.477157 0.000000 0.000000 0.000000
0.867618 0.918087 3.469606 0.000000 0.000000 0.000000
0.867484 0.907373 3.489674 0.000000 0.000000 0.000000
0.873563 0.908184 3.498519 0.000000 0.000000 0.000000
0.879509 0.925577 3.433466 0.000000 0.000000 0.000000
0.878420 0.906563 3.505381 0.000000 0.000000 0.000000
0.873690 0.910517 3.443680 0.000000 0.000000 0.000000
0.893978 0.918743 3.455990 0.000000 0.000000 0.000000
0.864848 0.932455 3.534914 0.000000 0.000000 0.000000
0.919035 0.951515 3.446899 0.000000 0.000000 0.000000
0.874137 0.940785 3.467444 0.000000 0.000000 0.000000
0.881223 0.945336 3.449319 0.000000 0.000000 0.000000
0.859919 0.936229 3.510823 0.000000 0.000000 0.000000
0.883187 0.944269 3.469146 0.000000 0.000000 0.000000
0.864021 0.903860 3.512089 0.000000 0.000000 0.000000
0.870807 0.901003 3.504682 0.000000 0.000000 0.000000
0.865279 0.905498 3.503659 0.000000 0.000000 0.000000
0.874300 0.901820 3.487620 0.000000 0.000000 0.000000
0.881080 0.920881 3.458391 0.000000 0.000000 0.000000
0.864891 0.910588 3.534742 0.000000 0.000000 0.000000
0.875168 0.920303 3.423924 0.000000 0.000000 0.000000
0.878962 0.930225 3.426387 0.000000 0.000000 0.000000
0.864521 0.925573 3.483277 0.000000 0.000000 0.000000
0.874945 0.915653 3.435113 0.000000 0.000000 0.000000
0.876586 0.921774 3.414298 0.000000 0.000000 0.000000
0.875681 0.941548 3.479177 0.000000 0.000000 0.000000
0.862437 0.905917 3.543241 0.000000 0.000000 0.000000
0.860254 0.903566 3.529357 0.000000 0.000000 0.000000
0.859980 0.930792 3.536773 0.000000 0.000000 0.000000
0.863380 0.932377 3.530721 0.000000 0.000000 0.000000
0.862550 0.910978 3.542182 0.000000 0.000000 0.000000
0.859692 0.904401 3.533017 0.000000 0.000000 0.000000
0.876180 0.907457 3.523516 0.000000 0.000000 0.000000
0.861556 0.917603 3.529812 0.000000 0.000000 0.000000
0.864674 0.907507 3.546828 0.000000 0.000000 0.000000
0.869398 0.908221 3.547797 0.000000 0.000000 0.000000
0.865205 0.904347 3.539477 0.000000 0.000000 0.000000
0.852610 0.930963 3.519493 0.000000 0.000000 0.000000
0.858874 0.924276 3.507704 0.000000 0.000000 0.000000
0.875213 0.903811 3.517339 0.000000 0.000000 0.000000
0.854094 0.921551 3.517548 0.000000 0.000000 0.000000
0.871725 0.900453 3.508496 0.000000 0.000000 0.000000
0.870526 0.899739 3.506611 0.000000 0.000000 0.000000
0.871241 0.901878 3.506130 0.000000 0.000000 0.000000
0.855132 0.920988 3.498239 0.000000 0.000000 0.000000
0.874822 0.924515 3.432579 0.000000 0.000000 0.000000
0.871810 0.916884 3.440041 0.000000 0.000000 0.000000
0.914262 0.948834 3.443508 0.000000 0.000000 0.000000
0.874114 0.907592 3.501592 0.000000 0.000000 0.000000
0.882317 0.911887 3.489471 0.000000 0.000000 0.000000
0.875741 0.900520 3.527157 0.000000 0.000000 0.000000
0.873366 0.901710 3.508705 0.000000 0.000000 0.000000
0.869477 0.902643 3.486367 0.000000 0.000000 0.000000
0.874991 0.905096 3.492848 0.000000 0.000000 0.000000
0.873326 0.930837 3.517761 0.000000 0.000000 0.000000
0.864179 0.939483 3.527697 0.000000 0.000000 0.000000
0.867968 0.939678 3.531816 0.000000 0.000000 0.000000
0.877946 0.940176 3.506096 0.000000 0.000000 0.000000
0.872185 0.925801 3.539911 0.000000 0.000000 0.000000
0.870499 0.910395 3.543435 0.000000 0.000000 0.000000
0.863616 0.915537 3.544646 0.000000 0.000000 0.000000
0.864618 0.940590 3.523983 0.000000 0.000000 0.000000
0.874236 0.943175 3.502006 0.000000 0.000000 0.000000
0.874233 0.946834 3.483989 0.000000 0.000000 0.000000
0.873694 0.946840 3.494000 0.000000 0.000000 0.000000
0.875256 0.936195 3.498112 0.000000 0.000000 0.000000
0.878312 0.930348 3.515673 0.000000 0.000000 0.000000
0.873262 0.934676 3.524113 0.000000 0.000000 0.000000
0.879702 0.911822 3.408633 0.000000 0.000000 0.000000
0.862255 0.938779 3.522077 0.000000 0.000000 0.000000
0.873763 0.932651 3.530163 0.000000 0.000000 0.000000
0.864986 0.900760 3.483907 0.000000 0.000000 0.000000
0.866111 0.904494 3.471334 0.000000 0.000000 0.000000
0.874956 0.902102 3.495460 0.000000 0.000000 0.000000
0.865189 0.903861 3.474513 0.000000 0.000000 0.000000
0.871124 0.901463 3.493879 0.000000 0.000000 0.000000
0.873263 0.904063 3.467965 0.000000 0.000000 0.000000
0.871521 0.903965 3.478054 0.000000 0.000000 0.000000
0.866718 0.908804 3.546940 0.000000 0.000000 0.000000
0.877309 0.925595 3.533927 0.000000 0.000000 0.000000
0.873651 0.938416 3.519949 0.000000 0.000000 0.000000
0.874116 0.937428 3.529109 0.000000 0.000000 0.000000
0.869917 0.943160 3.519036 0.000000 0.000000 0.000000
0.863691 0.939145 3.490017 0.000000 0.000000 0.000000
0.918122 0.956633 3.456804 0.000000 0.000000 0.000000
0.862045 0.942174 3.498875 0.000000 0.000000 0.000000
0.862889 0.907806 3.527077 0.000000 0.000000 0.000000
0.880752 0.909181 3.504259 0.000000 0.000000 0.000000
0.870328 0.908234 3.545283 0.000000 0.000000 0.000000
0.916087 0.958880 3.445029 0.000000 0.000000 0.000000
0.864727 0.900885 3.530624 0.000000 0.000000 0.000000
0.876857 0.911946 3.539202 0.000000 0.000000 0.000000
0.880104 0.906804 3.520888 0.000000 0.000000 0.000000
0.879769 0.912139 3.513281 0.000000 0.000000 0.000000
0.864523 0.902698 3.532044 0.000000 0.000000 0.000000
0.873052 0.904658 3.535492 0.000000 0.000000 0.000000
0.875176 0.904875 3.526788 0.000000 0.000000 0.000000
0.870157 0.902288 3.534793 0.000000 0.000000 0.000000
0.862975 0.904597 3.546520 0.000000 0.000000 0.000000
0.864023 0.901995 3.526947 0.000000 0.000000 0.000000
0.876977 0.921819 3.521270 0.000000 0.000000 0.000000
0.875380 0.911174 3.517823 0.000000 0.000000 0.000000
0.869749 0.907693 3.485225 0.000000 0.000000 0.000000
0.876723 0.905693 3.523263 0.000000 0.000000 0.000000
0.874391 0.906202 3.542563 0.000000 0.000000 0.000000
0.870444 0.904552 3.542992 0.000000 0.000000 0.000000
0.876965 0.916218 3.515889 0.000000 0.000000 0.000000
0.870691 0.941357 3.511772 0.000000 0.000000 0.000000
0.866916 0.926305 3.541528 0.000000 0.000000 0.000000
0.863589 0.933521 3.537096 0.000000 0.000000 0.000000
0.867100 0.944442 3.511779 0.000000 0.000000 0.000000
0.861883 0.920885 3.540862 0.000000 0.000000 0.000000
0.860502 0.935539 3.534397 0.000000 0.000000 0.000000
0.866266 0.944529 3.499741 0.000000 0.000000 0.000000
0.867558 0.930564 3.520251 0.000000 0.000000 0.000000
0.861535 0.902522 3.533577 0.000000 0.000000 0.000000
0.877919 0.904997 3.490107 0.000000 0.000000 0.000000
0.873187 0.919831 3.422492 0.000000 0.000000 0.000000
0.873808 0.911771 3.423867 0.000000 0.000000 0.000000
0.886053 0.945824 3.464779 0.000000 0.000000 0.000000
0.881346 0.947702 3.475518 0.000000 0.000000 0.000000
0.865114 0.906120 3.550683 0.000000 0.000000 0.000000
0.871614 0.915933 3.425528 0.000000 0.000000 0.000000
0.860915 0.901709 3.542862 0.000000 0.000000 0.000000
0.850502 0.925569 3.523886 0.000000 0.000000 0.000000
0.877172 0.906888 3.544431 0.000000 0.000000 0.000000
0.875913 0.910529 3.544242 0.000000 0.000000 0.000000
0.876643 0.906869 3.512165 0.000000 0.000000 0.000000
0.869420 0.903437 3.501380 0.000000 0.000000 0.000000
0.854142 0.927706 3.534608 0.000000 0.000000 0.000000
0.870029 0.898515 3.525746 0.000000 0.000000 0.000000
0.881657 0.911540 3.499759 0.000000 0.000000 0.000000
0.876103 0.905047 3.523593 0.000000 0.000000 0.000000
0.863375 0.906738 3.497096 0.000000 0.000000 0.000000
0.853825 0.934581 3.524298 0.000000 0.000000 0.000000
0.872278 0.902064 3.495334 0.000000 0.000000 0.000000
0.881241 0.923666 3.502366 0.000000 0.000000 0.000000
0.857300 0.909476 3.510375 0.000000 0.000000 0.000000
0.858002 0.906715 3.524235 0.000000 0.000000 0.000000
0.916367 0.945492 3.459102 0.000000 0.000000 0.000000
0.917836 0.953793 3.452966 0.000000 0.000000 0.000000
0.859000 0.912857 3.519518 0.000000 0.000000 0.000000
0.860540 0.905092 3.508114 0.000000 0.000000 0.000000
0.859213 0.901746 3.525214 0.000000 0.000000 0.000000
0.857859 0.922164 3.518000 0.000000 0.000000 0.000000
0.852944 0.922459 3.511657 0.000000 0.000000 0.000000
0.865709 0.902223 3.516988 0.000000 0.000000 0.000000
0.857108 0.916765 3.512682 0.000000 0.000000 0.000000
0.858169 0.911636 3.500339 0.000000 0.000000 0.000000
0.863355 0.902237 3.524952 0.000000 0.000000 0.000000
0.857356 0.916890 3.516695 0.000000 0.000000 0.000000
0.855073 0.913437 3.506444 0.000000 0.000000 0.000000
0.865091 0.899069 3.530025 0.000000 0.000000 0.000000
0.870644 0.937119 3.451012 0.000000 0.000000 0.000000
0.859895 0.920669 3.476802 0.000000 0.000000 0.000000
0.873777 0.936898 3.456364 0.000000 0.000000 0.000000
0.878673 0.943041 3.451885 0.000000 0.000000 0.000000
0.868330 0.935612 3.470118 0.000000 0.000000 0.000000
0.896474 0.923156 3.450384 0.000000 0.000000 0.000000
0.868718 0.940042 3.471704 0.000000 0.000000 0.000000
0.890845 0.937650 3.450327 0.000000 0.000000 0.000000
0.871824 0.941474 3.495009 0.000000 0.000000 0.000000
0.891402 0.934836 3.458435 0.000000 0.000000 0.000000
0.896922 0.926233 3.443115 0.000000 0.000000 0.000000
0.891482 0.926698 3.445746 0.000000 0.000000 0.000000
0.872541 0.939821 3.458843 0.000000 0.000000 0.000000
0.867986 0.942835 3.482734 0.000000 0.000000 0.000000
0.876201 0.936762 3.448961 0.000000 0.000000 0.000000
0.863824 0.922967 3.466285 0.000000 0.000000 0.000000
0.875914 0.937817 3.440565 0.000000 0.000000 0.000000
0.864760 0.933824 3.487660 0.000000 0.000000 0.000000
0.892649 0.928822 3.447643 0.000000 0.000000 0.000000
0.867237 0.930062 3.473875 0.000000 0.000000 0.000000
0.871640 0.949036 3.453185 0.000000 0.000000 0.000000
0.897695 0.927498 3.444553 0.000000 0.000000 0.000000
0.877075 0.946490 3.472317 0.000000 0.000000 0.000000
0.902597 0.928221 3.442938 0.000000 0.000000 0.000000
0.899127 0.929670 3.449507 0.000000 0.000000 0.000000
0.872997 0.946433 3.469214 0.000000 0.000000 0.000000
0.866892 0.943925 3.489997 0.000000 0.000000 0.000000
0.864502 0.921611 3.544100 0.000000 0.000000 0.000000
0.899436 0.921274 3.448889 0.000000 0.000000 0.000000
0.861566 0.925141 3.540019 0.000000 0.000000 0.000000
0.908126 0.932583 3.442227 0.000000 0.000000 0.000000
0.867333 0.928067 3.537288 0.000000 0.000000 0.000000
0.872029 0.900685 3.492231 0.000000 0.000000 0.000000
0.875825 0.905551 3.468812 0.000000 0.000000 0.000000
0.862420 0.907403 3.479810 0.000000 0.000000 0.000000
0.866788 0.910905 3.449920 0.000000 0.000000 0.000000
0.872896 0.922948 3.445284 0.000000 0.000000 0.000000
0.868679 0.912441 3.450079 0.000000 0.000000 0.000000
0.868752 0.917442 3.444594 0.000000 0.000000 0.000000
0.860704 0.933607 3.502329 0.000000 0.000000 0.000000
0.874359 0.909442 3.439073 0.000000 0.000000 0.000000
0.869669 0.906615 3.459613 0.000000 0.000000 0.000000
0.910978 0.938434 3.442339 0.000000 0.000000 0.000000
0.871410 0.909827 3.442974 0.000000 0.000000 0.000000
0.870068 0.910864 3.457696 0.000000 0.000000 0.000000
0.875376 0.917929 3.459936 0.000000 0.000000 0.000000
0.867475 0.916280 3.448713 0.000000 0.000000 0.000000
0.873047 0.942496 3.464329 0.000000 0.000000 0.000000
0.877952 0.913696 3.415456 0.000000 0.000000 0.000000
0.866905 0.909402 3.461484 0.000000 0.000000 0.000000
0.910683 0.936129 3.440354 0.000000 0.000000 0.000000
