ply
format ascii 1.0
comment VCGLIB generated
obj_info Generated by SPFormer!
element vertex 868
property float x
property float y
property float z
property float nx
property float ny
property float nz
end_header
0.273854 -0.504802 0.943614 0.000000 0.000000 0.000000
0.261126 -0.532352 0.968864 0.000000 0.000000 0.000000
0.315654 -0.548163 0.998132 0.000000 0.000000 0.000000
0.367426 -0.560918 1.061651 0.000000 0.000000 0.000000
0.515129 -0.455027 0.979189 0.000000 0.000000 0.000000
0.472904 -0.186414 0.761585 0.000000 0.000000 0.000000
0.276935 -0.401507 0.850762 0.000000 0.000000 0.000000
0.270879 -0.384211 0.858451 0.000000 0.000000 0.000000
0.272984 -0.500377 0.938408 0.000000 0.000000 0.000000
0.508711 -0.448925 0.978332 0.000000 0.000000 0.000000
0.477086 -0.166992 0.753260 0.000000 0.000000 0.000000
0.268152 -0.540049 0.973334 0.000000 0.000000 0.000000
0.287528 -0.415990 0.867410 0.000000 0.000000 0.000000
0.266616 -0.388448 0.847247 0.000000 0.000000 0.000000
0.316640 -0.316897 0.791721 0.000000 0.000000 0.000000
0.498892 -0.169439 0.746994 0.000000 0.000000 0.000000
0.334983 -0.291665 0.784627 0.000000 0.000000 0.000000
0.535132 -0.365426 0.899925 0.000000 0.000000 0.000000
0.530577 -0.440760 0.958506 0.000000 0.000000 0.000000
0.513722 -0.364705 0.902689 0.000000 0.000000 0.000000
0.536296 -0.373329 0.894758 0.000000 0.000000 0.000000
0.492865 -0.400522 0.905879 0.000000 0.000000 0.000000
0.266840 -0.535281 0.968727 0.000000 0.000000 0.000000
0.307812 -0.544457 0.992703 0.000000 0.000000 0.000000
0.343558 -0.337572 0.819932 0.000000 0.000000 0.000000
0.337807 -0.308040 0.796258 0.000000 0.000000 0.000000
0.280143 -0.411615 0.854209 0.000000 0.000000 0.000000
0.541147 -0.378322 0.897456 0.000000 0.000000 0.000000
0.423342 -0.186259 0.750162 0.000000 0.000000 0.000000
0.474874 -0.174077 0.767471 0.000000 0.000000 0.000000
0.480581 -0.173737 0.760005 0.000000 0.000000 0.000000
0.486701 -0.179647 0.759558 0.000000 0.000000 0.000000
0.323645 -0.567540 1.025323 0.000000 0.000000 0.000000
0.491382 -0.158449 0.749501 0.000000 0.000000 0.000000
0.500669 -0.205863 0.781594 0.000000 0.000000 0.000000
0.419348 -0.306473 0.821542 0.000000 0.000000 0.000000
0.486248 -0.161720 0.751535 0.000000 0.000000 0.000000
0.420108 -0.201657 0.764262 0.000000 0.000000 0.000000
0.535106 -0.333653 0.882239 0.000000 0.000000 0.000000
0.496914 -0.202461 0.781980 0.000000 0.000000 0.000000
0.261634 -0.518139 0.955854 0.000000 0.000000 0.000000
0.356346 -0.570467 1.060207 0.000000 0.000000 0.000000
0.489941 -0.173819 0.760168 0.000000 0.000000 0.000000
0.505211 -0.177403 0.756760 0.000000 0.000000 0.000000
0.449236 -0.183828 0.758161 0.000000 0.000000 0.000000
0.511310 -0.212142 0.792427 0.000000 0.000000 0.000000
0.502288 -0.184250 0.756136 0.000000 0.000000 0.000000
0.502662 -0.221347 0.774396 0.000000 0.000000 0.000000
0.258034 -0.418933 0.870684 0.000000 0.000000 0.000000
0.450878 -0.232241 0.775813 0.000000 0.000000 0.000000
0.496913 -0.201969 0.772607 0.000000 0.000000 0.000000
0.389783 -0.245449 0.769633 0.000000 0.000000 0.000000
0.250852 -0.425996 0.858117 0.000000 0.000000 0.000000
0.344937 -0.563623 1.044503 0.000000 0.000000 0.000000
0.526650 -0.302881 0.871326 0.000000 0.000000 0.000000
0.252289 -0.499050 0.931351 0.000000 0.000000 0.000000
0.470973 -0.402922 0.901776 0.000000 0.000000 0.000000
0.368180 -0.470704 0.933818 0.000000 0.000000 0.000000
0.422445 -0.315144 0.819312 0.000000 0.000000 0.000000
0.419953 -0.244146 0.771901 0.000000 0.000000 0.000000
0.346078 -0.326733 0.821984 0.000000 0.000000 0.000000
0.516877 -0.369381 0.886309 0.000000 0.000000 0.000000
0.470799 -0.385600 0.895422 0.000000 0.000000 0.000000
0.508616 -0.287607 0.855836 0.000000 0.000000 0.000000
0.371636 -0.423110 0.895862 0.000000 0.000000 0.000000
0.335681 -0.382822 0.839292 0.000000 0.000000 0.000000
0.419211 -0.304946 0.818765 0.000000 0.000000 0.000000
0.348310 -0.533885 1.015544 0.000000 0.000000 0.000000
0.327291 -0.526449 0.994502 0.000000 0.000000 0.000000
0.259630 -0.460057 0.894581 0.000000 0.000000 0.000000
0.503848 -0.240110 0.822696 0.000000 0.000000 0.000000
0.275171 -0.490978 0.927829 0.000000 0.000000 0.000000
0.372309 -0.389587 0.885314 0.000000 0.000000 0.000000
0.368368 -0.435601 0.909245 0.000000 0.000000 0.000000
0.294789 -0.508864 0.958072 0.000000 0.000000 0.000000
0.378518 -0.418909 0.893252 0.000000 0.000000 0.000000
0.360560 -0.396308 0.865836 0.000000 0.000000 0.000000
0.367757 -0.304212 0.782398 0.000000 0.000000 0.000000
0.367026 -0.378713 0.841736 0.000000 0.000000 0.000000
0.280322 -0.399578 0.852491 0.000000 0.000000 0.000000
0.394109 -0.429608 0.921393 0.000000 0.000000 0.000000
0.369144 -0.334981 0.829149 0.000000 0.000000 0.000000
0.419691 -0.465888 0.959381 0.000000 0.000000 0.000000
0.517711 -0.356696 0.879669 0.000000 0.000000 0.000000
0.339210 -0.398700 0.867727 0.000000 0.000000 0.000000
0.266756 -0.487060 0.922770 0.000000 0.000000 0.000000
0.512951 -0.301185 0.863232 0.000000 0.000000 0.000000
0.470567 -0.429645 0.924560 0.000000 0.000000 0.000000
0.396541 -0.251612 0.779095 0.000000 0.000000 0.000000
0.449616 -0.316052 0.837495 0.000000 0.000000 0.000000
0.456111 -0.436287 0.930947 0.000000 0.000000 0.000000
0.319381 -0.483733 0.938471 0.000000 0.000000 0.000000
0.369039 -0.538175 1.032188 0.000000 0.000000 0.000000
0.408243 -0.423887 0.915688 0.000000 0.000000 0.000000
0.301108 -0.502139 0.944584 0.000000 0.000000 0.000000
0.309537 -0.374043 0.832214 0.000000 0.000000 0.000000
0.432916 -0.265884 0.790601 0.000000 0.000000 0.000000
0.374435 -0.553878 1.061364 0.000000 0.000000 0.000000
0.466142 -0.537244 1.037006 0.000000 0.000000 0.000000
0.296211 -0.477207 0.923339 0.000000 0.000000 0.000000
0.477872 -0.244198 0.796931 0.000000 0.000000 0.000000
0.503190 -0.483301 0.996915 0.000000 0.000000 0.000000
0.334112 -0.362177 0.831676 0.000000 0.000000 0.000000
0.329983 -0.373937 0.836448 0.000000 0.000000 0.000000
0.422267 -0.554400 1.060117 0.000000 0.000000 0.000000
0.358450 -0.413322 0.881872 0.000000 0.000000 0.000000
0.486493 -0.367695 0.899324 0.000000 0.000000 0.000000
0.385462 -0.402560 0.895190 0.000000 0.000000 0.000000
0.416784 -0.274685 0.788937 0.000000 0.000000 0.000000
0.407321 -0.249286 0.769798 0.000000 0.000000 0.000000
0.398747 -0.345887 0.848221 0.000000 0.000000 0.000000
0.515767 -0.285844 0.858442 0.000000 0.000000 0.000000
0.339944 -0.547219 1.028765 0.000000 0.000000 0.000000
0.361361 -0.439519 0.902649 0.000000 0.000000 0.000000
0.296451 -0.461506 0.907198 0.000000 0.000000 0.000000
0.382409 -0.247018 0.757440 0.000000 0.000000 0.000000
0.300570 -0.519041 0.973056 0.000000 0.000000 0.000000
0.397090 -0.540757 1.041222 0.000000 0.000000 0.000000
0.332920 -0.535824 1.003512 0.000000 0.000000 0.000000
0.340719 -0.509038 0.973038 0.000000 0.000000 0.000000
0.450130 -0.528527 1.032601 0.000000 0.000000 0.000000
0.367407 -0.459246 0.925700 0.000000 0.000000 0.000000
0.314537 -0.475602 0.928107 0.000000 0.000000 0.000000
0.356071 -0.486636 0.951283 0.000000 0.000000 0.000000
0.381470 -0.419541 0.907851 0.000000 0.000000 0.000000
0.370884 -0.401456 0.874627 0.000000 0.000000 0.000000
0.369915 -0.427414 0.919128 0.000000 0.000000 0.000000
0.274511 -0.478610 0.917611 0.000000 0.000000 0.000000
0.278575 -0.497040 0.935065 0.000000 0.000000 0.000000
0.296261 -0.423537 0.874031 0.000000 0.000000 0.000000
0.518159 -0.352452 0.878077 0.000000 0.000000 0.000000
0.345412 -0.388746 0.857555 0.000000 0.000000 0.000000
0.490179 -0.360661 0.878247 0.000000 0.000000 0.000000
0.279759 -0.540956 0.976891 0.000000 0.000000 0.000000
0.406401 -0.282733 0.810231 0.000000 0.000000 0.000000
0.444648 -0.406738 0.886249 0.000000 0.000000 0.000000
0.426315 -0.548657 1.049320 0.000000 0.000000 0.000000
0.325414 -0.342854 0.815481 0.000000 0.000000 0.000000
0.511896 -0.332049 0.864181 0.000000 0.000000 0.000000
0.303840 -0.515928 0.968568 0.000000 0.000000 0.000000
0.453666 -0.527017 1.036085 0.000000 0.000000 0.000000
0.346074 -0.561904 1.041096 0.000000 0.000000 0.000000
0.435845 -0.350865 0.833921 0.000000 0.000000 0.000000
0.455520 -0.525797 1.037921 0.000000 0.000000 0.000000
0.422131 -0.485779 0.982152 0.000000 0.000000 0.000000
0.464595 -0.177984 0.764219 0.000000 0.000000 0.000000
0.427237 -0.248552 0.780095 0.000000 0.000000 0.000000
0.344526 -0.568932 1.047529 0.000000 0.000000 0.000000
0.259041 -0.521323 0.957299 0.000000 0.000000 0.000000
0.344682 -0.347044 0.824090 0.000000 0.000000 0.000000
0.294913 -0.527635 0.968649 0.000000 0.000000 0.000000
0.314796 -0.298781 0.780692 0.000000 0.000000 0.000000
0.372820 -0.563980 1.076653 0.000000 0.000000 0.000000
0.386787 -0.565676 1.076779 0.000000 0.000000 0.000000
0.326647 -0.285232 0.773029 0.000000 0.000000 0.000000
0.241616 -0.438138 0.862597 0.000000 0.000000 0.000000
0.322337 -0.303522 0.779689 0.000000 0.000000 0.000000
0.414227 -0.301611 0.801654 0.000000 0.000000 0.000000
0.316869 -0.406818 0.866307 0.000000 0.000000 0.000000
0.498479 -0.209317 0.781904 0.000000 0.000000 0.000000
0.439288 -0.540611 1.045171 0.000000 0.000000 0.000000
0.332613 -0.448034 0.897973 0.000000 0.000000 0.000000
0.246452 -0.443642 0.874238 0.000000 0.000000 0.000000
0.515063 -0.489363 1.006840 0.000000 0.000000 0.000000
0.293285 -0.418053 0.877670 0.000000 0.000000 0.000000
0.294974 -0.335433 0.805580 0.000000 0.000000 0.000000
0.302221 -0.348605 0.826712 0.000000 0.000000 0.000000
0.294038 -0.392908 0.846377 0.000000 0.000000 0.000000
0.455177 -0.251756 0.791401 0.000000 0.000000 0.000000
0.261393 -0.384624 0.847396 0.000000 0.000000 0.000000
0.277344 -0.448771 0.881880 0.000000 0.000000 0.000000
0.512688 -0.435243 0.944476 0.000000 0.000000 0.000000
0.325496 -0.482593 0.937137 0.000000 0.000000 0.000000
0.434733 -0.511506 1.012498 0.000000 0.000000 0.000000
0.368071 -0.564857 1.070120 0.000000 0.000000 0.000000
0.504354 -0.496405 1.002137 0.000000 0.000000 0.000000
0.322013 -0.298012 0.778474 0.000000 0.000000 0.000000
0.454437 -0.268184 0.802613 0.000000 0.000000 0.000000
0.299995 -0.339242 0.815917 0.000000 0.000000 0.000000
0.472829 -0.236043 0.792320 0.000000 0.000000 0.000000
0.483299 -0.475650 0.982645 0.000000 0.000000 0.000000
0.275913 -0.444011 0.882816 0.000000 0.000000 0.000000
0.485147 -0.181114 0.770777 0.000000 0.000000 0.000000
0.519769 -0.289140 0.860609 0.000000 0.000000 0.000000
0.487494 -0.492916 1.011723 0.000000 0.000000 0.000000
0.288733 -0.351180 0.811573 0.000000 0.000000 0.000000
0.319864 -0.324445 0.801624 0.000000 0.000000 0.000000
0.323711 -0.356296 0.829202 0.000000 0.000000 0.000000
0.319354 -0.461997 0.913463 0.000000 0.000000 0.000000
0.302257 -0.338013 0.807279 0.000000 0.000000 0.000000
0.322374 -0.310091 0.796688 0.000000 0.000000 0.000000
0.477191 -0.258874 0.801724 0.000000 0.000000 0.000000
0.280500 -0.554258 0.987730 0.000000 0.000000 0.000000
0.380107 -0.555209 1.061315 0.000000 0.000000 0.000000
0.293736 -0.538692 0.986192 0.000000 0.000000 0.000000
0.502687 -0.184107 0.747311 0.000000 0.000000 0.000000
0.273950 -0.538339 0.973738 0.000000 0.000000 0.000000
0.335956 -0.282110 0.771667 0.000000 0.000000 0.000000
0.400021 -0.214278 0.757687 0.000000 0.000000 0.000000
0.279284 -0.407395 0.856844 0.000000 0.000000 0.000000
0.339150 -0.385684 0.849234 0.000000 0.000000 0.000000
0.517795 -0.345955 0.873696 0.000000 0.000000 0.000000
0.482167 -0.254558 0.790373 0.000000 0.000000 0.000000
0.304662 -0.557924 1.003249 0.000000 0.000000 0.000000
0.449660 -0.254294 0.799146 0.000000 0.000000 0.000000
0.378168 -0.546951 1.049247 0.000000 0.000000 0.000000
0.430037 -0.570393 1.066290 0.000000 0.000000 0.000000
0.429303 -0.563832 1.065771 0.000000 0.000000 0.000000
0.346248 -0.279240 0.770804 0.000000 0.000000 0.000000
0.397538 -0.562640 1.068575 0.000000 0.000000 0.000000
0.474074 -0.270898 0.818849 0.000000 0.000000 0.000000
0.296926 -0.458118 0.905965 0.000000 0.000000 0.000000
0.507793 -0.206585 0.794805 0.000000 0.000000 0.000000
0.398225 -0.544699 1.052804 0.000000 0.000000 0.000000
0.344889 -0.283722 0.772597 0.000000 0.000000 0.000000
0.268222 -0.502377 0.942073 0.000000 0.000000 0.000000
0.351652 -0.567714 1.053695 0.000000 0.000000 0.000000
0.342044 -0.575414 1.050907 0.000000 0.000000 0.000000
0.272882 -0.518258 0.957124 0.000000 0.000000 0.000000
0.342171 -0.293829 0.778347 0.000000 0.000000 0.000000
0.267729 -0.414534 0.849247 0.000000 0.000000 0.000000
0.245082 -0.430612 0.856116 0.000000 0.000000 0.000000
0.341563 -0.572492 1.047815 0.000000 0.000000 0.000000
0.262928 -0.425191 0.859653 0.000000 0.000000 0.000000
0.265012 -0.531498 0.965461 0.000000 0.000000 0.000000
0.321494 -0.530558 0.992143 0.000000 0.000000 0.000000
0.417329 -0.300991 0.813706 0.000000 0.000000 0.000000
0.259691 -0.511182 0.946675 0.000000 0.000000 0.000000
0.258723 -0.437419 0.868123 0.000000 0.000000 0.000000
0.489036 -0.169277 0.753075 0.000000 0.000000 0.000000
0.354023 -0.570107 1.053207 0.000000 0.000000 0.000000
0.340159 -0.568634 1.040232 0.000000 0.000000 0.000000
0.302058 -0.319794 0.789929 0.000000 0.000000 0.000000
0.278234 -0.524038 0.963473 0.000000 0.000000 0.000000
0.459176 -0.169487 0.758118 0.000000 0.000000 0.000000
0.434012 -0.186733 0.763204 0.000000 0.000000 0.000000
0.476760 -0.179767 0.762203 0.000000 0.000000 0.000000
0.503670 -0.328655 0.876162 0.000000 0.000000 0.000000
0.493143 -0.232104 0.797558 0.000000 0.000000 0.000000
0.531686 -0.328487 0.882057 0.000000 0.000000 0.000000
0.354320 -0.447617 0.907499 0.000000 0.000000 0.000000
0.422740 -0.494324 1.005553 0.000000 0.000000 0.000000
0.529151 -0.294861 0.870344 0.000000 0.000000 0.000000
0.469171 -0.222277 0.789250 0.000000 0.000000 0.000000
0.451448 -0.173431 0.758969 0.000000 0.000000 0.000000
0.428171 -0.563173 1.077523 0.000000 0.000000 0.000000
0.535452 -0.326084 0.877023 0.000000 0.000000 0.000000
0.243232 -0.467436 0.904568 0.000000 0.000000 0.000000
0.352861 -0.443785 0.903874 0.000000 0.000000 0.000000
0.452806 -0.547780 1.053943 0.000000 0.000000 0.000000
0.256022 -0.516426 0.943099 0.000000 0.000000 0.000000
0.488572 -0.165887 0.751038 0.000000 0.000000 0.000000
0.527821 -0.305329 0.868213 0.000000 0.000000 0.000000
0.279835 -0.550623 0.988016 0.000000 0.000000 0.000000
0.528123 -0.333169 0.876651 0.000000 0.000000 0.000000
0.386281 -0.421338 0.901399 0.000000 0.000000 0.000000
0.263750 -0.450848 0.881634 0.000000 0.000000 0.000000
0.246301 -0.453612 0.890103 0.000000 0.000000 0.000000
0.494818 -0.503193 1.020025 0.000000 0.000000 0.000000
0.365817 -0.266833 0.747950 0.000000 0.000000 0.000000
0.401659 -0.465614 0.951531 0.000000 0.000000 0.000000
0.377286 -0.426184 0.898951 0.000000 0.000000 0.000000
0.262070 -0.445143 0.873526 0.000000 0.000000 0.000000
0.276126 -0.457215 0.892430 0.000000 0.000000 0.000000
0.509914 -0.495969 1.005341 0.000000 0.000000 0.000000
0.253878 -0.442592 0.875973 0.000000 0.000000 0.000000
0.359750 -0.569552 1.063909 0.000000 0.000000 0.000000
0.503772 -0.165438 0.742687 0.000000 0.000000 0.000000
0.240245 -0.443418 0.872011 0.000000 0.000000 0.000000
0.474305 -0.522739 1.035639 0.000000 0.000000 0.000000
0.494633 -0.310464 0.849149 0.000000 0.000000 0.000000
0.352529 -0.550878 1.034339 0.000000 0.000000 0.000000
0.515886 -0.447973 0.967209 0.000000 0.000000 0.000000
0.241053 -0.447249 0.875105 0.000000 0.000000 0.000000
0.464533 -0.545912 1.050483 0.000000 0.000000 0.000000
0.357126 -0.321917 0.813126 0.000000 0.000000 0.000000
0.524046 -0.454104 0.980012 0.000000 0.000000 0.000000
0.487855 -0.525261 1.038701 0.000000 0.000000 0.000000
0.467755 -0.543028 1.051893 0.000000 0.000000 0.000000
0.344285 -0.333425 0.812775 0.000000 0.000000 0.000000
0.389702 -0.439216 0.920731 0.000000 0.000000 0.000000
0.466622 -0.543956 1.056076 0.000000 0.000000 0.000000
0.520618 -0.451965 0.970434 0.000000 0.000000 0.000000
0.244153 -0.439146 0.872951 0.000000 0.000000 0.000000
0.515905 -0.293787 0.851238 0.000000 0.000000 0.000000
0.541626 -0.370576 0.892149 0.000000 0.000000 0.000000
0.510023 -0.186387 0.753797 0.000000 0.000000 0.000000
0.240560 -0.440142 0.866178 0.000000 0.000000 0.000000
0.452226 -0.178594 0.752885 0.000000 0.000000 0.000000
0.235789 -0.455051 0.886470 0.000000 0.000000 0.000000
0.253955 -0.430820 0.862481 0.000000 0.000000 0.000000
0.237875 -0.455708 0.889853 0.000000 0.000000 0.000000
0.503353 -0.185427 0.756011 0.000000 0.000000 0.000000
0.238757 -0.447112 0.874653 0.000000 0.000000 0.000000
0.238973 -0.445770 0.872736 0.000000 0.000000 0.000000
0.248523 -0.477501 0.918289 0.000000 0.000000 0.000000
0.512420 -0.196738 0.767958 0.000000 0.000000 0.000000
0.249656 -0.513665 0.946753 0.000000 0.000000 0.000000
0.236834 -0.481348 0.917003 0.000000 0.000000 0.000000
0.407034 -0.195487 0.748584 0.000000 0.000000 0.000000
0.514457 -0.199548 0.778362 0.000000 0.000000 0.000000
0.435292 -0.175037 0.755121 0.000000 0.000000 0.000000
0.267154 -0.516445 0.953607 0.000000 0.000000 0.000000
0.427426 -0.187080 0.753777 0.000000 0.000000 0.000000
0.439575 -0.194465 0.769894 0.000000 0.000000 0.000000
0.508673 -0.216083 0.793866 0.000000 0.000000 0.000000
0.247528 -0.486825 0.918663 0.000000 0.000000 0.000000
0.440836 -0.196175 0.767343 0.000000 0.000000 0.000000
0.257234 -0.516239 0.953976 0.000000 0.000000 0.000000
0.410738 -0.213264 0.753397 0.000000 0.000000 0.000000
0.413816 -0.198418 0.748815 0.000000 0.000000 0.000000
0.407266 -0.193577 0.751155 0.000000 0.000000 0.000000
0.505556 -0.211033 0.791423 0.000000 0.000000 0.000000
0.504904 -0.215075 0.784701 0.000000 0.000000 0.000000
0.425341 -0.185614 0.754244 0.000000 0.000000 0.000000
0.419450 -0.191836 0.752199 0.000000 0.000000 0.000000
0.498041 -0.312586 0.859902 0.000000 0.000000 0.000000
0.393534 -0.211062 0.749121 0.000000 0.000000 0.000000
0.415902 -0.200968 0.748997 0.000000 0.000000 0.000000
0.456327 -0.179403 0.769823 0.000000 0.000000 0.000000
0.267174 -0.482341 0.912419 0.000000 0.000000 0.000000
0.269004 -0.521517 0.959003 0.000000 0.000000 0.000000
0.457916 -0.167250 0.754464 0.000000 0.000000 0.000000
0.324076 -0.311857 0.778533 0.000000 0.000000 0.000000
0.364739 -0.572525 1.066774 0.000000 0.000000 0.000000
0.287562 -0.513198 0.952866 0.000000 0.000000 0.000000
0.397057 -0.556796 1.071902 0.000000 0.000000 0.000000
0.388507 -0.255701 0.766809 0.000000 0.000000 0.000000
0.430507 -0.557236 1.059403 0.000000 0.000000 0.000000
0.522079 -0.464799 0.992565 0.000000 0.000000 0.000000
0.479024 -0.168000 0.758348 0.000000 0.000000 0.000000
0.282588 -0.405777 0.853857 0.000000 0.000000 0.000000
0.325829 -0.289640 0.773102 0.000000 0.000000 0.000000
0.469925 -0.177218 0.760435 0.000000 0.000000 0.000000
0.283673 -0.511428 0.955715 0.000000 0.000000 0.000000
0.259389 -0.515226 0.959054 0.000000 0.000000 0.000000
0.276801 -0.506998 0.944662 0.000000 0.000000 0.000000
0.268915 -0.517073 0.955686 0.000000 0.000000 0.000000
0.342622 -0.556953 1.032646 0.000000 0.000000 0.000000
0.467213 -0.161799 0.754149 0.000000 0.000000 0.000000
0.260992 -0.512205 0.961233 0.000000 0.000000 0.000000
0.267470 -0.523862 0.964070 0.000000 0.000000 0.000000
0.333185 -0.571132 1.039941 0.000000 0.000000 0.000000
0.301447 -0.334578 0.795488 0.000000 0.000000 0.000000
0.478559 -0.525558 1.036665 0.000000 0.000000 0.000000
0.327571 -0.571079 1.033896 0.000000 0.000000 0.000000
0.294642 -0.326521 0.795004 0.000000 0.000000 0.000000
0.412375 -0.194647 0.752046 0.000000 0.000000 0.000000
0.425002 -0.192349 0.755917 0.000000 0.000000 0.000000
0.479211 -0.538534 1.049920 0.000000 0.000000 0.000000
0.502415 -0.353234 0.883918 0.000000 0.000000 0.000000
0.255551 -0.505706 0.937952 0.000000 0.000000 0.000000
0.496645 -0.159966 0.744237 0.000000 0.000000 0.000000
0.460524 -0.165463 0.754976 0.000000 0.000000 0.000000
0.512239 -0.229643 0.803290 0.000000 0.000000 0.000000
0.469117 -0.442875 0.953150 0.000000 0.000000 0.000000
0.521417 -0.436469 0.962645 0.000000 0.000000 0.000000
0.503395 -0.170083 0.749891 0.000000 0.000000 0.000000
0.496520 -0.165407 0.746505 0.000000 0.000000 0.000000
0.462350 -0.164169 0.751447 0.000000 0.000000 0.000000
0.485425 -0.159568 0.746455 0.000000 0.000000 0.000000
0.290645 -0.554903 0.997264 0.000000 0.000000 0.000000
0.535644 -0.333280 0.877399 0.000000 0.000000 0.000000
0.339365 -0.270800 0.761615 0.000000 0.000000 0.000000
0.536704 -0.331559 0.881216 0.000000 0.000000 0.000000
0.403851 -0.206781 0.748831 0.000000 0.000000 0.000000
0.288356 -0.334996 0.799523 0.000000 0.000000 0.000000
0.528720 -0.328824 0.874743 0.000000 0.000000 0.000000
0.497093 -0.518011 1.028826 0.000000 0.000000 0.000000
0.345959 -0.431479 0.885012 0.000000 0.000000 0.000000
0.511618 -0.432122 0.956542 0.000000 0.000000 0.000000
0.275064 -0.470148 0.904876 0.000000 0.000000 0.000000
0.333260 -0.279552 0.770921 0.000000 0.000000 0.000000
0.538262 -0.324628 0.874319 0.000000 0.000000 0.000000
0.510054 -0.280460 0.852957 0.000000 0.000000 0.000000
0.419857 -0.187986 0.751828 0.000000 0.000000 0.000000
0.350269 -0.265795 0.756647 0.000000 0.000000 0.000000
0.303367 -0.336962 0.800938 0.000000 0.000000 0.000000
0.282862 -0.546386 0.982257 0.000000 0.000000 0.000000
0.328662 -0.292183 0.775400 0.000000 0.000000 0.000000
0.372943 -0.245225 0.743780 0.000000 0.000000 0.000000
0.531434 -0.307493 0.872177 0.000000 0.000000 0.000000
0.512778 -0.428798 0.943260 0.000000 0.000000 0.000000
0.514166 -0.284700 0.860590 0.000000 0.000000 0.000000
0.535034 -0.420324 0.934303 0.000000 0.000000 0.000000
0.524492 -0.426799 0.937215 0.000000 0.000000 0.000000
0.416643 -0.291257 0.789869 0.000000 0.000000 0.000000
0.271311 -0.540551 0.973868 0.000000 0.000000 0.000000
0.535340 -0.340151 0.878188 0.000000 0.000000 0.000000
0.460589 -0.392227 0.905870 0.000000 0.000000 0.000000
0.499337 -0.211323 0.786756 0.000000 0.000000 0.000000
0.470689 -0.389591 0.912238 0.000000 0.000000 0.000000
0.327691 -0.561555 1.014377 0.000000 0.000000 0.000000
0.482479 -0.171052 0.756279 0.000000 0.000000 0.000000
0.528468 -0.299159 0.867073 0.000000 0.000000 0.000000
0.266082 -0.519922 0.959365 0.000000 0.000000 0.000000
0.499200 -0.372291 0.904351 0.000000 0.000000 0.000000
0.441445 -0.201478 0.774322 0.000000 0.000000 0.000000
0.308496 -0.549610 0.996387 0.000000 0.000000 0.000000
0.466985 -0.164514 0.755162 0.000000 0.000000 0.000000
0.543543 -0.340033 0.875401 0.000000 0.000000 0.000000
0.265488 -0.537081 0.969811 0.000000 0.000000 0.000000
0.273632 -0.515991 0.951427 0.000000 0.000000 0.000000
0.247785 -0.518977 0.950303 0.000000 0.000000 0.000000
0.446896 -0.184308 0.766545 0.000000 0.000000 0.000000
0.401006 -0.200946 0.746975 0.000000 0.000000 0.000000
0.390143 -0.216404 0.747239 0.000000 0.000000 0.000000
0.245649 -0.510058 0.946199 0.000000 0.000000 0.000000
0.265765 -0.512931 0.948575 0.000000 0.000000 0.000000
0.508113 -0.268834 0.843910 0.000000 0.000000 0.000000
0.249764 -0.517148 0.948760 0.000000 0.000000 0.000000
0.246237 -0.510003 0.941732 0.000000 0.000000 0.000000
0.394782 -0.216428 0.745708 0.000000 0.000000 0.000000
0.474803 -0.181368 0.761327 0.000000 0.000000 0.000000
0.528036 -0.404211 0.921011 0.000000 0.000000 0.000000
0.286176 -0.536572 0.977761 0.000000 0.000000 0.000000
0.531336 -0.412246 0.925517 0.000000 0.000000 0.000000
0.272057 -0.547179 0.978446 0.000000 0.000000 0.000000
0.280899 -0.536849 0.977370 0.000000 0.000000 0.000000
0.274187 -0.536935 0.973036 0.000000 0.000000 0.000000
0.372789 -0.564944 1.071787 0.000000 0.000000 0.000000
0.532976 -0.421646 0.937068 0.000000 0.000000 0.000000
0.526477 -0.342766 0.883837 0.000000 0.000000 0.000000
0.520408 -0.426810 0.927385 0.000000 0.000000 0.000000
0.523111 -0.425727 0.942911 0.000000 0.000000 0.000000
0.519420 -0.292257 0.860210 0.000000 0.000000 0.000000
0.288851 -0.323417 0.799958 0.000000 0.000000 0.000000
0.521958 -0.422218 0.930559 0.000000 0.000000 0.000000
0.519035 -0.332676 0.887294 0.000000 0.000000 0.000000
0.520535 -0.399588 0.913316 0.000000 0.000000 0.000000
0.537150 -0.403326 0.917806 0.000000 0.000000 0.000000
0.359975 -0.569703 1.065697 0.000000 0.000000 0.000000
0.509440 -0.214572 0.782056 0.000000 0.000000 0.000000
0.537601 -0.338263 0.871068 0.000000 0.000000 0.000000
0.294783 -0.320703 0.791350 0.000000 0.000000 0.000000
0.500932 -0.226853 0.796374 0.000000 0.000000 0.000000
0.235809 -0.450366 0.884017 0.000000 0.000000 0.000000
0.379134 -0.563590 1.077103 0.000000 0.000000 0.000000
0.511999 -0.268907 0.851841 0.000000 0.000000 0.000000
0.501676 -0.231640 0.803606 0.000000 0.000000 0.000000
0.524432 -0.413930 0.920010 0.000000 0.000000 0.000000
0.519065 -0.411364 0.916653 0.000000 0.000000 0.000000
0.505848 -0.228704 0.818698 0.000000 0.000000 0.000000
0.299093 -0.319215 0.801927 0.000000 0.000000 0.000000
0.513545 -0.432498 0.937947 0.000000 0.000000 0.000000
0.531795 -0.331480 0.876881 0.000000 0.000000 0.000000
0.507954 -0.413141 0.922442 0.000000 0.000000 0.000000
0.528214 -0.388369 0.904408 0.000000 0.000000 0.000000
0.526775 -0.417755 0.928669 0.000000 0.000000 0.000000
0.377034 -0.266028 0.780165 0.000000 0.000000 0.000000
0.424602 -0.183652 0.755190 0.000000 0.000000 0.000000
0.511371 -0.209995 0.790652 0.000000 0.000000 0.000000
0.294204 -0.514576 0.955117 0.000000 0.000000 0.000000
0.490437 -0.259021 0.811144 0.000000 0.000000 0.000000
0.236771 -0.451059 0.880991 0.000000 0.000000 0.000000
0.287485 -0.556846 0.995390 0.000000 0.000000 0.000000
0.375305 -0.264194 0.760299 0.000000 0.000000 0.000000
0.428380 -0.181296 0.756251 0.000000 0.000000 0.000000
0.419368 -0.181242 0.753431 0.000000 0.000000 0.000000
0.432282 -0.186301 0.757371 0.000000 0.000000 0.000000
0.386018 -0.234303 0.749916 0.000000 0.000000 0.000000
0.467394 -0.180787 0.765090 0.000000 0.000000 0.000000
0.365455 -0.267762 0.762180 0.000000 0.000000 0.000000
0.371559 -0.255982 0.767559 0.000000 0.000000 0.000000
0.428012 -0.179329 0.755104 0.000000 0.000000 0.000000
0.295992 -0.534936 0.981199 0.000000 0.000000 0.000000
0.492612 -0.175873 0.762974 0.000000 0.000000 0.000000
0.451125 -0.347861 0.855237 0.000000 0.000000 0.000000
0.533938 -0.403062 0.913694 0.000000 0.000000 0.000000
0.479671 -0.334103 0.854255 0.000000 0.000000 0.000000
0.466285 -0.362571 0.865194 0.000000 0.000000 0.000000
0.261852 -0.531910 0.966305 0.000000 0.000000 0.000000
0.498231 -0.337110 0.859362 0.000000 0.000000 0.000000
0.514978 -0.198859 0.763562 0.000000 0.000000 0.000000
0.436539 -0.343464 0.852243 0.000000 0.000000 0.000000
0.264590 -0.535817 0.970077 0.000000 0.000000 0.000000
0.277218 -0.470286 0.908216 0.000000 0.000000 0.000000
0.384227 -0.223311 0.749540 0.000000 0.000000 0.000000
0.489050 -0.158493 0.747827 0.000000 0.000000 0.000000
0.246030 -0.510821 0.948452 0.000000 0.000000 0.000000
0.239058 -0.475235 0.911615 0.000000 0.000000 0.000000
0.541556 -0.328600 0.868857 0.000000 0.000000 0.000000
0.488604 -0.322388 0.851982 0.000000 0.000000 0.000000
0.503334 -0.223190 0.807741 0.000000 0.000000 0.000000
0.246520 -0.485036 0.918069 0.000000 0.000000 0.000000
0.257015 -0.488989 0.927771 0.000000 0.000000 0.000000
0.393562 -0.212172 0.746386 0.000000 0.000000 0.000000
0.502148 -0.212287 0.796176 0.000000 0.000000 0.000000
0.502961 -0.209412 0.804710 0.000000 0.000000 0.000000
0.434737 -0.564968 1.065197 0.000000 0.000000 0.000000
0.494420 -0.160394 0.745179 0.000000 0.000000 0.000000
0.507890 -0.277227 0.862175 0.000000 0.000000 0.000000
0.508971 -0.324201 0.864406 0.000000 0.000000 0.000000
0.257439 -0.472986 0.913255 0.000000 0.000000 0.000000
0.514613 -0.376540 0.896640 0.000000 0.000000 0.000000
0.510570 -0.206653 0.790111 0.000000 0.000000 0.000000
0.537364 -0.335894 0.880545 0.000000 0.000000 0.000000
0.491215 -0.496933 1.011146 0.000000 0.000000 0.000000
0.498041 -0.160502 0.744106 0.000000 0.000000 0.000000
0.495648 -0.477080 0.986255 0.000000 0.000000 0.000000
0.517076 -0.278091 0.866567 0.000000 0.000000 0.000000
0.499434 -0.166102 0.745449 0.000000 0.000000 0.000000
0.489212 -0.165569 0.745471 0.000000 0.000000 0.000000
0.288428 -0.557634 0.991276 0.000000 0.000000 0.000000
0.264039 -0.541243 0.970118 0.000000 0.000000 0.000000
0.288847 -0.358742 0.817435 0.000000 0.000000 0.000000
0.297260 -0.560709 1.001053 0.000000 0.000000 0.000000
0.276500 -0.344397 0.809939 0.000000 0.000000 0.000000
0.275662 -0.355711 0.820323 0.000000 0.000000 0.000000
0.284592 -0.335244 0.805351 0.000000 0.000000 0.000000
0.299596 -0.358017 0.825282 0.000000 0.000000 0.000000
0.260665 -0.532323 0.966630 0.000000 0.000000 0.000000
0.274669 -0.349134 0.811297 0.000000 0.000000 0.000000
0.273515 -0.350198 0.812559 0.000000 0.000000 0.000000
0.280903 -0.343392 0.809692 0.000000 0.000000 0.000000
0.298636 -0.558543 1.002920 0.000000 0.000000 0.000000
0.425927 -0.570638 1.069315 0.000000 0.000000 0.000000
0.501949 -0.517701 1.032687 0.000000 0.000000 0.000000
0.280657 -0.353170 0.829711 0.000000 0.000000 0.000000
0.259159 -0.533312 0.965499 0.000000 0.000000 0.000000
0.524942 -0.286169 0.868243 0.000000 0.000000 0.000000
0.285204 -0.553549 0.992620 0.000000 0.000000 0.000000
0.341436 -0.575063 1.057776 0.000000 0.000000 0.000000
0.544535 -0.360324 0.884250 0.000000 0.000000 0.000000
0.496813 -0.192191 0.785686 0.000000 0.000000 0.000000
0.336107 -0.374458 0.844910 0.000000 0.000000 0.000000
0.508219 -0.200307 0.771083 0.000000 0.000000 0.000000
0.343737 -0.578581 1.055063 0.000000 0.000000 0.000000
0.323539 -0.428125 0.884924 0.000000 0.000000 0.000000
0.262758 -0.522310 0.960935 0.000000 0.000000 0.000000
0.527944 -0.485413 1.001388 0.000000 0.000000 0.000000
0.247134 -0.525736 0.957403 0.000000 0.000000 0.000000
0.515396 -0.268103 0.851151 0.000000 0.000000 0.000000
0.545069 -0.365311 0.892783 0.000000 0.000000 0.000000
0.544223 -0.356868 0.885898 0.000000 0.000000 0.000000
0.492413 -0.183449 0.777944 0.000000 0.000000 0.000000
0.484490 -0.192984 0.778330 0.000000 0.000000 0.000000
0.546310 -0.367378 0.888304 0.000000 0.000000 0.000000
0.300506 -0.309815 0.793793 0.000000 0.000000 0.000000
0.316283 -0.436074 0.890120 0.000000 0.000000 0.000000
0.512986 -0.478630 0.991721 0.000000 0.000000 0.000000
0.380072 -0.262013 0.758453 0.000000 0.000000 0.000000
0.533753 -0.358617 0.882227 0.000000 0.000000 0.000000
0.523757 -0.369345 0.891816 0.000000 0.000000 0.000000
0.522790 -0.349180 0.893037 0.000000 0.000000 0.000000
0.250916 -0.519121 0.952343 0.000000 0.000000 0.000000
0.266209 -0.518924 0.963863 0.000000 0.000000 0.000000
0.245160 -0.512309 0.947102 0.000000 0.000000 0.000000
0.453754 -0.565181 1.057772 0.000000 0.000000 0.000000
0.272683 -0.378053 0.831751 0.000000 0.000000 0.000000
0.462389 -0.219119 0.762639 0.000000 0.000000 0.000000
0.508197 -0.206230 0.776408 0.000000 0.000000 0.000000
0.247023 -0.515461 0.947732 0.000000 0.000000 0.000000
0.501156 -0.299141 0.845810 0.000000 0.000000 0.000000
0.252536 -0.398948 0.842335 0.000000 0.000000 0.000000
0.279018 -0.521066 0.966271 0.000000 0.000000 0.000000
0.256747 -0.524434 0.961024 0.000000 0.000000 0.000000
0.516732 -0.204887 0.781594 0.000000 0.000000 0.000000
0.539377 -0.383321 0.900409 0.000000 0.000000 0.000000
0.260402 -0.528441 0.960933 0.000000 0.000000 0.000000
0.431087 -0.180627 0.754422 0.000000 0.000000 0.000000
0.254298 -0.520693 0.952606 0.000000 0.000000 0.000000
0.528220 -0.379690 0.910751 0.000000 0.000000 0.000000
0.241577 -0.451143 0.891401 0.000000 0.000000 0.000000
0.433851 -0.180497 0.754679 0.000000 0.000000 0.000000
0.422115 -0.186604 0.752293 0.000000 0.000000 0.000000
0.539654 -0.382038 0.909452 0.000000 0.000000 0.000000
0.336419 -0.273395 0.754884 0.000000 0.000000 0.000000
0.510960 -0.212821 0.790169 0.000000 0.000000 0.000000
0.265289 -0.538186 0.968638 0.000000 0.000000 0.000000
0.257341 -0.406608 0.850140 0.000000 0.000000 0.000000
0.274495 -0.438323 0.879123 0.000000 0.000000 0.000000
0.472123 -0.427178 0.924311 0.000000 0.000000 0.000000
0.245357 -0.440755 0.875450 0.000000 0.000000 0.000000
0.249781 -0.410714 0.851156 0.000000 0.000000 0.000000
0.542877 -0.375124 0.901555 0.000000 0.000000 0.000000
0.270700 -0.537046 0.965439 0.000000 0.000000 0.000000
0.355057 -0.565693 1.056575 0.000000 0.000000 0.000000
0.350462 -0.573323 1.056480 0.000000 0.000000 0.000000
0.439731 -0.567863 1.068199 0.000000 0.000000 0.000000
0.351344 -0.573338 1.055954 0.000000 0.000000 0.000000
0.528635 -0.359823 0.887334 0.000000 0.000000 0.000000
0.545448 -0.340091 0.873196 0.000000 0.000000 0.000000
0.516430 -0.340024 0.873078 0.000000 0.000000 0.000000
0.386862 -0.231373 0.751339 0.000000 0.000000 0.000000
0.549149 -0.371716 0.889685 0.000000 0.000000 0.000000
0.380819 -0.236566 0.754861 0.000000 0.000000 0.000000
0.468472 -0.243974 0.782853 0.000000 0.000000 0.000000
0.335761 -0.565828 1.044246 0.000000 0.000000 0.000000
0.358919 -0.561874 1.056175 0.000000 0.000000 0.000000
0.350979 -0.563614 1.047976 0.000000 0.000000 0.000000
0.363028 -0.554870 1.045522 0.000000 0.000000 0.000000
0.423872 -0.273848 0.798251 0.000000 0.000000 0.000000
0.383509 -0.241303 0.747719 0.000000 0.000000 0.000000
0.434315 -0.568919 1.067754 0.000000 0.000000 0.000000
0.388795 -0.247683 0.754853 0.000000 0.000000 0.000000
0.458113 -0.547725 1.057178 0.000000 0.000000 0.000000
0.519718 -0.470859 0.978135 0.000000 0.000000 0.000000
0.335876 -0.569783 1.040866 0.000000 0.000000 0.000000
0.480903 -0.274149 0.814713 0.000000 0.000000 0.000000
0.533582 -0.366345 0.899656 0.000000 0.000000 0.000000
0.525518 -0.291337 0.870830 0.000000 0.000000 0.000000
0.521150 -0.281793 0.860342 0.000000 0.000000 0.000000
0.511327 -0.252935 0.837697 0.000000 0.000000 0.000000
0.540290 -0.405892 0.919346 0.000000 0.000000 0.000000
0.240632 -0.459354 0.904001 0.000000 0.000000 0.000000
0.545260 -0.372311 0.895271 0.000000 0.000000 0.000000
0.508823 -0.241246 0.829559 0.000000 0.000000 0.000000
0.456078 -0.417060 0.911432 0.000000 0.000000 0.000000
0.250722 -0.435084 0.880683 0.000000 0.000000 0.000000
0.382324 -0.244386 0.757315 0.000000 0.000000 0.000000
0.541831 -0.339772 0.879489 0.000000 0.000000 0.000000
0.382575 -0.237962 0.755488 0.000000 0.000000 0.000000
0.468365 -0.248102 0.791896 0.000000 0.000000 0.000000
0.362824 -0.568749 1.066576 0.000000 0.000000 0.000000
0.353762 -0.562228 1.049755 0.000000 0.000000 0.000000
0.452241 -0.282829 0.818416 0.000000 0.000000 0.000000
0.383106 -0.231199 0.750862 0.000000 0.000000 0.000000
0.474656 -0.291143 0.826044 0.000000 0.000000 0.000000
0.543365 -0.381292 0.899644 0.000000 0.000000 0.000000
0.526574 -0.311083 0.870496 0.000000 0.000000 0.000000
0.523947 -0.297239 0.874438 0.000000 0.000000 0.000000
0.528211 -0.314857 0.869913 0.000000 0.000000 0.000000
0.538927 -0.377356 0.905800 0.000000 0.000000 0.000000
0.508441 -0.241544 0.828995 0.000000 0.000000 0.000000
0.537137 -0.347210 0.876935 0.000000 0.000000 0.000000
0.525371 -0.378525 0.894952 0.000000 0.000000 0.000000
0.248255 -0.422876 0.863845 0.000000 0.000000 0.000000
0.246890 -0.433001 0.861281 0.000000 0.000000 0.000000
0.538587 -0.356761 0.892792 0.000000 0.000000 0.000000
0.486385 -0.533549 1.042004 0.000000 0.000000 0.000000
0.458753 -0.271094 0.807512 0.000000 0.000000 0.000000
0.307168 -0.549101 0.995831 0.000000 0.000000 0.000000
0.286593 -0.524236 0.976627 0.000000 0.000000 0.000000
0.484148 -0.510909 1.021602 0.000000 0.000000 0.000000
0.469399 -0.545290 1.055672 0.000000 0.000000 0.000000
0.547058 -0.354880 0.882234 0.000000 0.000000 0.000000
0.408863 -0.566889 1.069635 0.000000 0.000000 0.000000
0.472335 -0.281101 0.811427 0.000000 0.000000 0.000000
0.251698 -0.514810 0.951752 0.000000 0.000000 0.000000
0.374938 -0.568727 1.063989 0.000000 0.000000 0.000000
0.403436 -0.553911 1.060413 0.000000 0.000000 0.000000
0.471678 -0.544753 1.055241 0.000000 0.000000 0.000000
0.255961 -0.523072 0.956057 0.000000 0.000000 0.000000
0.244579 -0.511047 0.941319 0.000000 0.000000 0.000000
0.517517 -0.432288 0.946422 0.000000 0.000000 0.000000
0.245961 -0.422586 0.849909 0.000000 0.000000 0.000000
0.254223 -0.507121 0.940219 0.000000 0.000000 0.000000
0.540763 -0.363329 0.888882 0.000000 0.000000 0.000000
0.385251 -0.555684 1.064096 0.000000 0.000000 0.000000
0.394590 -0.569081 1.074398 0.000000 0.000000 0.000000
0.387420 -0.226255 0.750637 0.000000 0.000000 0.000000
0.485667 -0.523551 1.034332 0.000000 0.000000 0.000000
0.244538 -0.428322 0.854995 0.000000 0.000000 0.000000
0.290567 -0.549209 0.987666 0.000000 0.000000 0.000000
0.252235 -0.516885 0.950439 0.000000 0.000000 0.000000
0.393857 -0.561493 1.069978 0.000000 0.000000 0.000000
0.528973 -0.419888 0.932391 0.000000 0.000000 0.000000
0.532951 -0.438567 0.953622 0.000000 0.000000 0.000000
0.543500 -0.383635 0.901467 0.000000 0.000000 0.000000
0.385046 -0.558823 1.068103 0.000000 0.000000 0.000000
0.380162 -0.232183 0.743654 0.000000 0.000000 0.000000
0.243949 -0.433661 0.859155 0.000000 0.000000 0.000000
0.526669 -0.435166 0.957139 0.000000 0.000000 0.000000
0.254135 -0.420528 0.861521 0.000000 0.000000 0.000000
0.264025 -0.432074 0.861297 0.000000 0.000000 0.000000
0.345980 -0.271828 0.765902 0.000000 0.000000 0.000000
0.403280 -0.565480 1.071284 0.000000 0.000000 0.000000
0.408603 -0.570041 1.070715 0.000000 0.000000 0.000000
0.511213 -0.439011 0.950222 0.000000 0.000000 0.000000
0.542604 -0.385427 0.903676 0.000000 0.000000 0.000000
0.255289 -0.520112 0.958812 0.000000 0.000000 0.000000
0.541354 -0.369130 0.888225 0.000000 0.000000 0.000000
0.407607 -0.559816 1.065623 0.000000 0.000000 0.000000
0.532829 -0.380924 0.908934 0.000000 0.000000 0.000000
0.541686 -0.387646 0.905001 0.000000 0.000000 0.000000
0.264726 -0.430133 0.870241 0.000000 0.000000 0.000000
0.381114 -0.227781 0.745245 0.000000 0.000000 0.000000
0.247823 -0.436367 0.869332 0.000000 0.000000 0.000000
0.536895 -0.386860 0.902919 0.000000 0.000000 0.000000
0.472293 -0.353383 0.867916 0.000000 0.000000 0.000000
0.247120 -0.426691 0.853686 0.000000 0.000000 0.000000
0.241365 -0.435286 0.861196 0.000000 0.000000 0.000000
0.540637 -0.374772 0.901595 0.000000 0.000000 0.000000
0.511413 -0.229523 0.819913 0.000000 0.000000 0.000000
0.501342 -0.235576 0.830588 0.000000 0.000000 0.000000
0.414098 -0.565084 1.067762 0.000000 0.000000 0.000000
0.394552 -0.565335 1.075636 0.000000 0.000000 0.000000
0.541140 -0.392231 0.911235 0.000000 0.000000 0.000000
0.542641 -0.394700 0.909039 0.000000 0.000000 0.000000
0.253791 -0.427930 0.859425 0.000000 0.000000 0.000000
0.377845 -0.234107 0.743399 0.000000 0.000000 0.000000
0.241597 -0.434593 0.867433 0.000000 0.000000 0.000000
0.530807 -0.398214 0.912122 0.000000 0.000000 0.000000
0.242718 -0.431866 0.858701 0.000000 0.000000 0.000000
0.244714 -0.511620 0.941450 0.000000 0.000000 0.000000
0.540294 -0.364721 0.896924 0.000000 0.000000 0.000000
0.396369 -0.562116 1.074476 0.000000 0.000000 0.000000
0.496723 -0.162292 0.747177 0.000000 0.000000 0.000000
0.498088 -0.161459 0.746137 0.000000 0.000000 0.000000
0.250222 -0.520313 0.954106 0.000000 0.000000 0.000000
0.496901 -0.159194 0.743563 0.000000 0.000000 0.000000
0.495342 -0.161097 0.743900 0.000000 0.000000 0.000000
0.295680 -0.554206 0.997206 0.000000 0.000000 0.000000
0.245870 -0.505114 0.936256 0.000000 0.000000 0.000000
0.248389 -0.505527 0.940962 0.000000 0.000000 0.000000
0.501054 -0.173283 0.750949 0.000000 0.000000 0.000000
0.289768 -0.554752 1.001648 0.000000 0.000000 0.000000
0.286161 -0.553148 0.992167 0.000000 0.000000 0.000000
0.297380 -0.547501 0.991255 0.000000 0.000000 0.000000
0.249279 -0.505061 0.939069 0.000000 0.000000 0.000000
0.504398 -0.171196 0.746657 0.000000 0.000000 0.000000
0.496621 -0.159038 0.744065 0.000000 0.000000 0.000000
0.329793 -0.573923 1.037396 0.000000 0.000000 0.000000
0.300623 -0.552848 1.003414 0.000000 0.000000 0.000000
0.380741 -0.569988 1.075176 0.000000 0.000000 0.000000
0.378909 -0.564987 1.071468 0.000000 0.000000 0.000000
0.502089 -0.243488 0.835040 0.000000 0.000000 0.000000
0.302456 -0.310465 0.787206 0.000000 0.000000 0.000000
0.385057 -0.568123 1.079902 0.000000 0.000000 0.000000
0.498649 -0.165271 0.744035 0.000000 0.000000 0.000000
0.490814 -0.191700 0.752240 0.000000 0.000000 0.000000
0.238574 -0.490312 0.925095 0.000000 0.000000 0.000000
0.489481 -0.171449 0.752223 0.000000 0.000000 0.000000
0.306066 -0.313494 0.787237 0.000000 0.000000 0.000000
0.506972 -0.382761 0.893606 0.000000 0.000000 0.000000
0.356248 -0.559435 1.053673 0.000000 0.000000 0.000000
0.517569 -0.189975 0.757812 0.000000 0.000000 0.000000
0.511603 -0.238982 0.830302 0.000000 0.000000 0.000000
0.470709 -0.190256 0.756861 0.000000 0.000000 0.000000
0.369146 -0.544327 1.041579 0.000000 0.000000 0.000000
0.311665 -0.566297 1.017652 0.000000 0.000000 0.000000
0.491977 -0.154302 0.743870 0.000000 0.000000 0.000000
0.296640 -0.311834 0.785656 0.000000 0.000000 0.000000
0.493573 -0.167484 0.751458 0.000000 0.000000 0.000000
0.521103 -0.390722 0.903564 0.000000 0.000000 0.000000
0.488415 -0.171571 0.752472 0.000000 0.000000 0.000000
0.527329 -0.287724 0.867403 0.000000 0.000000 0.000000
0.447816 -0.539588 1.048390 0.000000 0.000000 0.000000
0.387254 -0.556865 1.070930 0.000000 0.000000 0.000000
0.510911 -0.221277 0.810486 0.000000 0.000000 0.000000
0.504790 -0.443464 0.953306 0.000000 0.000000 0.000000
0.357721 -0.567611 1.058947 0.000000 0.000000 0.000000
0.533797 -0.433400 0.954620 0.000000 0.000000 0.000000
0.490185 -0.156623 0.746776 0.000000 0.000000 0.000000
0.250543 -0.438194 0.858137 0.000000 0.000000 0.000000
0.497130 -0.524891 1.036219 0.000000 0.000000 0.000000
0.365589 -0.557414 1.059460 0.000000 0.000000 0.000000
0.343444 -0.570569 1.054228 0.000000 0.000000 0.000000
0.258672 -0.422921 0.853692 0.000000 0.000000 0.000000
0.245966 -0.424120 0.850779 0.000000 0.000000 0.000000
0.400590 -0.564313 1.076088 0.000000 0.000000 0.000000
0.354146 -0.523981 0.993186 0.000000 0.000000 0.000000
0.498031 -0.453147 0.960071 0.000000 0.000000 0.000000
0.465598 -0.422039 0.923764 0.000000 0.000000 0.000000
0.431419 -0.383593 0.868591 0.000000 0.000000 0.000000
0.482211 -0.214244 0.775217 0.000000 0.000000 0.000000
0.497515 -0.294273 0.847844 0.000000 0.000000 0.000000
0.354231 -0.554358 1.039851 0.000000 0.000000 0.000000
0.476141 -0.503310 1.014982 0.000000 0.000000 0.000000
0.391718 -0.527322 1.022793 0.000000 0.000000 0.000000
0.345459 -0.550056 1.035905 0.000000 0.000000 0.000000
0.482732 -0.484019 0.989649 0.000000 0.000000 0.000000
0.507470 -0.280956 0.843427 0.000000 0.000000 0.000000
0.288905 -0.453883 0.894879 0.000000 0.000000 0.000000
0.480406 -0.349108 0.865409 0.000000 0.000000 0.000000
0.450035 -0.270765 0.796926 0.000000 0.000000 0.000000
0.443738 -0.520357 1.027080 0.000000 0.000000 0.000000
0.433551 -0.365597 0.867099 0.000000 0.000000 0.000000
0.522517 -0.450811 0.962540 0.000000 0.000000 0.000000
0.364427 -0.443720 0.907333 0.000000 0.000000 0.000000
0.353539 -0.480361 0.946547 0.000000 0.000000 0.000000
0.502919 -0.291855 0.848582 0.000000 0.000000 0.000000
0.351765 -0.553234 1.048868 0.000000 0.000000 0.000000
0.430600 -0.543387 1.072748 0.000000 0.000000 0.000000
0.474662 -0.523652 1.023698 0.000000 0.000000 0.000000
0.427585 -0.422729 0.909746 0.000000 0.000000 0.000000
0.405122 -0.314122 0.813639 0.000000 0.000000 0.000000
0.391412 -0.541742 1.038330 0.000000 0.000000 0.000000
0.401041 -0.538303 1.036543 0.000000 0.000000 0.000000
0.388743 -0.508705 1.003725 0.000000 0.000000 0.000000
0.373847 -0.521456 1.008115 0.000000 0.000000 0.000000
0.360109 -0.504615 0.964265 0.000000 0.000000 0.000000
0.438520 -0.456752 0.952432 0.000000 0.000000 0.000000
0.458085 -0.459211 0.954979 0.000000 0.000000 0.000000
0.330490 -0.462052 0.927694 0.000000 0.000000 0.000000
0.444512 -0.528040 1.036776 0.000000 0.000000 0.000000
0.262685 -0.483065 0.913846 0.000000 0.000000 0.000000
0.413599 -0.521931 1.015280 0.000000 0.000000 0.000000
0.350289 -0.534429 1.005950 0.000000 0.000000 0.000000
0.435517 -0.478316 0.970613 0.000000 0.000000 0.000000
0.438045 -0.518897 1.016736 0.000000 0.000000 0.000000
0.417172 -0.517202 1.024560 0.000000 0.000000 0.000000
0.436895 -0.490903 0.982242 0.000000 0.000000 0.000000
0.419228 -0.530253 1.032792 0.000000 0.000000 0.000000
0.315007 -0.458694 0.913038 0.000000 0.000000 0.000000
0.366056 -0.513034 0.997327 0.000000 0.000000 0.000000
0.425443 -0.533701 1.032046 0.000000 0.000000 0.000000
0.454071 -0.329442 0.848501 0.000000 0.000000 0.000000
0.302086 -0.472853 0.918660 0.000000 0.000000 0.000000
0.495912 -0.357030 0.890173 0.000000 0.000000 0.000000
0.404102 -0.353087 0.854320 0.000000 0.000000 0.000000
0.244369 -0.482454 0.915015 0.000000 0.000000 0.000000
0.358649 -0.551552 1.055219 0.000000 0.000000 0.000000
0.417216 -0.530995 1.055725 0.000000 0.000000 0.000000
0.236565 -0.463594 0.894321 0.000000 0.000000 0.000000
0.328083 -0.499502 0.963363 0.000000 0.000000 0.000000
0.361926 -0.525187 1.006097 0.000000 0.000000 0.000000
0.482440 -0.454764 0.962817 0.000000 0.000000 0.000000
0.457641 -0.451857 0.947371 0.000000 0.000000 0.000000
0.413524 -0.429256 0.917582 0.000000 0.000000 0.000000
0.504650 -0.270717 0.850969 0.000000 0.000000 0.000000
0.412411 -0.321616 0.823663 0.000000 0.000000 0.000000
0.452951 -0.282054 0.803982 0.000000 0.000000 0.000000
0.314834 -0.445567 0.905023 0.000000 0.000000 0.000000
0.441746 -0.429305 0.917637 0.000000 0.000000 0.000000
0.434007 -0.335138 0.841993 0.000000 0.000000 0.000000
0.254919 -0.461529 0.909558 0.000000 0.000000 0.000000
0.238435 -0.472787 0.912762 0.000000 0.000000 0.000000
0.324957 -0.541267 1.007251 0.000000 0.000000 0.000000
0.488292 -0.508243 1.017729 0.000000 0.000000 0.000000
0.451586 -0.531948 1.042369 0.000000 0.000000 0.000000
0.245934 -0.444165 0.879347 0.000000 0.000000 0.000000
0.515645 -0.473034 0.987250 0.000000 0.000000 0.000000
0.318427 -0.495139 0.954185 0.000000 0.000000 0.000000
0.348775 -0.381399 0.853629 0.000000 0.000000 0.000000
0.494913 -0.492890 1.006472 0.000000 0.000000 0.000000
0.366963 -0.516203 0.993637 0.000000 0.000000 0.000000
0.460790 -0.504086 1.007696 0.000000 0.000000 0.000000
0.475228 -0.464900 0.960815 0.000000 0.000000 0.000000
0.400935 -0.422395 0.908839 0.000000 0.000000 0.000000
0.461738 -0.512753 1.006687 0.000000 0.000000 0.000000
0.428509 -0.516095 1.017300 0.000000 0.000000 0.000000
0.376420 -0.535929 1.030957 0.000000 0.000000 0.000000
0.290448 -0.496128 0.949708 0.000000 0.000000 0.000000
0.404287 -0.541344 1.041596 0.000000 0.000000 0.000000
0.358802 -0.473573 0.941529 0.000000 0.000000 0.000000
0.417531 -0.542114 1.048560 0.000000 0.000000 0.000000
0.452448 -0.418350 0.908555 0.000000 0.000000 0.000000
0.380321 -0.458761 0.931312 0.000000 0.000000 0.000000
0.497759 -0.430117 0.936785 0.000000 0.000000 0.000000
0.377072 -0.439167 0.911746 0.000000 0.000000 0.000000
0.317313 -0.453651 0.898264 0.000000 0.000000 0.000000
0.368974 -0.530360 1.017148 0.000000 0.000000 0.000000
0.398954 -0.502023 0.988945 0.000000 0.000000 0.000000
0.415663 -0.518465 1.010922 0.000000 0.000000 0.000000
0.364120 -0.470040 0.932061 0.000000 0.000000 0.000000
0.318662 -0.413276 0.859677 0.000000 0.000000 0.000000
0.389412 -0.542535 1.044921 0.000000 0.000000 0.000000
0.445131 -0.470433 0.965916 0.000000 0.000000 0.000000
0.394804 -0.433522 0.935020 0.000000 0.000000 0.000000
0.335259 -0.525946 0.990342 0.000000 0.000000 0.000000
0.343953 -0.538314 1.010275 0.000000 0.000000 0.000000
0.364405 -0.482395 0.953618 0.000000 0.000000 0.000000
0.482068 -0.502149 1.014904 0.000000 0.000000 0.000000
0.431714 -0.425734 0.923665 0.000000 0.000000 0.000000
0.533576 -0.399706 0.922903 0.000000 0.000000 0.000000
0.472563 -0.521088 1.027906 0.000000 0.000000 0.000000
0.507367 -0.489440 1.008305 0.000000 0.000000 0.000000
0.501690 -0.495302 1.003457 0.000000 0.000000 0.000000
0.458072 -0.483804 0.981690 0.000000 0.000000 0.000000
0.429009 -0.550971 1.058275 0.000000 0.000000 0.000000
0.451081 -0.190941 0.754087 0.000000 0.000000 0.000000
0.343052 -0.407983 0.877189 0.000000 0.000000 0.000000
0.394336 -0.380034 0.877289 0.000000 0.000000 0.000000
0.386979 -0.217571 0.757692 0.000000 0.000000 0.000000
0.390913 -0.394615 0.870495 0.000000 0.000000 0.000000
0.425721 -0.559215 1.066236 0.000000 0.000000 0.000000
