ply
format ascii 1.0
comment VCGLIB generated
obj_info Generated by SPFormer!
element vertex 853
property float x
property float y
property float z
property float nx
property float ny
property float nz
end_header
-0.055293 -0.857203 0.642455 0.000000 0.000000 0.000000
-0.086595 -0.826272 0.649309 0.000000 0.000000 0.000000
-0.062956 -0.891944 0.623798 0.000000 0.000000 0.000000
-0.067471 -0.899200 0.617311 0.000000 0.000000 0.000000
-0.062913 -0.830516 0.652826 0.000000 0.000000 0.000000
-0.073303 -0.814077 0.656696 0.000000 0.000000 0.000000
-0.076627 -0.840179 0.642916 0.000000 0.000000 0.000000
-0.061973 -0.900952 0.619200 0.000000 0.000000 0.000000
-0.073378 -0.861713 0.636030 0.000000 0.000000 0.000000
-0.095250 -0.831703 0.633634 0.000000 0.000000 0.000000
-0.052544 -0.884036 0.630654 0.000000 0.000000 0.000000
-0.059590 -0.912183 0.611475 0.000000 0.000000 0.000000
-0.065916 -0.903455 0.608653 0.000000 0.000000 0.000000
-0.051494 -0.909943 0.616405 0.000000 0.000000 0.000000
-0.058633 -0.917950 0.605004 0.000000 0.000000 0.000000
-0.054105 -0.907161 0.617655 0.000000 0.000000 0.000000
-0.099766 -0.858810 0.624069 0.000000 0.000000 0.000000
-0.085718 -0.877345 0.613357 0.000000 0.000000 0.000000
-0.046052 -0.903681 0.619660 0.000000 0.000000 0.000000
-0.050338 -0.837425 0.649727 0.000000 0.000000 0.000000
-0.065991 -0.900441 0.614227 0.000000 0.000000 0.000000
-0.066982 -0.904840 0.620078 0.000000 0.000000 0.000000
-0.079769 -0.895231 0.604942 0.000000 0.000000 0.000000
-0.095577 -0.797657 0.643461 0.000000 0.000000 0.000000
-0.060568 -0.851101 0.646100 0.000000 0.000000 0.000000
-0.076220 -0.837156 0.648177 0.000000 0.000000 0.000000
-0.078566 -0.832865 0.649875 0.000000 0.000000 0.000000
-0.092666 -0.799885 0.655606 0.000000 0.000000 0.000000
-0.089517 -0.839282 0.651327 0.000000 0.000000 0.000000
-0.066622 -0.894627 0.621699 0.000000 0.000000 0.000000
-0.104994 -0.816984 0.630157 0.000000 0.000000 0.000000
-0.073081 -0.890142 0.625889 0.000000 0.000000 0.000000
-0.102078 -0.841236 0.619135 0.000000 0.000000 0.000000
-0.092835 -0.865589 0.623161 0.000000 0.000000 0.000000
-0.078073 -0.869349 0.630999 0.000000 0.000000 0.000000
-0.066047 -0.874327 0.634612 0.000000 0.000000 0.000000
-0.084847 -0.880721 0.611109 0.000000 0.000000 0.000000
-0.103445 -0.853221 0.611185 0.000000 0.000000 0.000000
-0.069879 -0.820424 0.657669 0.000000 0.000000 0.000000
-0.089986 -0.823729 0.635734 0.000000 0.000000 0.000000
-0.099797 -0.865909 0.611707 0.000000 0.000000 0.000000
-0.083292 -0.860066 0.629822 0.000000 0.000000 0.000000
-0.083822 -0.871654 0.609380 0.000000 0.000000 0.000000
-0.092315 -0.858482 0.631190 0.000000 0.000000 0.000000
-0.085861 -0.861754 0.614803 0.000000 0.000000 0.000000
-0.068533 -0.823646 0.655305 0.000000 0.000000 0.000000
-0.079023 -0.878834 0.622636 0.000000 0.000000 0.000000
-0.101598 -0.856587 0.614042 0.000000 0.000000 0.000000
-0.090401 -0.865337 0.624578 0.000000 0.000000 0.000000
-0.080463 -0.884421 0.621135 0.000000 0.000000 0.000000
-0.089846 -0.877418 0.620931 0.000000 0.000000 0.000000
-0.094151 -0.843206 0.628423 0.000000 0.000000 0.000000
-0.056786 -0.861998 0.640941 0.000000 0.000000 0.000000
-0.065022 -0.912753 0.612643 0.000000 0.000000 0.000000
-0.087288 -0.868973 0.610200 0.000000 0.000000 0.000000
-0.071908 -0.829035 0.652425 0.000000 0.000000 0.000000
-0.064084 -0.890876 0.626531 0.000000 0.000000 0.000000
-0.069425 -0.900345 0.616691 0.000000 0.000000 0.000000
-0.069281 -0.903778 0.609334 0.000000 0.000000 0.000000
-0.104413 -0.824060 0.621785 0.000000 0.000000 0.000000
-0.102933 -0.856096 0.614671 0.000000 0.000000 0.000000
-0.055474 -0.870273 0.636941 0.000000 0.000000 0.000000
-0.072985 -0.888781 0.622379 0.000000 0.000000 0.000000
-0.055980 -0.897919 0.622030 0.000000 0.000000 0.000000
-0.055606 -0.897074 0.623700 0.000000 0.000000 0.000000
-0.058578 -0.844107 0.648198 0.000000 0.000000 0.000000
-0.062762 -0.892680 0.623550 0.000000 0.000000 0.000000
-0.109228 -0.812768 0.626729 0.000000 0.000000 0.000000
-0.054632 -0.917042 0.609919 0.000000 0.000000 0.000000
-0.067360 -0.906059 0.604039 0.000000 0.000000 0.000000
-0.055448 -0.832115 0.652925 0.000000 0.000000 0.000000
-0.104862 -0.854588 0.616574 0.000000 0.000000 0.000000
-0.063759 -0.842974 0.649036 0.000000 0.000000 0.000000
-0.082219 -0.854339 0.636305 0.000000 0.000000 0.000000
-0.071819 -0.898467 0.612008 0.000000 0.000000 0.000000
-0.060448 -0.893513 0.624876 0.000000 0.000000 0.000000
-0.073996 -0.885641 0.623577 0.000000 0.000000 0.000000
-0.065164 -0.822037 0.655192 0.000000 0.000000 0.000000
-0.088227 -0.830432 0.638014 0.000000 0.000000 0.000000
-0.078283 -0.878868 0.626072 0.000000 0.000000 0.000000
-0.074841 -0.865321 0.636756 0.000000 0.000000 0.000000
-0.054988 -0.905549 0.617388 0.000000 0.000000 0.000000
-0.059149 -0.880372 0.632355 0.000000 0.000000 0.000000
-0.081017 -0.837771 0.646943 0.000000 0.000000 0.000000
-0.089820 -0.838013 0.637044 0.000000 0.000000 0.000000
-0.088004 -0.831739 0.642239 0.000000 0.000000 0.000000
-0.080449 -0.827924 0.650440 0.000000 0.000000 0.000000
-0.096699 -0.807464 0.651607 0.000000 0.000000 0.000000
-0.069633 -0.825077 0.653368 0.000000 0.000000 0.000000
-0.070672 -0.887524 0.628002 0.000000 0.000000 0.000000
-0.090189 -0.811713 0.647554 0.000000 0.000000 0.000000
-0.073041 -0.840279 0.647042 0.000000 0.000000 0.000000
-0.075603 -0.906433 0.608771 0.000000 0.000000 0.000000
-0.058014 -0.885253 0.629816 0.000000 0.000000 0.000000
-0.069330 -0.876049 0.631730 0.000000 0.000000 0.000000
-0.086019 -0.862562 0.638252 0.000000 0.000000 0.000000
-0.091139 -0.851090 0.634112 0.000000 0.000000 0.000000
-0.069400 -0.869518 0.635837 0.000000 0.000000 0.000000
-0.073259 -0.834384 0.650298 0.000000 0.000000 0.000000
-0.066536 -0.886407 0.627979 0.000000 0.000000 0.000000
-0.054321 -0.885154 0.629640 0.000000 0.000000 0.000000
-0.056223 -0.911468 0.614275 0.000000 0.000000 0.000000
-0.068041 -0.873381 0.637190 0.000000 0.000000 0.000000
-0.074078 -0.846307 0.645320 0.000000 0.000000 0.000000
-0.081065 -0.839501 0.646813 0.000000 0.000000 0.000000
-0.098586 -0.816543 0.656889 0.000000 0.000000 0.000000
-0.051827 -0.914104 0.610851 0.000000 0.000000 0.000000
-0.055872 -0.849970 0.647073 0.000000 0.000000 0.000000
-0.077407 -0.904284 0.611537 0.000000 0.000000 0.000000
-0.106415 -0.824315 0.614125 0.000000 0.000000 0.000000
-0.051824 -0.870800 0.636461 0.000000 0.000000 0.000000
-0.064017 -0.894877 0.619089 0.000000 0.000000 0.000000
-0.059160 -0.916863 0.608568 0.000000 0.000000 0.000000
-0.081687 -0.796539 0.658539 0.000000 0.000000 0.000000
-0.094253 -0.863029 0.624705 0.000000 0.000000 0.000000
-0.080807 -0.806413 0.656992 0.000000 0.000000 0.000000
-0.093864 -0.820350 0.640264 0.000000 0.000000 0.000000
-0.097230 -0.856798 0.617335 0.000000 0.000000 0.000000
-0.063736 -0.863865 0.638131 0.000000 0.000000 0.000000
-0.073987 -0.856851 0.642648 0.000000 0.000000 0.000000
-0.093643 -0.792331 0.649244 0.000000 0.000000 0.000000
-0.073865 -0.877256 0.630671 0.000000 0.000000 0.000000
-0.065312 -0.830910 0.651722 0.000000 0.000000 0.000000
-0.103850 -0.831244 0.619562 0.000000 0.000000 0.000000
-0.090089 -0.799608 0.659790 0.000000 0.000000 0.000000
-0.080059 -0.881422 0.622543 0.000000 0.000000 0.000000
-0.061761 -0.868546 0.637607 0.000000 0.000000 0.000000
-0.086337 -0.874155 0.623631 0.000000 0.000000 0.000000
-0.070880 -0.889899 0.618670 0.000000 0.000000 0.000000
-0.061527 -0.846689 0.643411 0.000000 0.000000 0.000000
-0.052419 -0.856030 0.643871 0.000000 0.000000 0.000000
-0.069297 -0.881938 0.623670 0.000000 0.000000 0.000000
-0.066833 -0.833342 0.652036 0.000000 0.000000 0.000000
-0.069177 -0.825789 0.654190 0.000000 0.000000 0.000000
-0.064544 -0.851759 0.640643 0.000000 0.000000 0.000000
-0.086161 -0.881337 0.619291 0.000000 0.000000 0.000000
-0.097179 -0.811309 0.638108 0.000000 0.000000 0.000000
-0.051577 -0.911774 0.614805 0.000000 0.000000 0.000000
-0.091848 -0.798679 0.657154 0.000000 0.000000 0.000000
-0.100095 -0.814751 0.636187 0.000000 0.000000 0.000000
-0.091123 -0.853186 0.633922 0.000000 0.000000 0.000000
-0.084117 -0.880663 0.608752 0.000000 0.000000 0.000000
-0.068723 -0.847009 0.646397 0.000000 0.000000 0.000000
-0.097213 -0.866048 0.613998 0.000000 0.000000 0.000000
-0.093858 -0.861285 0.609381 0.000000 0.000000 0.000000
-0.066292 -0.855689 0.642677 0.000000 0.000000 0.000000
-0.065674 -0.906867 0.610841 0.000000 0.000000 0.000000
-0.061954 -0.915747 0.608316 0.000000 0.000000 0.000000
-0.095648 -0.857177 0.624686 0.000000 0.000000 0.000000
-0.087265 -0.815373 0.655092 0.000000 0.000000 0.000000
-0.068178 -0.814929 0.658429 0.000000 0.000000 0.000000
-0.099729 -0.846716 0.619277 0.000000 0.000000 0.000000
-0.056458 -0.892839 0.627281 0.000000 0.000000 0.000000
-0.055510 -0.870985 0.640150 0.000000 0.000000 0.000000
-0.056682 -0.877854 0.633206 0.000000 0.000000 0.000000
-0.070626 -0.873731 0.631981 0.000000 0.000000 0.000000
-0.066375 -0.837404 0.649395 0.000000 0.000000 0.000000
-0.046902 -0.888991 0.627178 0.000000 0.000000 0.000000
-0.044832 -0.865080 0.640652 0.000000 0.000000 0.000000
-0.073974 -0.815140 0.653343 0.000000 0.000000 0.000000
-0.088303 -0.844123 0.641652 0.000000 0.000000 0.000000
-0.090617 -0.867192 0.612173 0.000000 0.000000 0.000000
-0.053671 -0.911725 0.614323 0.000000 0.000000 0.000000
-0.074209 -0.902499 0.608819 0.000000 0.000000 0.000000
-0.078801 -0.822468 0.640739 0.000000 0.000000 0.000000
-0.066616 -0.863914 0.637365 0.000000 0.000000 0.000000
-0.072173 -0.812124 0.658492 0.000000 0.000000 0.000000
-0.056571 -0.864521 0.640044 0.000000 0.000000 0.000000
-0.108735 -0.847703 0.610294 0.000000 0.000000 0.000000
-0.110708 -0.847424 0.610820 0.000000 0.000000 0.000000
-0.092654 -0.797304 0.652093 0.000000 0.000000 0.000000
-0.057521 -0.908367 0.616470 0.000000 0.000000 0.000000
-0.104302 -0.836051 0.624746 0.000000 0.000000 0.000000
-0.070435 -0.890826 0.623416 0.000000 0.000000 0.000000
-0.096622 -0.858922 0.612528 0.000000 0.000000 0.000000
-0.084074 -0.798297 0.659792 0.000000 0.000000 0.000000
-0.047803 -0.839924 0.650046 0.000000 0.000000 0.000000
-0.070355 -0.830272 0.655204 0.000000 0.000000 0.000000
-0.051893 -0.885830 0.628261 0.000000 0.000000 0.000000
-0.103132 -0.848237 0.619536 0.000000 0.000000 0.000000
-0.046641 -0.872965 0.633483 0.000000 0.000000 0.000000
-0.105755 -0.830819 0.610091 0.000000 0.000000 0.000000
-0.084163 -0.895889 0.613811 0.000000 0.000000 0.000000
-0.100272 -0.858461 0.614099 0.000000 0.000000 0.000000
-0.062506 -0.889593 0.623080 0.000000 0.000000 0.000000
-0.095728 -0.865154 0.621106 0.000000 0.000000 0.000000
-0.061639 -0.855680 0.643334 0.000000 0.000000 0.000000
-0.098648 -0.797573 0.644676 0.000000 0.000000 0.000000
-0.060531 -0.864139 0.639922 0.000000 0.000000 0.000000
-0.069226 -0.813284 0.652860 0.000000 0.000000 0.000000
-0.073927 -0.835646 0.650247 0.000000 0.000000 0.000000
-0.070485 -0.821985 0.650614 0.000000 0.000000 0.000000
-0.099298 -0.817919 0.637398 0.000000 0.000000 0.000000
-0.094515 -0.808155 0.651622 0.000000 0.000000 0.000000
-0.093640 -0.802599 0.651860 0.000000 0.000000 0.000000
-0.091971 -0.838376 0.636290 0.000000 0.000000 0.000000
-0.098523 -0.797806 0.645254 0.000000 0.000000 0.000000
-0.097348 -0.825146 0.631276 0.000000 0.000000 0.000000
-0.095783 -0.798691 0.645880 0.000000 0.000000 0.000000
-0.098826 -0.804040 0.661408 0.000000 0.000000 0.000000
-0.095326 -0.828722 0.636034 0.000000 0.000000 0.000000
-0.071905 -0.806188 0.658464 0.000000 0.000000 0.000000
-0.104231 -0.860924 0.616319 0.000000 0.000000 0.000000
-0.086339 -0.872559 0.605044 0.000000 0.000000 0.000000
-0.055938 -0.871757 0.635982 0.000000 0.000000 0.000000
-0.100397 -0.860682 0.618546 0.000000 0.000000 0.000000
-0.073569 -0.898930 0.614000 0.000000 0.000000 0.000000
-0.067017 -0.900647 0.608303 0.000000 0.000000 0.000000
-0.058482 -0.853913 0.641149 0.000000 0.000000 0.000000
-0.080433 -0.796374 0.661199 0.000000 0.000000 0.000000
-0.066839 -0.846501 0.646900 0.000000 0.000000 0.000000
-0.103496 -0.805043 0.636057 0.000000 0.000000 0.000000
-0.096338 -0.804658 0.641462 0.000000 0.000000 0.000000
-0.110584 -0.836068 0.619770 0.000000 0.000000 0.000000
-0.074056 -0.850461 0.644950 0.000000 0.000000 0.000000
-0.089778 -0.855157 0.628958 0.000000 0.000000 0.000000
-0.094076 -0.809355 0.657104 0.000000 0.000000 0.000000
-0.104529 -0.806771 0.636996 0.000000 0.000000 0.000000
-0.101149 -0.845902 0.628523 0.000000 0.000000 0.000000
-0.100501 -0.812921 0.638833 0.000000 0.000000 0.000000
-0.100508 -0.857651 0.608288 0.000000 0.000000 0.000000
-0.102157 -0.856738 0.618452 0.000000 0.000000 0.000000
-0.104422 -0.835729 0.613418 0.000000 0.000000 0.000000
-0.075706 -0.826510 0.652622 0.000000 0.000000 0.000000
-0.051754 -0.917697 0.610942 0.000000 0.000000 0.000000
-0.057551 -0.906864 0.619886 0.000000 0.000000 0.000000
-0.098534 -0.800201 0.641979 0.000000 0.000000 0.000000
-0.045412 -0.868526 0.634604 0.000000 0.000000 0.000000
-0.097321 -0.797739 0.642008 0.000000 0.000000 0.000000
-0.094786 -0.795129 0.647822 0.000000 0.000000 0.000000
-0.086672 -0.808905 0.655035 0.000000 0.000000 0.000000
-0.091816 -0.820130 0.654017 0.000000 0.000000 0.000000
-0.048818 -0.901583 0.620684 0.000000 0.000000 0.000000
-0.081504 -0.807570 0.656362 0.000000 0.000000 0.000000
-0.098386 -0.810386 0.640617 0.000000 0.000000 0.000000
-0.073849 -0.893305 0.604865 0.000000 0.000000 0.000000
-0.101894 -0.808878 0.634924 0.000000 0.000000 0.000000
-0.081416 -0.844809 0.641173 0.000000 0.000000 0.000000
-0.105641 -0.809049 0.636131 0.000000 0.000000 0.000000
-0.078237 -0.810021 0.655491 0.000000 0.000000 0.000000
-0.104228 -0.855865 0.611269 0.000000 0.000000 0.000000
-0.101925 -0.854719 0.617613 0.000000 0.000000 0.000000
-0.105466 -0.822128 0.615736 0.000000 0.000000 0.000000
-0.107701 -0.831699 0.609626 0.000000 0.000000 0.000000
-0.097108 -0.815073 0.639493 0.000000 0.000000 0.000000
-0.062206 -0.862439 0.640530 0.000000 0.000000 0.000000
-0.091211 -0.859202 0.630016 0.000000 0.000000 0.000000
-0.101316 -0.841150 0.628273 0.000000 0.000000 0.000000
-0.103349 -0.806403 0.649698 0.000000 0.000000 0.000000
-0.089878 -0.824266 0.643232 0.000000 0.000000 0.000000
-0.063319 -0.854658 0.644178 0.000000 0.000000 0.000000
-0.083747 -0.843947 0.643451 0.000000 0.000000 0.000000
-0.105003 -0.844199 0.624880 0.000000 0.000000 0.000000
-0.058505 -0.882134 0.633139 0.000000 0.000000 0.000000
-0.076490 -0.897163 0.620931 0.000000 0.000000 0.000000
-0.088448 -0.881258 0.611405 0.000000 0.000000 0.000000
-0.057901 -0.909167 0.611524 0.000000 0.000000 0.000000
-0.062910 -0.905830 0.614296 0.000000 0.000000 0.000000
-0.050952 -0.905630 0.618787 0.000000 0.000000 0.000000
-0.066941 -0.910529 0.613470 0.000000 0.000000 0.000000
-0.056118 -0.913101 0.610203 0.000000 0.000000 0.000000
-0.063873 -0.901185 0.617130 0.000000 0.000000 0.000000
-0.057699 -0.890894 0.625626 0.000000 0.000000 0.000000
-0.069690 -0.892470 0.621075 0.000000 0.000000 0.000000
-0.077104 -0.894814 0.614863 0.000000 0.000000 0.000000
-0.097626 -0.860434 0.620142 0.000000 0.000000 0.000000
-0.064917 -0.893985 0.621011 0.000000 0.000000 0.000000
-0.111803 -0.832275 0.616104 0.000000 0.000000 0.000000
-0.113071 -0.811058 0.633428 0.000000 0.000000 0.000000
-0.047599 -0.908315 0.617845 0.000000 0.000000 0.000000
-0.060943 -0.875544 0.636365 0.000000 0.000000 0.000000
-0.102050 -0.869955 0.613125 0.000000 0.000000 0.000000
-0.103555 -0.819097 0.639579 0.000000 0.000000 0.000000
-0.093641 -0.812480 0.644126 0.000000 0.000000 0.000000
-0.107235 -0.828192 0.622554 0.000000 0.000000 0.000000
-0.062835 -0.836027 0.649856 0.000000 0.000000 0.000000
-0.043572 -0.896547 0.619889 0.000000 0.000000 0.000000
-0.079958 -0.899496 0.612527 0.000000 0.000000 0.000000
-0.060396 -0.842494 0.653888 0.000000 0.000000 0.000000
-0.049091 -0.847981 0.644866 0.000000 0.000000 0.000000
-0.114621 -0.828414 0.617909 0.000000 0.000000 0.000000
-0.062088 -0.838047 0.649484 0.000000 0.000000 0.000000
-0.076740 -0.833922 0.649780 0.000000 0.000000 0.000000
-0.043376 -0.903839 0.616306 0.000000 0.000000 0.000000
-0.066583 -0.839115 0.649456 0.000000 0.000000 0.000000
-0.077950 -0.866313 0.633559 0.000000 0.000000 0.000000
-0.094594 -0.842202 0.634946 0.000000 0.000000 0.000000
-0.079091 -0.823198 0.654110 0.000000 0.000000 0.000000
-0.087568 -0.847848 0.634931 0.000000 0.000000 0.000000
-0.080911 -0.855752 0.635643 0.000000 0.000000 0.000000
-0.086040 -0.847671 0.641619 0.000000 0.000000 0.000000
-0.051594 -0.911768 0.612716 0.000000 0.000000 0.000000
-0.049645 -0.891181 0.626513 0.000000 0.000000 0.000000
-0.048825 -0.913884 0.608948 0.000000 0.000000 0.000000
-0.047290 -0.871306 0.635630 0.000000 0.000000 0.000000
-0.098985 -0.802730 0.642433 0.000000 0.000000 0.000000
-0.096299 -0.830047 0.648564 0.000000 0.000000 0.000000
-0.067161 -0.897474 0.619462 0.000000 0.000000 0.000000
-0.059335 -0.839808 0.649207 0.000000 0.000000 0.000000
-0.066345 -0.811026 0.658074 0.000000 0.000000 0.000000
-0.060982 -0.873817 0.635529 0.000000 0.000000 0.000000
-0.062992 -0.842658 0.647815 0.000000 0.000000 0.000000
-0.055766 -0.848379 0.646778 0.000000 0.000000 0.000000
-0.043391 -0.907518 0.615525 0.000000 0.000000 0.000000
-0.110581 -0.844805 0.610128 0.000000 0.000000 0.000000
-0.055898 -0.902866 0.619880 0.000000 0.000000 0.000000
-0.043943 -0.898637 0.616873 0.000000 0.000000 0.000000
-0.099163 -0.801658 0.637968 0.000000 0.000000 0.000000
-0.105179 -0.807907 0.635559 0.000000 0.000000 0.000000
-0.082875 -0.814612 0.655615 0.000000 0.000000 0.000000
-0.073948 -0.812063 0.658317 0.000000 0.000000 0.000000
-0.048910 -0.879725 0.632034 0.000000 0.000000 0.000000
-0.075651 -0.817811 0.657526 0.000000 0.000000 0.000000
-0.066435 -0.813173 0.655728 0.000000 0.000000 0.000000
-0.053783 -0.924063 0.609592 0.000000 0.000000 0.000000
-0.070928 -0.900115 0.608171 0.000000 0.000000 0.000000
-0.053025 -0.880058 0.633328 0.000000 0.000000 0.000000
-0.076494 -0.894043 0.616877 0.000000 0.000000 0.000000
-0.078657 -0.881759 0.624041 0.000000 0.000000 0.000000
-0.095592 -0.876118 0.609704 0.000000 0.000000 0.000000
-0.055986 -0.894719 0.624642 0.000000 0.000000 0.000000
-0.105057 -0.834475 0.607196 0.000000 0.000000 0.000000
-0.055853 -0.844321 0.648814 0.000000 0.000000 0.000000
-0.057492 -0.847418 0.645863 0.000000 0.000000 0.000000
-0.104404 -0.842042 0.615677 0.000000 0.000000 0.000000
-0.053628 -0.844735 0.648656 0.000000 0.000000 0.000000
-0.105672 -0.826545 0.624797 0.000000 0.000000 0.000000
-0.049633 -0.848716 0.646026 0.000000 0.000000 0.000000
-0.050605 -0.835510 0.651567 0.000000 0.000000 0.000000
-0.098667 -0.798822 0.643024 0.000000 0.000000 0.000000
-0.074805 -0.805018 0.656965 0.000000 0.000000 0.000000
-0.082013 -0.878749 0.625463 0.000000 0.000000 0.000000
-0.075036 -0.817872 0.656942 0.000000 0.000000 0.000000
-0.058036 -0.827512 0.653771 0.000000 0.000000 0.000000
-0.101871 -0.831056 0.631204 0.000000 0.000000 0.000000
-0.058821 -0.818061 0.658126 0.000000 0.000000 0.000000
-0.069443 -0.813524 0.658454 0.000000 0.000000 0.000000
-0.055043 -0.826263 0.654666 0.000000 0.000000 0.000000
-0.105242 -0.852482 0.612375 0.000000 0.000000 0.000000
-0.052182 -0.833500 0.654934 0.000000 0.000000 0.000000
-0.075008 -0.907724 0.610324 0.000000 0.000000 0.000000
-0.090041 -0.816977 0.658770 0.000000 0.000000 0.000000
-0.091193 -0.799595 0.662464 0.000000 0.000000 0.000000
-0.105591 -0.808540 0.635585 0.000000 0.000000 0.000000
-0.052425 -0.849859 0.642982 0.000000 0.000000 0.000000
-0.093280 -0.794178 0.646414 0.000000 0.000000 0.000000
-0.096853 -0.796688 0.645585 0.000000 0.000000 0.000000
-0.098185 -0.790742 0.655710 0.000000 0.000000 0.000000
-0.107032 -0.822365 0.611965 0.000000 0.000000 0.000000
-0.111668 -0.830716 0.624777 0.000000 0.000000 0.000000
-0.070841 -0.906237 0.610443 0.000000 0.000000 0.000000
-0.082427 -0.880752 0.608474 0.000000 0.000000 0.000000
-0.080401 -0.890465 0.620796 0.000000 0.000000 0.000000
-0.110528 -0.850094 0.612449 0.000000 0.000000 0.000000
-0.106140 -0.820709 0.626243 0.000000 0.000000 0.000000
-0.063295 -0.820658 0.654753 0.000000 0.000000 0.000000
-0.109580 -0.812963 0.626909 0.000000 0.000000 0.000000
-0.063050 -0.812040 0.657569 0.000000 0.000000 0.000000
-0.103564 -0.820049 0.627639 0.000000 0.000000 0.000000
-0.043588 -0.911747 0.614569 0.000000 0.000000 0.000000
-0.104956 -0.816619 0.635206 0.000000 0.000000 0.000000
-0.079017 -0.901025 0.608629 0.000000 0.000000 0.000000
-0.102684 -0.857888 0.609223 0.000000 0.000000 0.000000
-0.104550 -0.814060 0.634945 0.000000 0.000000 0.000000
-0.055695 -0.841247 0.649377 0.000000 0.000000 0.000000
-0.051506 -0.902199 0.613798 0.000000 0.000000 0.000000
-0.091194 -0.867392 0.616605 0.000000 0.000000 0.000000
-0.064534 -0.894091 0.622575 0.000000 0.000000 0.000000
-0.091499 -0.884098 0.608155 0.000000 0.000000 0.000000
-0.105939 -0.810172 0.634587 0.000000 0.000000 0.000000
-0.066802 -0.887143 0.627661 0.000000 0.000000 0.000000
-0.111157 -0.828746 0.617860 0.000000 0.000000 0.000000
-0.067811 -0.905658 0.609546 0.000000 0.000000 0.000000
-0.067171 -0.898934 0.616636 0.000000 0.000000 0.000000
-0.067010 -0.904372 0.613796 0.000000 0.000000 0.000000
-0.051917 -0.909943 0.617791 0.000000 0.000000 0.000000
-0.061993 -0.906087 0.617013 0.000000 0.000000 0.000000
-0.061612 -0.877024 0.632938 0.000000 0.000000 0.000000
-0.098548 -0.800068 0.644693 0.000000 0.000000 0.000000
-0.054908 -0.906894 0.615929 0.000000 0.000000 0.000000
-0.061917 -0.818005 0.654355 0.000000 0.000000 0.000000
-0.066515 -0.906249 0.606886 0.000000 0.000000 0.000000
-0.079929 -0.895405 0.602365 0.000000 0.000000 0.000000
-0.066083 -0.896090 0.623955 0.000000 0.000000 0.000000
-0.067205 -0.915563 0.611647 0.000000 0.000000 0.000000
-0.083317 -0.800413 0.660719 0.000000 0.000000 0.000000
-0.046703 -0.897783 0.622172 0.000000 0.000000 0.000000
-0.076067 -0.902749 0.611837 0.000000 0.000000 0.000000
-0.064126 -0.909723 0.608822 0.000000 0.000000 0.000000
-0.044880 -0.917346 0.610814 0.000000 0.000000 0.000000
-0.085809 -0.883173 0.612440 0.000000 0.000000 0.000000
-0.106203 -0.809340 0.635297 0.000000 0.000000 0.000000
-0.104912 -0.825922 0.614633 0.000000 0.000000 0.000000
-0.062954 -0.803956 0.656782 0.000000 0.000000 0.000000
-0.078938 -0.801815 0.660154 0.000000 0.000000 0.000000
-0.049557 -0.908138 0.617154 0.000000 0.000000 0.000000
-0.070848 -0.816604 0.656292 0.000000 0.000000 0.000000
-0.074642 -0.804832 0.658640 0.000000 0.000000 0.000000
-0.052903 -0.911327 0.615286 0.000000 0.000000 0.000000
-0.111898 -0.836606 0.609388 0.000000 0.000000 0.000000
-0.097521 -0.876120 0.606881 0.000000 0.000000 0.000000
-0.071830 -0.903318 0.617693 0.000000 0.000000 0.000000
-0.111660 -0.826379 0.620641 0.000000 0.000000 0.000000
-0.112985 -0.834783 0.617543 0.000000 0.000000 0.000000
-0.108729 -0.817125 0.621984 0.000000 0.000000 0.000000
-0.067266 -0.805087 0.658873 0.000000 0.000000 0.000000
-0.106856 -0.829220 0.612409 0.000000 0.000000 0.000000
-0.109341 -0.812228 0.626944 0.000000 0.000000 0.000000
-0.104786 -0.837555 0.615058 0.000000 0.000000 0.000000
-0.102433 -0.854654 0.612042 0.000000 0.000000 0.000000
-0.055993 -0.917845 0.608310 0.000000 0.000000 0.000000
-0.105895 -0.859193 0.617988 0.000000 0.000000 0.000000
-0.108715 -0.829609 0.622443 0.000000 0.000000 0.000000
-0.100993 -0.794738 0.659036 0.000000 0.000000 0.000000
-0.088470 -0.885281 0.608836 0.000000 0.000000 0.000000
-0.084652 -0.879517 0.624078 0.000000 0.000000 0.000000
-0.094828 -0.827725 0.654145 0.000000 0.000000 0.000000
-0.105858 -0.830564 0.613119 0.000000 0.000000 0.000000
-0.097887 -0.806789 0.658935 0.000000 0.000000 0.000000
-0.094365 -0.813752 0.657084 0.000000 0.000000 0.000000
-0.087473 -0.882398 0.610287 0.000000 0.000000 0.000000
-0.085357 -0.877890 0.629854 0.000000 0.000000 0.000000
-0.110377 -0.836733 0.613538 0.000000 0.000000 0.000000
-0.107050 -0.835301 0.608847 0.000000 0.000000 0.000000
-0.087452 -0.882576 0.622467 0.000000 0.000000 0.000000
-0.091504 -0.879307 0.612408 0.000000 0.000000 0.000000
-0.106058 -0.838142 0.608837 0.000000 0.000000 0.000000
-0.089046 -0.865641 0.635077 0.000000 0.000000 0.000000
-0.049263 -0.915686 0.609666 0.000000 0.000000 0.000000
-0.062111 -0.908419 0.612075 0.000000 0.000000 0.000000
-0.073384 -0.904856 0.613527 0.000000 0.000000 0.000000
-0.107130 -0.845479 0.614573 0.000000 0.000000 0.000000
-0.087933 -0.888164 0.608949 0.000000 0.000000 0.000000
-0.043448 -0.854792 0.643539 0.000000 0.000000 0.000000
-0.087107 -0.867027 0.606921 0.000000 0.000000 0.000000
-0.042902 -0.854119 0.637849 0.000000 0.000000 0.000000
-0.056718 -0.873794 0.636036 0.000000 0.000000 0.000000
-0.047903 -0.852806 0.645475 0.000000 0.000000 0.000000
-0.109303 -0.839960 0.609119 0.000000 0.000000 0.000000
-0.068222 -0.846640 0.647013 0.000000 0.000000 0.000000
-0.067597 -0.840453 0.647069 0.000000 0.000000 0.000000
-0.103787 -0.793964 0.653013 0.000000 0.000000 0.000000
-0.045275 -0.854155 0.644915 0.000000 0.000000 0.000000
-0.057792 -0.910328 0.613298 0.000000 0.000000 0.000000
-0.095425 -0.793574 0.660498 0.000000 0.000000 0.000000
-0.051928 -0.866331 0.639384 0.000000 0.000000 0.000000
-0.061449 -0.849075 0.646115 0.000000 0.000000 0.000000
-0.067113 -0.907305 0.611266 0.000000 0.000000 0.000000
-0.083989 -0.791007 0.662453 0.000000 0.000000 0.000000
-0.096545 -0.800915 0.642301 0.000000 0.000000 0.000000
-0.053806 -0.913681 0.609929 0.000000 0.000000 0.000000
-0.111103 -0.842024 0.612640 0.000000 0.000000 0.000000
-0.098280 -0.800965 0.644092 0.000000 0.000000 0.000000
-0.104187 -0.804335 0.641942 0.000000 0.000000 0.000000
-0.084091 -0.790082 0.655505 0.000000 0.000000 0.000000
-0.080530 -0.796144 0.661870 0.000000 0.000000 0.000000
-0.102605 -0.799787 0.641107 0.000000 0.000000 0.000000
-0.085683 -0.790664 0.662037 0.000000 0.000000 0.000000
-0.107807 -0.850587 0.604691 0.000000 0.000000 0.000000
-0.095970 -0.846167 0.645509 0.000000 0.000000 0.000000
-0.103432 -0.849977 0.616740 0.000000 0.000000 0.000000
-0.069523 -0.800519 0.657692 0.000000 0.000000 0.000000
-0.098881 -0.851386 0.610513 0.000000 0.000000 0.000000
-0.087018 -0.883640 0.610709 0.000000 0.000000 0.000000
-0.088397 -0.792289 0.662834 0.000000 0.000000 0.000000
-0.068676 -0.906458 0.611335 0.000000 0.000000 0.000000
-0.053439 -0.823207 0.654559 0.000000 0.000000 0.000000
-0.058203 -0.851831 0.645870 0.000000 0.000000 0.000000
-0.112221 -0.834900 0.617320 0.000000 0.000000 0.000000
-0.047127 -0.852884 0.643862 0.000000 0.000000 0.000000
-0.096010 -0.789787 0.659525 0.000000 0.000000 0.000000
-0.071626 -0.879371 0.629955 0.000000 0.000000 0.000000
-0.065613 -0.817461 0.651903 0.000000 0.000000 0.000000
-0.094121 -0.793966 0.658831 0.000000 0.000000 0.000000
-0.073665 -0.892522 0.620384 0.000000 0.000000 0.000000
-0.061817 -0.835834 0.647144 0.000000 0.000000 0.000000
-0.102712 -0.803643 0.637966 0.000000 0.000000 0.000000
-0.088717 -0.865960 0.609650 0.000000 0.000000 0.000000
-0.103937 -0.838739 0.614324 0.000000 0.000000 0.000000
-0.073776 -0.817443 0.657020 0.000000 0.000000 0.000000
-0.075533 -0.893513 0.619269 0.000000 0.000000 0.000000
-0.092222 -0.798793 0.652389 0.000000 0.000000 0.000000
-0.084466 -0.884916 0.619619 0.000000 0.000000 0.000000
-0.087428 -0.881171 0.618973 0.000000 0.000000 0.000000
-0.077284 -0.894565 0.617064 0.000000 0.000000 0.000000
-0.057930 -0.827015 0.652485 0.000000 0.000000 0.000000
-0.064145 -0.809177 0.657057 0.000000 0.000000 0.000000
-0.054136 -0.807506 0.657291 0.000000 0.000000 0.000000
-0.078667 -0.887288 0.622010 0.000000 0.000000 0.000000
-0.084011 -0.884853 0.614274 0.000000 0.000000 0.000000
-0.088092 -0.877133 0.622789 0.000000 0.000000 0.000000
-0.076497 -0.899675 0.614282 0.000000 0.000000 0.000000
-0.072507 -0.803038 0.662340 0.000000 0.000000 0.000000
-0.051291 -0.813849 0.656010 0.000000 0.000000 0.000000
-0.093239 -0.810099 0.640576 0.000000 0.000000 0.000000
-0.086944 -0.873744 0.609562 0.000000 0.000000 0.000000
-0.100890 -0.825533 0.633168 0.000000 0.000000 0.000000
-0.087948 -0.821086 0.659064 0.000000 0.000000 0.000000
-0.091715 -0.860317 0.608137 0.000000 0.000000 0.000000
-0.064254 -0.806612 0.659466 0.000000 0.000000 0.000000
-0.086506 -0.884913 0.610432 0.000000 0.000000 0.000000
-0.080319 -0.895262 0.608210 0.000000 0.000000 0.000000
-0.082997 -0.890602 0.618363 0.000000 0.000000 0.000000
-0.074870 -0.805806 0.658583 0.000000 0.000000 0.000000
-0.088803 -0.818660 0.647712 0.000000 0.000000 0.000000
-0.079863 -0.891632 0.622243 0.000000 0.000000 0.000000
-0.106013 -0.828472 0.611201 0.000000 0.000000 0.000000
-0.083912 -0.793750 0.663113 0.000000 0.000000 0.000000
-0.091137 -0.816756 0.645811 0.000000 0.000000 0.000000
-0.106419 -0.827047 0.610748 0.000000 0.000000 0.000000
-0.072314 -0.908498 0.614090 0.000000 0.000000 0.000000
-0.078079 -0.804622 0.659690 0.000000 0.000000 0.000000
-0.106380 -0.815896 0.623463 0.000000 0.000000 0.000000
-0.083110 -0.793592 0.659174 0.000000 0.000000 0.000000
-0.078364 -0.802838 0.665742 0.000000 0.000000 0.000000
-0.074776 -0.894004 0.605855 0.000000 0.000000 0.000000
-0.111346 -0.831229 0.604846 0.000000 0.000000 0.000000
-0.098850 -0.804515 0.653049 0.000000 0.000000 0.000000
-0.045460 -0.906115 0.616553 0.000000 0.000000 0.000000
-0.089709 -0.810876 0.646254 0.000000 0.000000 0.000000
-0.084489 -0.853924 0.648526 0.000000 0.000000 0.000000
-0.060314 -0.918268 0.604336 0.000000 0.000000 0.000000
-0.106732 -0.813817 0.635886 0.000000 0.000000 0.000000
-0.094103 -0.862021 0.615839 0.000000 0.000000 0.000000
-0.059968 -0.911983 0.611696 0.000000 0.000000 0.000000
-0.081383 -0.888145 0.608037 0.000000 0.000000 0.000000
-0.072569 -0.901174 0.604824 0.000000 0.000000 0.000000
-0.103480 -0.857843 0.618771 0.000000 0.000000 0.000000
-0.098779 -0.864767 0.618471 0.000000 0.000000 0.000000
-0.055426 -0.837152 0.645536 0.000000 0.000000 0.000000
-0.069212 -0.913638 0.610855 0.000000 0.000000 0.000000
-0.075573 -0.867068 0.633465 0.000000 0.000000 0.000000
-0.107170 -0.844583 0.605651 0.000000 0.000000 0.000000
-0.057375 -0.912259 0.613623 0.000000 0.000000 0.000000
-0.108404 -0.849100 0.609232 0.000000 0.000000 0.000000
-0.062023 -0.822094 0.656117 0.000000 0.000000 0.000000
-0.050492 -0.831738 0.656502 0.000000 0.000000 0.000000
-0.049302 -0.825972 0.655434 0.000000 0.000000 0.000000
-0.058462 -0.812773 0.661740 0.000000 0.000000 0.000000
-0.094304 -0.790178 0.653567 0.000000 0.000000 0.000000
-0.108738 -0.817779 0.624664 0.000000 0.000000 0.000000
-0.057962 -0.918830 0.608984 0.000000 0.000000 0.000000
-0.095302 -0.788902 0.653791 0.000000 0.000000 0.000000
-0.090246 -0.812471 0.657198 0.000000 0.000000 0.000000
-0.116180 -0.831006 0.623056 0.000000 0.000000 0.000000
-0.089747 -0.787963 0.642572 0.000000 0.000000 0.000000
-0.069170 -0.810757 0.657107 0.000000 0.000000 0.000000
-0.090756 -0.820725 0.654962 0.000000 0.000000 0.000000
-0.086208 -0.888171 0.607190 0.000000 0.000000 0.000000
-0.078091 -0.845745 0.647238 0.000000 0.000000 0.000000
-0.089434 -0.792148 0.650722 0.000000 0.000000 0.000000
-0.085053 -0.827451 0.649534 0.000000 0.000000 0.000000
-0.087059 -0.887738 0.604169 0.000000 0.000000 0.000000
-0.110339 -0.838361 0.611073 0.000000 0.000000 0.000000
-0.054492 -0.861355 0.641035 0.000000 0.000000 0.000000
-0.077820 -0.886023 0.605911 0.000000 0.000000 0.000000
-0.048379 -0.863543 0.637225 0.000000 0.000000 0.000000
-0.073357 -0.899288 0.607160 0.000000 0.000000 0.000000
-0.108166 -0.842573 0.611429 0.000000 0.000000 0.000000
-0.104618 -0.823965 0.621507 0.000000 0.000000 0.000000
-0.104884 -0.856583 0.614519 0.000000 0.000000 0.000000
-0.065872 -0.903374 0.608788 0.000000 0.000000 0.000000
-0.050830 -0.858026 0.642602 0.000000 0.000000 0.000000
-0.046411 -0.860871 0.640568 0.000000 0.000000 0.000000
-0.111828 -0.824722 0.615035 0.000000 0.000000 0.000000
-0.107055 -0.853581 0.610766 0.000000 0.000000 0.000000
-0.053178 -0.830142 0.652372 0.000000 0.000000 0.000000
-0.111346 -0.850762 0.610526 0.000000 0.000000 0.000000
-0.104108 -0.825200 0.617538 0.000000 0.000000 0.000000
-0.106741 -0.826841 0.610587 0.000000 0.000000 0.000000
-0.101233 -0.814253 0.637012 0.000000 0.000000 0.000000
-0.111152 -0.843847 0.616128 0.000000 0.000000 0.000000
-0.058950 -0.861090 0.640931 0.000000 0.000000 0.000000
-0.112080 -0.828787 0.616433 0.000000 0.000000 0.000000
-0.055522 -0.880672 0.631837 0.000000 0.000000 0.000000
-0.109726 -0.855120 0.609462 0.000000 0.000000 0.000000
-0.103067 -0.835519 0.618897 0.000000 0.000000 0.000000
-0.078926 -0.858288 0.640967 0.000000 0.000000 0.000000
-0.106785 -0.850780 0.608926 0.000000 0.000000 0.000000
-0.062137 -0.876299 0.632336 0.000000 0.000000 0.000000
-0.106952 -0.851696 0.606932 0.000000 0.000000 0.000000
-0.066762 -0.897770 0.616180 0.000000 0.000000 0.000000
-0.079994 -0.888005 0.609436 0.000000 0.000000 0.000000
-0.104853 -0.845613 0.615025 0.000000 0.000000 0.000000
-0.050612 -0.898454 0.622862 0.000000 0.000000 0.000000
-0.046005 -0.903495 0.616551 0.000000 0.000000 0.000000
-0.051189 -0.895613 0.616889 0.000000 0.000000 0.000000
-0.108069 -0.825684 0.628193 0.000000 0.000000 0.000000
-0.045023 -0.857448 0.643572 0.000000 0.000000 0.000000
-0.108725 -0.843473 0.620286 0.000000 0.000000 0.000000
-0.100767 -0.836498 0.619749 0.000000 0.000000 0.000000
-0.096952 -0.820679 0.635341 0.000000 0.000000 0.000000
-0.108829 -0.822260 0.635130 0.000000 0.000000 0.000000
-0.081385 -0.866733 0.625698 0.000000 0.000000 0.000000
-0.100846 -0.835218 0.631728 0.000000 0.000000 0.000000
-0.095164 -0.808625 0.643970 0.000000 0.000000 0.000000
-0.073655 -0.897752 0.609109 0.000000 0.000000 0.000000
-0.066812 -0.901490 0.604952 0.000000 0.000000 0.000000
-0.048174 -0.840692 0.648799 0.000000 0.000000 0.000000
-0.112215 -0.840771 0.615894 0.000000 0.000000 0.000000
-0.062964 -0.907468 0.614430 0.000000 0.000000 0.000000
-0.100696 -0.832663 0.620998 0.000000 0.000000 0.000000
-0.043961 -0.873867 0.634238 0.000000 0.000000 0.000000
-0.087495 -0.879366 0.616034 0.000000 0.000000 0.000000
-0.104909 -0.843274 0.626610 0.000000 0.000000 0.000000
-0.093656 -0.798031 0.651565 0.000000 0.000000 0.000000
-0.085636 -0.881459 0.614213 0.000000 0.000000 0.000000
-0.107139 -0.847999 0.611678 0.000000 0.000000 0.000000
-0.085203 -0.795697 0.655287 0.000000 0.000000 0.000000
-0.105222 -0.849814 0.607866 0.000000 0.000000 0.000000
-0.108115 -0.838792 0.602955 0.000000 0.000000 0.000000
-0.065200 -0.806644 0.658727 0.000000 0.000000 0.000000
-0.047966 -0.841266 0.647856 0.000000 0.000000 0.000000
-0.106357 -0.835048 0.626430 0.000000 0.000000 0.000000
-0.052416 -0.839997 0.649517 0.000000 0.000000 0.000000
-0.088892 -0.877520 0.616403 0.000000 0.000000 0.000000
-0.069842 -0.801474 0.660755 0.000000 0.000000 0.000000
-0.055853 -0.830032 0.654065 0.000000 0.000000 0.000000
-0.046006 -0.841192 0.651826 0.000000 0.000000 0.000000
-0.093096 -0.869650 0.612988 0.000000 0.000000 0.000000
-0.047325 -0.832396 0.650009 0.000000 0.000000 0.000000
-0.103956 -0.847588 0.618656 0.000000 0.000000 0.000000
-0.109726 -0.807629 0.635592 0.000000 0.000000 0.000000
-0.100606 -0.862778 0.611982 0.000000 0.000000 0.000000
-0.083799 -0.791688 0.665562 0.000000 0.000000 0.000000
-0.087554 -0.799052 0.660267 0.000000 0.000000 0.000000
-0.106441 -0.818488 0.620772 0.000000 0.000000 0.000000
-0.048348 -0.902430 0.619841 0.000000 0.000000 0.000000
-0.047356 -0.909152 0.614558 0.000000 0.000000 0.000000
-0.104973 -0.820738 0.620183 0.000000 0.000000 0.000000
-0.109643 -0.829068 0.617537 0.000000 0.000000 0.000000
-0.108801 -0.798989 0.649002 0.000000 0.000000 0.000000
-0.108721 -0.833451 0.616762 0.000000 0.000000 0.000000
-0.100774 -0.871303 0.609286 0.000000 0.000000 0.000000
-0.077394 -0.824829 0.654421 0.000000 0.000000 0.000000
-0.096455 -0.801582 0.657656 0.000000 0.000000 0.000000
-0.097583 -0.843080 0.614682 0.000000 0.000000 0.000000
-0.105818 -0.820755 0.627098 0.000000 0.000000 0.000000
-0.109426 -0.846197 0.611696 0.000000 0.000000 0.000000
-0.102826 -0.866825 0.611095 0.000000 0.000000 0.000000
-0.062636 -0.908283 0.610341 0.000000 0.000000 0.000000
-0.068255 -0.909201 0.608565 0.000000 0.000000 0.000000
-0.069121 -0.910995 0.615184 0.000000 0.000000 0.000000
-0.105786 -0.836938 0.619816 0.000000 0.000000 0.000000
-0.045680 -0.893795 0.622978 0.000000 0.000000 0.000000
-0.044569 -0.904021 0.618507 0.000000 0.000000 0.000000
-0.049225 -0.887348 0.628699 0.000000 0.000000 0.000000
-0.061820 -0.905763 0.610898 0.000000 0.000000 0.000000
-0.060050 -0.909740 0.614617 0.000000 0.000000 0.000000
-0.110887 -0.850360 0.611305 0.000000 0.000000 0.000000
-0.093137 -0.870816 0.615063 0.000000 0.000000 0.000000
-0.098281 -0.856562 0.607476 0.000000 0.000000 0.000000
-0.093114 -0.868757 0.618757 0.000000 0.000000 0.000000
-0.100990 -0.863236 0.615454 0.000000 0.000000 0.000000
-0.048375 -0.857012 0.642906 0.000000 0.000000 0.000000
-0.108227 -0.813026 0.628876 0.000000 0.000000 0.000000
-0.111339 -0.839294 0.614096 0.000000 0.000000 0.000000
-0.100980 -0.809886 0.635636 0.000000 0.000000 0.000000
-0.115349 -0.824114 0.614758 0.000000 0.000000 0.000000
-0.108741 -0.826480 0.614433 0.000000 0.000000 0.000000
-0.107633 -0.840507 0.609169 0.000000 0.000000 0.000000
-0.101582 -0.808239 0.634877 0.000000 0.000000 0.000000
-0.100214 -0.825132 0.622206 0.000000 0.000000 0.000000
-0.105321 -0.840486 0.613265 0.000000 0.000000 0.000000
-0.110308 -0.830966 0.616786 0.000000 0.000000 0.000000
-0.115186 -0.839170 0.607156 0.000000 0.000000 0.000000
-0.112859 -0.844020 0.604092 0.000000 0.000000 0.000000
-0.111846 -0.844579 0.610436 0.000000 0.000000 0.000000
-0.112464 -0.820119 0.611105 0.000000 0.000000 0.000000
-0.102876 -0.839260 0.615913 0.000000 0.000000 0.000000
-0.110100 -0.838171 0.606898 0.000000 0.000000 0.000000
-0.104830 -0.850104 0.618667 0.000000 0.000000 0.000000
-0.107304 -0.810812 0.633568 0.000000 0.000000 0.000000
-0.106867 -0.825040 0.629438 0.000000 0.000000 0.000000
-0.063669 -0.800890 0.659802 0.000000 0.000000 0.000000
-0.044613 -0.851721 0.644495 0.000000 0.000000 0.000000
-0.077223 -0.888103 0.606855 0.000000 0.000000 0.000000
-0.103264 -0.806238 0.643276 0.000000 0.000000 0.000000
-0.104901 -0.814701 0.628821 0.000000 0.000000 0.000000
-0.067053 -0.802769 0.659083 0.000000 0.000000 0.000000
-0.044541 -0.846000 0.646377 0.000000 0.000000 0.000000
-0.075872 -0.894740 0.606022 0.000000 0.000000 0.000000
-0.084468 -0.857734 0.642650 0.000000 0.000000 0.000000
-0.057778 -0.907102 0.616648 0.000000 0.000000 0.000000
-0.097817 -0.795591 0.644027 0.000000 0.000000 0.000000
-0.103549 -0.814560 0.633944 0.000000 0.000000 0.000000
-0.047707 -0.834138 0.651616 0.000000 0.000000 0.000000
-0.044009 -0.856883 0.642132 0.000000 0.000000 0.000000
-0.089662 -0.796636 0.671390 0.000000 0.000000 0.000000
-0.048005 -0.828862 0.650149 0.000000 0.000000 0.000000
-0.052655 -0.875406 0.634922 0.000000 0.000000 0.000000
-0.044838 -0.857303 0.642989 0.000000 0.000000 0.000000
-0.044262 -0.873261 0.632833 0.000000 0.000000 0.000000
-0.109078 -0.811586 0.629646 0.000000 0.000000 0.000000
-0.096122 -0.794892 0.649950 0.000000 0.000000 0.000000
-0.049413 -0.850219 0.645869 0.000000 0.000000 0.000000
-0.049739 -0.876942 0.633906 0.000000 0.000000 0.000000
-0.052751 -0.841912 0.649671 0.000000 0.000000 0.000000
-0.085468 -0.834727 0.655128 0.000000 0.000000 0.000000
-0.045675 -0.874393 0.631735 0.000000 0.000000 0.000000
-0.044891 -0.890349 0.623604 0.000000 0.000000 0.000000
-0.103091 -0.810999 0.633540 0.000000 0.000000 0.000000
-0.085481 -0.807434 0.656631 0.000000 0.000000 0.000000
-0.106369 -0.832705 0.605972 0.000000 0.000000 0.000000
-0.096529 -0.786957 0.651653 0.000000 0.000000 0.000000
-0.106540 -0.812450 0.640824 0.000000 0.000000 0.000000
-0.108158 -0.810711 0.630765 0.000000 0.000000 0.000000
-0.102832 -0.808771 0.640105 0.000000 0.000000 0.000000
-0.045224 -0.852757 0.642947 0.000000 0.000000 0.000000
-0.045989 -0.853753 0.649827 0.000000 0.000000 0.000000
-0.100694 -0.808319 0.637940 0.000000 0.000000 0.000000
-0.061609 -0.808180 0.659002 0.000000 0.000000 0.000000
-0.048772 -0.869221 0.637636 0.000000 0.000000 0.000000
-0.103157 -0.826510 0.629829 0.000000 0.000000 0.000000
-0.053560 -0.913448 0.606978 0.000000 0.000000 0.000000
-0.045108 -0.854326 0.641749 0.000000 0.000000 0.000000
-0.100609 -0.804430 0.636558 0.000000 0.000000 0.000000
-0.062271 -0.806381 0.658174 0.000000 0.000000 0.000000
-0.047747 -0.881565 0.631803 0.000000 0.000000 0.000000
-0.047734 -0.850606 0.648398 0.000000 0.000000 0.000000
-0.047874 -0.905088 0.616395 0.000000 0.000000 0.000000
-0.043684 -0.899197 0.616016 0.000000 0.000000 0.000000
-0.095800 -0.811285 0.659252 0.000000 0.000000 0.000000
-0.064996 -0.811093 0.658774 0.000000 0.000000 0.000000
-0.102511 -0.863616 0.610338 0.000000 0.000000 0.000000
-0.061009 -0.815450 0.657608 0.000000 0.000000 0.000000
-0.109495 -0.816987 0.625104 0.000000 0.000000 0.000000
-0.110400 -0.829233 0.615503 0.000000 0.000000 0.000000
-0.048982 -0.821635 0.653603 0.000000 0.000000 0.000000
-0.108401 -0.818800 0.623838 0.000000 0.000000 0.000000
-0.112508 -0.840078 0.609818 0.000000 0.000000 0.000000
-0.043003 -0.905897 0.616619 0.000000 0.000000 0.000000
-0.090966 -0.843677 0.631741 0.000000 0.000000 0.000000
-0.089754 -0.846461 0.646204 0.000000 0.000000 0.000000
-0.096172 -0.867413 0.619847 0.000000 0.000000 0.000000
-0.051843 -0.899710 0.623024 0.000000 0.000000 0.000000
-0.050605 -0.818782 0.654557 0.000000 0.000000 0.000000
-0.079555 -0.865845 0.636241 0.000000 0.000000 0.000000
-0.099318 -0.864404 0.611346 0.000000 0.000000 0.000000
-0.048240 -0.899380 0.622668 0.000000 0.000000 0.000000
-0.109654 -0.841889 0.622619 0.000000 0.000000 0.000000
-0.109907 -0.856015 0.612367 0.000000 0.000000 0.000000
-0.104095 -0.857882 0.613108 0.000000 0.000000 0.000000
-0.106436 -0.867757 0.609660 0.000000 0.000000 0.000000
-0.053439 -0.915700 0.615558 0.000000 0.000000 0.000000
-0.108155 -0.841355 0.618855 0.000000 0.000000 0.000000
-0.105139 -0.855834 0.619606 0.000000 0.000000 0.000000
-0.111782 -0.825210 0.617691 0.000000 0.000000 0.000000
-0.112730 -0.854269 0.607390 0.000000 0.000000 0.000000
-0.100923 -0.847896 0.604293 0.000000 0.000000 0.000000
-0.111659 -0.847922 0.607994 0.000000 0.000000 0.000000
-0.106002 -0.834217 0.607908 0.000000 0.000000 0.000000
-0.104368 -0.836877 0.606862 0.000000 0.000000 0.000000
-0.063497 -0.909560 0.610450 0.000000 0.000000 0.000000
-0.110999 -0.826171 0.617164 0.000000 0.000000 0.000000
-0.047092 -0.835671 0.652979 0.000000 0.000000 0.000000
-0.104653 -0.831709 0.608714 0.000000 0.000000 0.000000
-0.052964 -0.918218 0.609542 0.000000 0.000000 0.000000
-0.110080 -0.839521 0.609187 0.000000 0.000000 0.000000
-0.101630 -0.805354 0.637205 0.000000 0.000000 0.000000
-0.110371 -0.825153 0.622192 0.000000 0.000000 0.000000
-0.102718 -0.803758 0.639224 0.000000 0.000000 0.000000
-0.103888 -0.803996 0.638090 0.000000 0.000000 0.000000
-0.103339 -0.861211 0.610087 0.000000 0.000000 0.000000
-0.093015 -0.868708 0.613934 0.000000 0.000000 0.000000
-0.054337 -0.817484 0.655137 0.000000 0.000000 0.000000
-0.056669 -0.823862 0.655729 0.000000 0.000000 0.000000
-0.050368 -0.825386 0.655415 0.000000 0.000000 0.000000
-0.094609 -0.848254 0.633127 0.000000 0.000000 0.000000
-0.047305 -0.825338 0.656018 0.000000 0.000000 0.000000
-0.053614 -0.825992 0.655898 0.000000 0.000000 0.000000
-0.055774 -0.820366 0.661270 0.000000 0.000000 0.000000
-0.055692 -0.823191 0.655297 0.000000 0.000000 0.000000
-0.076615 -0.842944 0.645969 0.000000 0.000000 0.000000
-0.059105 -0.821368 0.657955 0.000000 0.000000 0.000000
-0.102712 -0.848771 0.625475 0.000000 0.000000 0.000000
-0.048948 -0.821112 0.648749 0.000000 0.000000 0.000000
-0.047792 -0.827166 0.654033 0.000000 0.000000 0.000000
-0.051234 -0.820152 0.654944 0.000000 0.000000 0.000000
-0.048854 -0.833604 0.656318 0.000000 0.000000 0.000000
-0.051041 -0.824920 0.655566 0.000000 0.000000 0.000000
-0.063675 -0.817398 0.658080 0.000000 0.000000 0.000000
-0.109154 -0.823174 0.625834 0.000000 0.000000 0.000000
-0.044106 -0.899825 0.613509 0.000000 0.000000 0.000000
-0.044097 -0.908069 0.609359 0.000000 0.000000 0.000000
-0.041615 -0.889872 0.622315 0.000000 0.000000 0.000000
-0.104778 -0.817850 0.619732 0.000000 0.000000 0.000000
-0.105782 -0.823281 0.619348 0.000000 0.000000 0.000000
-0.053025 -0.825034 0.656264 0.000000 0.000000 0.000000
-0.059981 -0.912096 0.606646 0.000000 0.000000 0.000000
-0.063180 -0.812695 0.660143 0.000000 0.000000 0.000000
-0.067374 -0.810646 0.660611 0.000000 0.000000 0.000000
-0.106487 -0.812041 0.634531 0.000000 0.000000 0.000000
-0.082528 -0.813298 0.657982 0.000000 0.000000 0.000000
-0.104721 -0.817753 0.624822 0.000000 0.000000 0.000000
-0.110819 -0.821276 0.621697 0.000000 0.000000 0.000000
-0.057910 -0.813161 0.655626 0.000000 0.000000 0.000000
-0.062301 -0.816557 0.658754 0.000000 0.000000 0.000000
-0.106505 -0.818264 0.615237 0.000000 0.000000 0.000000
-0.105774 -0.810623 0.637451 0.000000 0.000000 0.000000
-0.069684 -0.805583 0.657526 0.000000 0.000000 0.000000
-0.104901 -0.808548 0.630062 0.000000 0.000000 0.000000
-0.111131 -0.829860 0.619450 0.000000 0.000000 0.000000
-0.056213 -0.916126 0.610528 0.000000 0.000000 0.000000
-0.106348 -0.809331 0.633117 0.000000 0.000000 0.000000
-0.044771 -0.899961 0.619950 0.000000 0.000000 0.000000
-0.048958 -0.897046 0.623330 0.000000 0.000000 0.000000
-0.110195 -0.818994 0.622061 0.000000 0.000000 0.000000
-0.103041 -0.801903 0.641492 0.000000 0.000000 0.000000
-0.107748 -0.853384 0.609510 0.000000 0.000000 0.000000
-0.042537 -0.885043 0.625794 0.000000 0.000000 0.000000
-0.054777 -0.866940 0.639132 0.000000 0.000000 0.000000
-0.100761 -0.865559 0.609670 0.000000 0.000000 0.000000
-0.053353 -0.891263 0.627922 0.000000 0.000000 0.000000
-0.046304 -0.885756 0.626709 0.000000 0.000000 0.000000
-0.044224 -0.894216 0.622255 0.000000 0.000000 0.000000
-0.057820 -0.888229 0.627645 0.000000 0.000000 0.000000
-0.110429 -0.834424 0.622020 0.000000 0.000000 0.000000
-0.065143 -0.863412 0.640983 0.000000 0.000000 0.000000
-0.061022 -0.885417 0.630088 0.000000 0.000000 0.000000
-0.050153 -0.896536 0.623842 0.000000 0.000000 0.000000
-0.048956 -0.894915 0.623339 0.000000 0.000000 0.000000
-0.107504 -0.813674 0.629916 0.000000 0.000000 0.000000
-0.043494 -0.886800 0.625346 0.000000 0.000000 0.000000
-0.107565 -0.814098 0.627647 0.000000 0.000000 0.000000
-0.057622 -0.922089 0.606842 0.000000 0.000000 0.000000
-0.055431 -0.914095 0.612853 0.000000 0.000000 0.000000
-0.054653 -0.921859 0.609437 0.000000 0.000000 0.000000
-0.093647 -0.839649 0.644089 0.000000 0.000000 0.000000
-0.105726 -0.832337 0.627757 0.000000 0.000000 0.000000
-0.105570 -0.806461 0.636087 0.000000 0.000000 0.000000
-0.043988 -0.902200 0.618916 0.000000 0.000000 0.000000
-0.110134 -0.820538 0.623147 0.000000 0.000000 0.000000
-0.107037 -0.859599 0.611429 0.000000 0.000000 0.000000
-0.057392 -0.901899 0.619133 0.000000 0.000000 0.000000
-0.100184 -0.860059 0.608142 0.000000 0.000000 0.000000
-0.097222 -0.865028 0.610239 0.000000 0.000000 0.000000
-0.072285 -0.866494 0.637301 0.000000 0.000000 0.000000
-0.103256 -0.862874 0.616294 0.000000 0.000000 0.000000
-0.097748 -0.873453 0.610720 0.000000 0.000000 0.000000
-0.111964 -0.825447 0.621633 0.000000 0.000000 0.000000
-0.105287 -0.805940 0.640203 0.000000 0.000000 0.000000
-0.063690 -0.910554 0.611389 0.000000 0.000000 0.000000
-0.050501 -0.874990 0.634190 0.000000 0.000000 0.000000
-0.048106 -0.870951 0.635605 0.000000 0.000000 0.000000
-0.048037 -0.851772 0.643303 0.000000 0.000000 0.000000
-0.042036 -0.867608 0.638212 0.000000 0.000000 0.000000
-0.091545 -0.863883 0.631814 0.000000 0.000000 0.000000
-0.051438 -0.853637 0.644985 0.000000 0.000000 0.000000
-0.048519 -0.852206 0.645900 0.000000 0.000000 0.000000
-0.044501 -0.868556 0.634180 0.000000 0.000000 0.000000
-0.044565 -0.848590 0.645109 0.000000 0.000000 0.000000
-0.048225 -0.857263 0.642811 0.000000 0.000000 0.000000
