ply
format ascii 1.0
comment VCGLIB generated
obj_info Generated by SPFormer!
element vertex 884
property float x
property float y
property float z
property float nx
property float ny
property float nz
end_header
0.947910 0.240422 1.136489 0.000000 0.000000 0.000000
0.813739 0.661036 1.626693 0.000000 0.000000 0.000000
0.938874 0.396381 1.386981 0.000000 0.000000 0.000000
0.847425 0.760535 1.754390 0.000000 0.000000 0.000000
0.855472 0.782734 1.799533 0.000000 0.000000 0.000000
0.973008 1.091592 2.224802 0.000000 0.000000 0.000000
0.994283 0.999380 2.140925 0.000000 0.000000 0.000000
0.981991 0.407972 1.340852 0.000000 0.000000 0.000000
0.919888 0.371452 1.368990 0.000000 0.000000 0.000000
0.793269 0.633124 1.582667 0.000000 0.000000 0.000000
0.951562 0.830434 1.881275 0.000000 0.000000 0.000000
0.882407 0.322296 1.327628 0.000000 0.000000 0.000000
0.803586 0.626182 1.578215 0.000000 0.000000 0.000000
0.988154 0.616257 1.581900 0.000000 0.000000 0.000000
0.887306 0.914633 2.034950 0.000000 0.000000 0.000000
0.807793 0.665607 1.625773 0.000000 0.000000 0.000000
0.911348 0.187063 1.046541 0.000000 0.000000 0.000000
0.978228 0.409087 1.324095 0.000000 0.000000 0.000000
0.882939 0.323326 1.325586 0.000000 0.000000 0.000000
0.890849 0.874284 1.911891 0.000000 0.000000 0.000000
0.787539 0.186773 1.234871 0.000000 0.000000 0.000000
0.791447 0.634417 1.590166 0.000000 0.000000 0.000000
0.673814 0.302694 1.135547 0.000000 0.000000 0.000000
0.957047 0.788426 1.818786 0.000000 0.000000 0.000000
0.683728 0.314401 1.146716 0.000000 0.000000 0.000000
0.944428 0.262470 1.165137 0.000000 0.000000 0.000000
0.720468 0.403604 1.283747 0.000000 0.000000 0.000000
0.945913 0.257157 1.134966 0.000000 0.000000 0.000000
0.681260 0.300322 1.144624 0.000000 0.000000 0.000000
0.940605 0.257214 1.154628 0.000000 0.000000 0.000000
0.943506 0.248399 1.129030 0.000000 0.000000 0.000000
0.801301 0.642950 1.593981 0.000000 0.000000 0.000000
0.797773 0.627683 1.582740 0.000000 0.000000 0.000000
1.035885 1.089006 2.292173 0.000000 0.000000 0.000000
0.952000 0.246415 1.149146 0.000000 0.000000 0.000000
0.983532 0.616135 1.576108 0.000000 0.000000 0.000000
0.979802 0.436228 1.365888 0.000000 0.000000 0.000000
0.805447 0.666379 1.618363 0.000000 0.000000 0.000000
0.949744 1.028095 2.130742 0.000000 0.000000 0.000000
0.678578 0.313764 1.156597 0.000000 0.000000 0.000000
0.797122 0.642192 1.600406 0.000000 0.000000 0.000000
0.688593 0.317697 1.166857 0.000000 0.000000 0.000000
0.813966 0.667854 1.630964 0.000000 0.000000 0.000000
0.941344 0.240690 1.106012 0.000000 0.000000 0.000000
0.995047 0.558402 1.507731 0.000000 0.000000 0.000000
0.808394 0.661740 1.612953 0.000000 0.000000 0.000000
0.798844 0.636931 1.588379 0.000000 0.000000 0.000000
0.969947 0.380108 1.296603 0.000000 0.000000 0.000000
0.806830 0.657986 1.611330 0.000000 0.000000 0.000000
0.976103 1.106037 2.230950 0.000000 0.000000 0.000000
0.970629 1.085216 2.217698 0.000000 0.000000 0.000000
0.722611 0.413353 1.293846 0.000000 0.000000 0.000000
0.660620 0.269950 1.091678 0.000000 0.000000 0.000000
0.799549 0.638893 1.585433 0.000000 0.000000 0.000000
0.797343 0.630422 1.574615 0.000000 0.000000 0.000000
0.798215 0.641439 1.593041 0.000000 0.000000 0.000000
0.803696 0.647835 1.595639 0.000000 0.000000 0.000000
0.762433 0.541212 1.467278 0.000000 0.000000 0.000000
0.802764 0.637297 1.586632 0.000000 0.000000 0.000000
0.806744 0.638120 1.600671 0.000000 0.000000 0.000000
0.798984 0.640787 1.589752 0.000000 0.000000 0.000000
0.990780 0.548907 1.504155 0.000000 0.000000 0.000000
0.969887 0.419060 1.349762 0.000000 0.000000 0.000000
0.940606 0.402530 1.385031 0.000000 0.000000 0.000000
0.721998 0.424419 1.296994 0.000000 0.000000 0.000000
0.815264 0.660491 1.629622 0.000000 0.000000 0.000000
0.969112 1.081630 2.207217 0.000000 0.000000 0.000000
0.951981 0.806601 1.844703 0.000000 0.000000 0.000000
0.942516 0.238617 1.123780 0.000000 0.000000 0.000000
0.997958 1.168060 2.329742 0.000000 0.000000 0.000000
0.797665 0.640353 1.595001 0.000000 0.000000 0.000000
1.009557 1.198764 2.364072 0.000000 0.000000 0.000000
1.016251 0.301166 1.178668 0.000000 0.000000 0.000000
0.798281 0.643220 1.604224 0.000000 0.000000 0.000000
0.960914 0.366335 1.287899 0.000000 0.000000 0.000000
0.811312 0.664993 1.635147 0.000000 0.000000 0.000000
0.721586 0.415799 1.292843 0.000000 0.000000 0.000000
1.014281 1.201166 2.378901 0.000000 0.000000 0.000000
1.013088 1.221918 2.397877 0.000000 0.000000 0.000000
1.036151 1.086678 2.279590 0.000000 0.000000 0.000000
0.978802 1.098967 2.227630 0.000000 0.000000 0.000000
0.974280 1.099091 2.229155 0.000000 0.000000 0.000000
0.779572 0.584582 1.508234 0.000000 0.000000 0.000000
0.806326 0.656231 1.610254 0.000000 0.000000 0.000000
0.941497 0.261168 1.159778 0.000000 0.000000 0.000000
0.946945 0.224438 1.120496 0.000000 0.000000 0.000000
0.812188 0.654943 1.626439 0.000000 0.000000 0.000000
0.998879 0.514935 1.467503 0.000000 0.000000 0.000000
0.938596 0.397426 1.383606 0.000000 0.000000 0.000000
0.850279 0.775262 1.790470 0.000000 0.000000 0.000000
0.858525 0.786607 1.793466 0.000000 0.000000 0.000000
0.993861 0.552938 1.503235 0.000000 0.000000 0.000000
0.957228 0.379713 1.295740 0.000000 0.000000 0.000000
0.786038 0.613195 1.560465 0.000000 0.000000 0.000000
0.955046 0.764781 1.792105 0.000000 0.000000 0.000000
0.991083 0.994280 2.132471 0.000000 0.000000 0.000000
0.982434 0.459859 1.392806 0.000000 0.000000 0.000000
0.962217 0.245828 1.129889 0.000000 0.000000 0.000000
0.916346 0.184018 1.046115 0.000000 0.000000 0.000000
0.977172 0.421573 1.353047 0.000000 0.000000 0.000000
0.930346 0.390787 1.381717 0.000000 0.000000 0.000000
0.798842 0.634980 1.577379 0.000000 0.000000 0.000000
0.968463 0.431985 1.366298 0.000000 0.000000 0.000000
0.969630 0.672761 1.666296 0.000000 0.000000 0.000000
0.893468 0.872861 1.923421 0.000000 0.000000 0.000000
0.986525 0.619902 1.579607 0.000000 0.000000 0.000000
0.799743 0.654778 1.611521 0.000000 0.000000 0.000000
0.921222 0.191873 1.057305 0.000000 0.000000 0.000000
0.876971 0.315361 1.323762 0.000000 0.000000 0.000000
0.979303 0.195398 1.064191 0.000000 0.000000 0.000000
0.889636 0.877911 1.912338 0.000000 0.000000 0.000000
0.795126 0.640321 1.591811 0.000000 0.000000 0.000000
0.787292 0.185120 1.231790 0.000000 0.000000 0.000000
0.798800 0.645752 1.598230 0.000000 0.000000 0.000000
0.711670 0.408032 1.270573 0.000000 0.000000 0.000000
0.955307 0.863187 1.913725 0.000000 0.000000 0.000000
0.973072 0.984825 2.097411 0.000000 0.000000 0.000000
1.005307 1.020373 2.158143 0.000000 0.000000 0.000000
1.030125 1.071384 2.254782 0.000000 0.000000 0.000000
0.991324 1.008531 2.140006 0.000000 0.000000 0.000000
0.974376 0.346264 1.241410 0.000000 0.000000 0.000000
0.987755 0.605878 1.568572 0.000000 0.000000 0.000000
0.954191 0.872973 1.931766 0.000000 0.000000 0.000000
1.065545 1.142483 2.396122 0.000000 0.000000 0.000000
1.000221 1.012523 2.143530 0.000000 0.000000 0.000000
0.987349 1.158203 2.308841 0.000000 0.000000 0.000000
1.075346 1.154636 2.410506 0.000000 0.000000 0.000000
0.979111 0.588640 1.548474 0.000000 0.000000 0.000000
0.829599 0.720997 1.703197 0.000000 0.000000 0.000000
0.977674 0.667531 1.656966 0.000000 0.000000 0.000000
1.053252 0.594963 1.366703 0.000000 0.000000 0.000000
0.968660 0.981760 2.090683 0.000000 0.000000 0.000000
0.954441 0.881173 1.929670 0.000000 0.000000 0.000000
1.001384 1.016192 2.152237 0.000000 0.000000 0.000000
0.970391 0.957299 2.073916 0.000000 0.000000 0.000000
1.001312 0.600642 1.497633 0.000000 0.000000 0.000000
0.985230 0.595469 1.539705 0.000000 0.000000 0.000000
0.958813 0.788380 1.816435 0.000000 0.000000 0.000000
0.815128 0.670609 1.650784 0.000000 0.000000 0.000000
1.000452 1.008654 2.147788 0.000000 0.000000 0.000000
0.987938 0.484304 1.434739 0.000000 0.000000 0.000000
0.966050 0.728828 1.736882 0.000000 0.000000 0.000000
0.953974 0.870103 1.914882 0.000000 0.000000 0.000000
0.983681 0.934568 2.001676 0.000000 0.000000 0.000000
0.989060 0.508692 1.464733 0.000000 0.000000 0.000000
0.881735 0.921219 2.041854 0.000000 0.000000 0.000000
0.954626 0.931926 2.012798 0.000000 0.000000 0.000000
0.858340 0.136037 1.006458 0.000000 0.000000 0.000000
0.971656 0.960698 2.081786 0.000000 0.000000 0.000000
0.956362 1.067340 2.191796 0.000000 0.000000 0.000000
1.076907 1.149265 2.411928 0.000000 0.000000 0.000000
1.076609 1.152882 2.414678 0.000000 0.000000 0.000000
0.959128 0.932959 2.021684 0.000000 0.000000 0.000000
0.953331 0.822256 1.853897 0.000000 0.000000 0.000000
0.749890 0.504413 1.393648 0.000000 0.000000 0.000000
1.070640 1.149286 2.408368 0.000000 0.000000 0.000000
0.747182 0.494720 1.384350 0.000000 0.000000 0.000000
0.965811 0.722127 1.729825 0.000000 0.000000 0.000000
0.972073 0.704868 1.706108 0.000000 0.000000 0.000000
0.986570 0.606038 1.563206 0.000000 0.000000 0.000000
0.967092 0.732081 1.740738 0.000000 0.000000 0.000000
0.996538 1.166014 2.318264 0.000000 0.000000 0.000000
0.966413 0.701138 1.710772 0.000000 0.000000 0.000000
0.933950 0.395150 1.377883 0.000000 0.000000 0.000000
0.974984 0.964313 2.085896 0.000000 0.000000 0.000000
0.954099 0.869554 1.925807 0.000000 0.000000 0.000000
0.788989 0.625490 1.577513 0.000000 0.000000 0.000000
0.953640 0.914537 1.983599 0.000000 0.000000 0.000000
0.739622 0.487829 1.383977 0.000000 0.000000 0.000000
0.795058 0.612167 1.557008 0.000000 0.000000 0.000000
0.819130 0.674112 1.646741 0.000000 0.000000 0.000000
1.092886 0.596619 1.285012 0.000000 0.000000 0.000000
1.032091 0.305834 1.183246 0.000000 0.000000 0.000000
1.003901 1.199237 2.371938 0.000000 0.000000 0.000000
1.091828 0.596711 1.284329 0.000000 0.000000 0.000000
0.966481 0.671658 1.662510 0.000000 0.000000 0.000000
0.978700 0.928232 2.000811 0.000000 0.000000 0.000000
1.093423 0.595379 1.281758 0.000000 0.000000 0.000000
0.993347 1.012083 2.152665 0.000000 0.000000 0.000000
1.053469 0.274306 1.144865 0.000000 0.000000 0.000000
0.975355 0.961387 2.078477 0.000000 0.000000 0.000000
1.056389 0.599009 1.361806 0.000000 0.000000 0.000000
0.959978 0.206653 1.056646 0.000000 0.000000 0.000000
0.951953 0.911425 1.996834 0.000000 0.000000 0.000000
0.977587 1.134721 2.273775 0.000000 0.000000 0.000000
0.962464 0.716931 1.730897 0.000000 0.000000 0.000000
0.974034 0.984405 2.110926 0.000000 0.000000 0.000000
1.004818 1.022313 2.162494 0.000000 0.000000 0.000000
0.978433 1.136756 2.280203 0.000000 0.000000 0.000000
1.036995 0.301898 1.182555 0.000000 0.000000 0.000000
0.948241 0.887886 1.994170 0.000000 0.000000 0.000000
0.985454 0.607187 1.563910 0.000000 0.000000 0.000000
0.747954 0.499155 1.392080 0.000000 0.000000 0.000000
0.991795 0.999718 2.128004 0.000000 0.000000 0.000000
1.005468 1.019040 2.160422 0.000000 0.000000 0.000000
0.961658 0.896169 1.999703 0.000000 0.000000 0.000000
0.950704 0.861999 1.919225 0.000000 0.000000 0.000000
0.994653 0.589459 1.555480 0.000000 0.000000 0.000000
0.819576 0.673731 1.650265 0.000000 0.000000 0.000000
0.973240 0.960667 2.072592 0.000000 0.000000 0.000000
0.951165 0.416114 1.395141 0.000000 0.000000 0.000000
0.953616 0.336694 1.253752 0.000000 0.000000 0.000000
0.880541 0.917054 2.037099 0.000000 0.000000 0.000000
0.816973 0.669067 1.637496 0.000000 0.000000 0.000000
1.070388 1.149492 2.405907 0.000000 0.000000 0.000000
0.902327 0.152918 1.015081 0.000000 0.000000 0.000000
0.991012 0.579226 1.544415 0.000000 0.000000 0.000000
0.989884 0.570678 1.522089 0.000000 0.000000 0.000000
1.045307 0.597206 1.383775 0.000000 0.000000 0.000000
1.004549 1.015699 2.165148 0.000000 0.000000 0.000000
1.032302 0.299533 1.172341 0.000000 0.000000 0.000000
0.978300 0.973706 2.088992 0.000000 0.000000 0.000000
0.874156 0.915387 2.042930 0.000000 0.000000 0.000000
0.989302 0.495784 1.434669 0.000000 0.000000 0.000000
0.994255 0.508177 1.474465 0.000000 0.000000 0.000000
0.969091 0.650067 1.623757 0.000000 0.000000 0.000000
0.988972 1.138281 2.284750 0.000000 0.000000 0.000000
0.970728 0.960551 2.078366 0.000000 0.000000 0.000000
0.975611 0.343455 1.242028 0.000000 0.000000 0.000000
0.982262 0.335261 1.245226 0.000000 0.000000 0.000000
0.967875 0.345763 1.239952 0.000000 0.000000 0.000000
0.974834 1.125116 2.270864 0.000000 0.000000 0.000000
0.918207 0.180859 1.046953 0.000000 0.000000 0.000000
0.973393 0.401620 1.315631 0.000000 0.000000 0.000000
0.999606 1.012687 2.141732 0.000000 0.000000 0.000000
1.068226 1.137912 2.391035 0.000000 0.000000 0.000000
0.893477 0.147187 1.011191 0.000000 0.000000 0.000000
0.910115 0.938428 2.030989 0.000000 0.000000 0.000000
0.822306 0.714620 1.694277 0.000000 0.000000 0.000000
0.812459 0.681391 1.657828 0.000000 0.000000 0.000000
0.976825 0.978691 2.112944 0.000000 0.000000 0.000000
0.979137 0.338240 1.235511 0.000000 0.000000 0.000000
0.761942 0.530625 1.446620 0.000000 0.000000 0.000000
0.876933 0.840259 1.878582 0.000000 0.000000 0.000000
0.989220 0.597646 1.558776 0.000000 0.000000 0.000000
0.989193 0.605395 1.571985 0.000000 0.000000 0.000000
0.981331 0.459728 1.438532 0.000000 0.000000 0.000000
1.014667 1.230983 2.406264 0.000000 0.000000 0.000000
0.888589 0.861346 1.901875 0.000000 0.000000 0.000000
1.075490 0.266934 1.128940 0.000000 0.000000 0.000000
1.129849 1.254186 2.570891 0.000000 0.000000 0.000000
0.985832 0.598129 1.532166 0.000000 0.000000 0.000000
0.889945 0.895710 1.947063 0.000000 0.000000 0.000000
1.071964 0.274658 1.132770 0.000000 0.000000 0.000000
1.051376 0.279218 1.147503 0.000000 0.000000 0.000000
0.859125 0.782730 1.801288 0.000000 0.000000 0.000000
1.068612 1.144578 2.400215 0.000000 0.000000 0.000000
0.986836 0.455565 1.434802 0.000000 0.000000 0.000000
0.960055 0.807879 1.850594 0.000000 0.000000 0.000000
0.976229 0.977737 2.089368 0.000000 0.000000 0.000000
0.989123 0.484315 1.441559 0.000000 0.000000 0.000000
0.791846 0.595930 1.543622 0.000000 0.000000 0.000000
1.258172 0.207899 1.015559 0.000000 0.000000 0.000000
0.984853 0.603631 1.565655 0.000000 0.000000 0.000000
0.965746 0.719147 1.730121 0.000000 0.000000 0.000000
0.901985 0.148935 1.015249 0.000000 0.000000 0.000000
1.074785 1.155404 2.408275 0.000000 0.000000 0.000000
0.964601 0.396516 1.324045 0.000000 0.000000 0.000000
1.008479 1.186409 2.353646 0.000000 0.000000 0.000000
0.887675 0.894360 1.941000 0.000000 0.000000 0.000000
1.005345 1.189306 2.350351 0.000000 0.000000 0.000000
0.990193 0.998026 2.129322 0.000000 0.000000 0.000000
0.983499 0.607700 1.564614 0.000000 0.000000 0.000000
0.719810 0.403391 1.285636 0.000000 0.000000 0.000000
0.947588 0.408756 1.395094 0.000000 0.000000 0.000000
0.990876 0.501825 1.454710 0.000000 0.000000 0.000000
0.791445 0.613886 1.550504 0.000000 0.000000 0.000000
0.988072 0.458065 1.438269 0.000000 0.000000 0.000000
0.783408 0.596163 1.523889 0.000000 0.000000 0.000000
0.977058 0.400813 1.322213 0.000000 0.000000 0.000000
1.134388 1.261636 2.582512 0.000000 0.000000 0.000000
0.793070 0.604092 1.555482 0.000000 0.000000 0.000000
0.896274 0.898475 1.941564 0.000000 0.000000 0.000000
1.128332 1.245163 2.572596 0.000000 0.000000 0.000000
1.000141 1.008224 2.133080 0.000000 0.000000 0.000000
0.861781 0.136777 1.001267 0.000000 0.000000 0.000000
1.124770 1.236321 2.557705 0.000000 0.000000 0.000000
0.958209 0.198761 1.060878 0.000000 0.000000 0.000000
0.859123 0.791327 1.801000 0.000000 0.000000 0.000000
0.948959 0.408837 1.392856 0.000000 0.000000 0.000000
0.831498 0.721825 1.714038 0.000000 0.000000 0.000000
0.811909 0.677672 1.639920 0.000000 0.000000 0.000000
1.070070 1.148581 2.409210 0.000000 0.000000 0.000000
1.012589 1.230781 2.405816 0.000000 0.000000 0.000000
0.952919 1.064832 2.184883 0.000000 0.000000 0.000000
1.108335 0.257971 1.103489 0.000000 0.000000 0.000000
0.975275 0.915237 1.970347 0.000000 0.000000 0.000000
1.038206 1.268885 2.468697 0.000000 0.000000 0.000000
1.093557 0.600924 1.284350 0.000000 0.000000 0.000000
0.660852 0.270141 1.097345 0.000000 0.000000 0.000000
0.971451 0.659564 1.638241 0.000000 0.000000 0.000000
0.981741 0.611279 1.576862 0.000000 0.000000 0.000000
0.765797 0.554243 1.486090 0.000000 0.000000 0.000000
0.781626 0.605939 1.545901 0.000000 0.000000 0.000000
0.972284 0.734740 1.745461 0.000000 0.000000 0.000000
0.822567 0.712304 1.697703 0.000000 0.000000 0.000000
0.978974 0.425323 1.358455 0.000000 0.000000 0.000000
0.982198 0.337392 1.237464 0.000000 0.000000 0.000000
0.937310 0.398619 1.384581 0.000000 0.000000 0.000000
0.847983 0.780438 1.788704 0.000000 0.000000 0.000000
1.004151 1.023231 2.161341 0.000000 0.000000 0.000000
0.792513 0.631681 1.590620 0.000000 0.000000 0.000000
0.951707 0.905833 1.992894 0.000000 0.000000 0.000000
0.821901 0.695712 1.664531 0.000000 0.000000 0.000000
0.769736 0.570980 1.502919 0.000000 0.000000 0.000000
0.740709 0.461358 1.348185 0.000000 0.000000 0.000000
0.921706 0.205175 1.082048 0.000000 0.000000 0.000000
1.093130 0.596757 1.282532 0.000000 0.000000 0.000000
0.772261 0.577826 1.507530 0.000000 0.000000 0.000000
0.778160 0.596439 1.535515 0.000000 0.000000 0.000000
0.750914 0.522372 1.437096 0.000000 0.000000 0.000000
0.745106 0.485569 1.379539 0.000000 0.000000 0.000000
0.746658 0.484027 1.384765 0.000000 0.000000 0.000000
0.743145 0.475639 1.366046 0.000000 0.000000 0.000000
0.922197 0.183202 1.048738 0.000000 0.000000 0.000000
0.958233 1.073999 2.196361 0.000000 0.000000 0.000000
0.915667 0.186418 1.051510 0.000000 0.000000 0.000000
0.826717 0.710080 1.683654 0.000000 0.000000 0.000000
0.782125 0.606014 1.540661 0.000000 0.000000 0.000000
1.067180 0.602155 1.341333 0.000000 0.000000 0.000000
0.888630 0.898751 1.947987 0.000000 0.000000 0.000000
0.846355 0.778842 1.783603 0.000000 0.000000 0.000000
0.884774 0.887215 1.935388 0.000000 0.000000 0.000000
0.988881 0.509501 1.467506 0.000000 0.000000 0.000000
0.911887 0.181572 1.041300 0.000000 0.000000 0.000000
0.956409 1.071821 2.190812 0.000000 0.000000 0.000000
0.963967 0.726028 1.746055 0.000000 0.000000 0.000000
0.955578 0.867407 1.910653 0.000000 0.000000 0.000000
1.112020 1.214168 2.507157 0.000000 0.000000 0.000000
0.784932 0.584760 1.530069 0.000000 0.000000 0.000000
0.732911 0.472132 1.365144 0.000000 0.000000 0.000000
0.985028 0.474285 1.439274 0.000000 0.000000 0.000000
0.996526 0.559777 1.523653 0.000000 0.000000 0.000000
0.859467 0.782585 1.800352 0.000000 0.000000 0.000000
1.006938 1.024642 2.163055 0.000000 0.000000 0.000000
0.962001 0.390997 1.313973 0.000000 0.000000 0.000000
0.957678 1.074427 2.195211 0.000000 0.000000 0.000000
0.990495 0.600438 1.554681 0.000000 0.000000 0.000000
0.894870 0.332868 1.326130 0.000000 0.000000 0.000000
1.060519 0.605110 1.349725 0.000000 0.000000 0.000000
0.757073 0.537167 1.460017 0.000000 0.000000 0.000000
0.978388 0.599218 1.561909 0.000000 0.000000 0.000000
0.748556 0.497866 1.389786 0.000000 0.000000 0.000000
0.970898 0.739213 1.755076 0.000000 0.000000 0.000000
1.104752 0.597196 1.247674 0.000000 0.000000 0.000000
0.881116 0.857776 1.910802 0.000000 0.000000 0.000000
0.983865 0.606243 1.565241 0.000000 0.000000 0.000000
1.014897 1.211642 2.386561 0.000000 0.000000 0.000000
0.975671 0.329628 1.239218 0.000000 0.000000 0.000000
0.976696 0.343919 1.241680 0.000000 0.000000 0.000000
0.887579 0.865378 1.915542 0.000000 0.000000 0.000000
0.984502 0.604233 1.569559 0.000000 0.000000 0.000000
0.849691 0.782792 1.793576 0.000000 0.000000 0.000000
0.850605 0.782597 1.797502 0.000000 0.000000 0.000000
0.979984 0.405203 1.319027 0.000000 0.000000 0.000000
0.883115 0.325712 1.329124 0.000000 0.000000 0.000000
1.069465 1.139928 2.394801 0.000000 0.000000 0.000000
0.881559 0.145122 1.009226 0.000000 0.000000 0.000000
0.912940 0.942612 2.039511 0.000000 0.000000 0.000000
0.984605 0.608030 1.565278 0.000000 0.000000 0.000000
0.969614 0.704784 1.703112 0.000000 0.000000 0.000000
0.873590 0.836593 1.867017 0.000000 0.000000 0.000000
0.988848 0.602670 1.567854 0.000000 0.000000 0.000000
0.824514 0.709821 1.697517 0.000000 0.000000 0.000000
1.017236 1.225385 2.407452 0.000000 0.000000 0.000000
1.132480 1.250170 2.578526 0.000000 0.000000 0.000000
0.989460 0.595136 1.535680 0.000000 0.000000 0.000000
0.888947 0.883263 1.930112 0.000000 0.000000 0.000000
1.068864 1.142902 2.398814 0.000000 0.000000 0.000000
1.111457 0.247468 1.094557 0.000000 0.000000 0.000000
0.974308 0.979253 2.092979 0.000000 0.000000 0.000000
0.958217 0.810509 1.849691 0.000000 0.000000 0.000000
0.979663 0.971121 2.099265 0.000000 0.000000 0.000000
0.810891 0.672209 1.645849 0.000000 0.000000 0.000000
0.875177 0.843070 1.885059 0.000000 0.000000 0.000000
0.786746 0.605681 1.540416 0.000000 0.000000 0.000000
0.938319 0.399725 1.383902 0.000000 0.000000 0.000000
0.663157 0.274790 1.107412 0.000000 0.000000 0.000000
0.902749 0.147336 1.021869 0.000000 0.000000 0.000000
1.069622 1.148869 2.400875 0.000000 0.000000 0.000000
0.982008 0.466208 1.439207 0.000000 0.000000 0.000000
0.964292 0.408200 1.319119 0.000000 0.000000 0.000000
1.005903 1.180474 2.343698 0.000000 0.000000 0.000000
0.891627 0.900347 1.946966 0.000000 0.000000 0.000000
0.778826 0.587291 1.530432 0.000000 0.000000 0.000000
0.973606 0.671173 1.641217 0.000000 0.000000 0.000000
0.997804 1.006060 2.138792 0.000000 0.000000 0.000000
0.979165 0.611152 1.574272 0.000000 0.000000 0.000000
0.719310 0.411091 1.281597 0.000000 0.000000 0.000000
0.947280 0.411624 1.391850 0.000000 0.000000 0.000000
0.989202 0.496644 1.451004 0.000000 0.000000 0.000000
0.788207 0.616630 1.558040 0.000000 0.000000 0.000000
0.983207 0.454484 1.431319 0.000000 0.000000 0.000000
0.785300 0.599185 1.532715 0.000000 0.000000 0.000000
0.792474 0.599677 1.547473 0.000000 0.000000 0.000000
0.890888 0.903586 1.955151 0.000000 0.000000 0.000000
1.119977 1.238293 2.551898 0.000000 0.000000 0.000000
0.850413 0.776314 1.790421 0.000000 0.000000 0.000000
0.962489 0.200589 1.061313 0.000000 0.000000 0.000000
0.829139 0.704110 1.684134 0.000000 0.000000 0.000000
0.857299 0.778180 1.790440 0.000000 0.000000 0.000000
0.939065 0.401859 1.386373 0.000000 0.000000 0.000000
0.810681 0.676580 1.637688 0.000000 0.000000 0.000000
0.708131 0.392457 1.243958 0.000000 0.000000 0.000000
1.070811 1.147611 2.397730 0.000000 0.000000 0.000000
1.013873 1.213947 2.394943 0.000000 0.000000 0.000000
1.020417 1.239679 2.416750 0.000000 0.000000 0.000000
0.953152 1.066575 2.184373 0.000000 0.000000 0.000000
1.094980 0.597707 1.294195 0.000000 0.000000 0.000000
0.661517 0.282217 1.112659 0.000000 0.000000 0.000000
0.973881 0.656325 1.629755 0.000000 0.000000 0.000000
0.981093 0.614921 1.579503 0.000000 0.000000 0.000000
0.762504 0.545433 1.473982 0.000000 0.000000 0.000000
0.824898 0.717567 1.702655 0.000000 0.000000 0.000000
0.969258 0.722026 1.740287 0.000000 0.000000 0.000000
1.066159 0.289736 1.136818 0.000000 0.000000 0.000000
0.830541 0.735643 1.727267 0.000000 0.000000 0.000000
0.982229 0.336860 1.228361 0.000000 0.000000 0.000000
0.987284 0.557958 1.514863 0.000000 0.000000 0.000000
0.848704 0.772259 1.772923 0.000000 0.000000 0.000000
0.933510 0.389293 1.381739 0.000000 0.000000 0.000000
1.005041 1.015679 2.168798 0.000000 0.000000 0.000000
0.951844 0.916453 1.988411 0.000000 0.000000 0.000000
0.824269 0.691548 1.677513 0.000000 0.000000 0.000000
0.922067 0.205292 1.071192 0.000000 0.000000 0.000000
1.095884 0.600300 1.277937 0.000000 0.000000 0.000000
0.873047 0.136216 1.005697 0.000000 0.000000 0.000000
0.774910 0.576077 1.510249 0.000000 0.000000 0.000000
0.976484 0.344703 1.242720 0.000000 0.000000 0.000000
1.012971 0.596702 1.462695 0.000000 0.000000 0.000000
0.741487 0.475540 1.366658 0.000000 0.000000 0.000000
0.925644 0.188125 1.052513 0.000000 0.000000 0.000000
0.900882 0.163811 1.025238 0.000000 0.000000 0.000000
0.969465 0.643512 1.617774 0.000000 0.000000 0.000000
0.930501 0.194041 1.071740 0.000000 0.000000 0.000000
0.830773 0.727765 1.709265 0.000000 0.000000 0.000000
0.977999 1.124643 2.261688 0.000000 0.000000 0.000000
0.844701 0.774648 1.778065 0.000000 0.000000 0.000000
0.888729 0.900108 1.950283 0.000000 0.000000 0.000000
0.911172 0.191278 1.046688 0.000000 0.000000 0.000000
0.846646 0.766271 1.778398 0.000000 0.000000 0.000000
0.957404 1.074018 2.198318 0.000000 0.000000 0.000000
0.978628 0.985682 2.114542 0.000000 0.000000 0.000000
0.955796 0.876570 1.929860 0.000000 0.000000 0.000000
1.111909 1.212361 2.513876 0.000000 0.000000 0.000000
0.738097 0.481620 1.379003 0.000000 0.000000 0.000000
0.859676 0.799273 1.807801 0.000000 0.000000 0.000000
1.005136 1.020212 2.166904 0.000000 0.000000 0.000000
0.965803 0.393721 1.311918 0.000000 0.000000 0.000000
0.956059 1.067490 2.185199 0.000000 0.000000 0.000000
1.112763 0.593296 1.233970 0.000000 0.000000 0.000000
0.757233 0.538036 1.458166 0.000000 0.000000 0.000000
0.978527 0.599336 1.568339 0.000000 0.000000 0.000000
0.735691 0.477555 1.375166 0.000000 0.000000 0.000000
0.968873 0.728480 1.744227 0.000000 0.000000 0.000000
1.110840 0.594603 1.243657 0.000000 0.000000 0.000000
0.963935 0.394879 1.320222 0.000000 0.000000 0.000000
0.980431 0.601134 1.552582 0.000000 0.000000 0.000000
0.976719 0.336235 1.237948 0.000000 0.000000 0.000000
0.973332 0.348797 1.249776 0.000000 0.000000 0.000000
0.893008 0.885297 1.930226 0.000000 0.000000 0.000000
0.954383 0.868185 1.916645 0.000000 0.000000 0.000000
0.847490 0.776134 1.790856 0.000000 0.000000 0.000000
0.972848 0.397028 1.312361 0.000000 0.000000 0.000000
0.977457 0.603943 1.566336 0.000000 0.000000 0.000000
0.925871 0.192366 1.054129 0.000000 0.000000 0.000000
0.976794 0.406159 1.331492 0.000000 0.000000 0.000000
0.929536 0.198300 1.066326 0.000000 0.000000 0.000000
0.881965 0.322655 1.326294 0.000000 0.000000 0.000000
0.982801 0.988471 2.129679 0.000000 0.000000 0.000000
0.940998 0.991405 2.084016 0.000000 0.000000 0.000000
0.990572 0.555625 1.512651 0.000000 0.000000 0.000000
1.074214 0.596813 1.318104 0.000000 0.000000 0.000000
0.973453 0.159904 1.027213 0.000000 0.000000 0.000000
0.982286 0.186916 1.041168 0.000000 0.000000 0.000000
1.028937 0.596217 1.426254 0.000000 0.000000 0.000000
0.952054 0.942619 1.951377 0.000000 0.000000 0.000000
0.981209 0.992047 2.125949 0.000000 0.000000 0.000000
0.955742 0.938423 1.946064 0.000000 0.000000 0.000000
0.977442 0.683182 1.681836 0.000000 0.000000 0.000000
0.995161 0.551342 1.509919 0.000000 0.000000 0.000000
0.965367 0.982424 2.088872 0.000000 0.000000 0.000000
0.975597 0.684574 1.675558 0.000000 0.000000 0.000000
0.900062 0.354263 1.343045 0.000000 0.000000 0.000000
0.998073 1.011047 2.148868 0.000000 0.000000 0.000000
0.918525 0.374257 1.361366 0.000000 0.000000 0.000000
0.663133 0.262712 1.079665 0.000000 0.000000 0.000000
0.977143 0.663405 1.655545 0.000000 0.000000 0.000000
0.978411 0.972125 2.089052 0.000000 0.000000 0.000000
1.055719 0.596061 1.366136 0.000000 0.000000 0.000000
0.968329 0.728160 1.733822 0.000000 0.000000 0.000000
0.995645 0.554468 1.517820 0.000000 0.000000 0.000000
0.994733 0.542395 1.499846 0.000000 0.000000 0.000000
0.969934 0.677060 1.672788 0.000000 0.000000 0.000000
1.060657 1.123354 2.364584 0.000000 0.000000 0.000000
0.967742 0.716217 1.716088 0.000000 0.000000 0.000000
1.027220 0.596108 1.426181 0.000000 0.000000 0.000000
0.892731 0.919845 2.037516 0.000000 0.000000 0.000000
1.041196 1.095903 2.292964 0.000000 0.000000 0.000000
0.981222 0.443177 1.417139 0.000000 0.000000 0.000000
0.963779 0.986790 2.087990 0.000000 0.000000 0.000000
1.028346 0.597943 1.420518 0.000000 0.000000 0.000000
0.855231 0.966873 1.995702 0.000000 0.000000 0.000000
1.028929 0.597389 1.421331 0.000000 0.000000 0.000000
0.831617 0.726475 1.724272 0.000000 0.000000 0.000000
0.990328 1.002315 2.142733 0.000000 0.000000 0.000000
0.961242 0.808974 1.852146 0.000000 0.000000 0.000000
0.975500 0.682906 1.673033 0.000000 0.000000 0.000000
1.064202 1.136944 2.371952 0.000000 0.000000 0.000000
1.031260 1.068104 2.259502 0.000000 0.000000 0.000000
1.054223 1.113571 2.344662 0.000000 0.000000 0.000000
0.891438 0.337750 1.333983 0.000000 0.000000 0.000000
0.970854 0.651664 1.629128 0.000000 0.000000 0.000000
0.788675 0.605102 1.537987 0.000000 0.000000 0.000000
0.972817 0.705351 1.706658 0.000000 0.000000 0.000000
0.973683 0.925605 1.953202 0.000000 0.000000 0.000000
0.952719 0.318054 1.214747 0.000000 0.000000 0.000000
0.958854 0.196336 1.050287 0.000000 0.000000 0.000000
0.910406 0.168819 1.034821 0.000000 0.000000 0.000000
1.028230 0.596920 1.422630 0.000000 0.000000 0.000000
0.956509 0.933511 2.035915 0.000000 0.000000 0.000000
1.021399 0.595707 1.428487 0.000000 0.000000 0.000000
1.061735 1.125936 2.353180 0.000000 0.000000 0.000000
0.769885 0.571367 1.509363 0.000000 0.000000 0.000000
0.951262 0.865015 1.920535 0.000000 0.000000 0.000000
1.034373 0.599094 1.415259 0.000000 0.000000 0.000000
0.948629 1.038499 2.144080 0.000000 0.000000 0.000000
0.981547 0.918533 1.971959 0.000000 0.000000 0.000000
0.870713 0.915806 2.046141 0.000000 0.000000 0.000000
0.842500 0.948546 1.963845 0.000000 0.000000 0.000000
0.996047 0.543289 1.493277 0.000000 0.000000 0.000000
0.949001 0.412481 1.395358 0.000000 0.000000 0.000000
0.817609 0.669232 1.644704 0.000000 0.000000 0.000000
0.993732 0.540788 1.496719 0.000000 0.000000 0.000000
0.781292 0.596862 1.527395 0.000000 0.000000 0.000000
0.953339 0.834342 1.891235 0.000000 0.000000 0.000000
0.965850 0.938537 1.943512 0.000000 0.000000 0.000000
0.978856 0.927800 2.009252 0.000000 0.000000 0.000000
0.951874 0.815665 1.850149 0.000000 0.000000 0.000000
0.994522 1.004289 2.139623 0.000000 0.000000 0.000000
0.942311 1.046406 2.155916 0.000000 0.000000 0.000000
0.995440 0.536814 1.500515 0.000000 0.000000 0.000000
0.978724 1.132645 2.278580 0.000000 0.000000 0.000000
0.815445 0.665648 1.641012 0.000000 0.000000 0.000000
1.176948 0.212946 1.038881 0.000000 0.000000 0.000000
0.966899 0.725694 1.735266 0.000000 0.000000 0.000000
1.050189 0.592628 1.367640 0.000000 0.000000 0.000000
1.045862 0.599626 1.376186 0.000000 0.000000 0.000000
0.975758 0.927941 1.950230 0.000000 0.000000 0.000000
0.946650 0.409086 1.394740 0.000000 0.000000 0.000000
0.948814 0.860227 1.919758 0.000000 0.000000 0.000000
1.007668 1.182702 2.347246 0.000000 0.000000 0.000000
0.776578 0.184402 1.221951 0.000000 0.000000 0.000000
0.985471 1.136187 2.270037 0.000000 0.000000 0.000000
0.948403 0.815015 1.855198 0.000000 0.000000 0.000000
0.964454 0.387962 1.314087 0.000000 0.000000 0.000000
0.916934 0.369887 1.366299 0.000000 0.000000 0.000000
0.870888 0.914290 2.044434 0.000000 0.000000 0.000000
1.026910 0.595817 1.423831 0.000000 0.000000 0.000000
0.883850 0.877911 1.916808 0.000000 0.000000 0.000000
0.959090 0.389113 1.310115 0.000000 0.000000 0.000000
0.886833 0.926489 2.033240 0.000000 0.000000 0.000000
0.871112 0.908724 2.035243 0.000000 0.000000 0.000000
0.989376 1.000080 2.120472 0.000000 0.000000 0.000000
0.997043 0.566245 1.531104 0.000000 0.000000 0.000000
0.990040 0.555164 1.513866 0.000000 0.000000 0.000000
0.983106 0.469993 1.445273 0.000000 0.000000 0.000000
0.965314 1.073714 2.198760 0.000000 0.000000 0.000000
0.947888 0.304383 1.205636 0.000000 0.000000 0.000000
0.955621 0.869912 1.906223 0.000000 0.000000 0.000000
0.967473 0.154438 1.032190 0.000000 0.000000 0.000000
0.965739 0.163668 1.036243 0.000000 0.000000 0.000000
0.957079 0.189353 1.036322 0.000000 0.000000 0.000000
0.948254 0.410861 1.398220 0.000000 0.000000 0.000000
0.834899 0.720803 1.713764 0.000000 0.000000 0.000000
1.176586 0.215421 1.042603 0.000000 0.000000 0.000000
0.860832 0.812333 1.832284 0.000000 0.000000 0.000000
1.055564 1.121982 2.357451 0.000000 0.000000 0.000000
0.972335 0.191056 1.062209 0.000000 0.000000 0.000000
0.776224 0.565508 1.489093 0.000000 0.000000 0.000000
0.883556 0.876557 1.920069 0.000000 0.000000 0.000000
0.870172 0.828430 1.854538 0.000000 0.000000 0.000000
0.981171 0.913830 1.976719 0.000000 0.000000 0.000000
0.845280 0.948761 1.966267 0.000000 0.000000 0.000000
0.976429 0.183640 1.040027 0.000000 0.000000 0.000000
0.974610 0.449819 1.379194 0.000000 0.000000 0.000000
0.970742 0.189193 1.053955 0.000000 0.000000 0.000000
0.973192 0.152845 1.029507 0.000000 0.000000 0.000000
1.080768 0.269932 1.121333 0.000000 0.000000 0.000000
0.935903 0.945139 1.947546 0.000000 0.000000 0.000000
0.777484 0.593865 1.529401 0.000000 0.000000 0.000000
0.950657 0.327540 1.230343 0.000000 0.000000 0.000000
0.883202 0.849952 1.889143 0.000000 0.000000 0.000000
0.964026 0.934432 1.946144 0.000000 0.000000 0.000000
0.949779 0.320133 1.218752 0.000000 0.000000 0.000000
1.204788 0.203027 1.020615 0.000000 0.000000 0.000000
0.950476 0.325612 1.223333 0.000000 0.000000 0.000000
0.779962 0.562375 1.488188 0.000000 0.000000 0.000000
0.990661 0.595742 1.557399 0.000000 0.000000 0.000000
0.880686 0.857153 1.882673 0.000000 0.000000 0.000000
0.975469 0.186016 1.045127 0.000000 0.000000 0.000000
0.835450 0.719534 1.711107 0.000000 0.000000 0.000000
0.956775 0.345507 1.248161 0.000000 0.000000 0.000000
1.106853 0.257280 1.110232 0.000000 0.000000 0.000000
0.977381 0.179601 1.053653 0.000000 0.000000 0.000000
1.170977 0.218292 1.044750 0.000000 0.000000 0.000000
1.002996 0.592858 1.481144 0.000000 0.000000 0.000000
0.993483 1.165989 2.312579 0.000000 0.000000 0.000000
0.888430 0.950323 1.973109 0.000000 0.000000 0.000000
0.824781 0.715250 1.704549 0.000000 0.000000 0.000000
0.950330 0.903602 2.027438 0.000000 0.000000 0.000000
0.936885 0.290197 1.202630 0.000000 0.000000 0.000000
0.995595 0.542342 1.502241 0.000000 0.000000 0.000000
0.701661 0.382216 1.238895 0.000000 0.000000 0.000000
0.946690 0.293422 1.184848 0.000000 0.000000 0.000000
1.060345 1.125076 2.347403 0.000000 0.000000 0.000000
1.210250 0.205968 1.009018 0.000000 0.000000 0.000000
0.721612 0.437740 1.321140 0.000000 0.000000 0.000000
1.178023 0.216708 1.037677 0.000000 0.000000 0.000000
0.876676 0.849022 1.871436 0.000000 0.000000 0.000000
1.193910 0.210653 1.037642 0.000000 0.000000 0.000000
1.219625 0.203547 1.027427 0.000000 0.000000 0.000000
0.818363 0.695307 1.660854 0.000000 0.000000 0.000000
0.833684 0.728523 1.724934 0.000000 0.000000 0.000000
1.029332 0.597022 1.422263 0.000000 0.000000 0.000000
0.735169 0.468977 1.343784 0.000000 0.000000 0.000000
0.753124 0.515901 1.421111 0.000000 0.000000 0.000000
0.702280 0.376560 1.239880 0.000000 0.000000 0.000000
1.214626 0.207637 1.026014 0.000000 0.000000 0.000000
0.860919 0.817791 1.838377 0.000000 0.000000 0.000000
0.866922 0.838110 1.860098 0.000000 0.000000 0.000000
1.024898 0.596925 1.432370 0.000000 0.000000 0.000000
0.799378 0.206421 1.243930 0.000000 0.000000 0.000000
0.996993 0.731968 1.742921 0.000000 0.000000 0.000000
1.025075 0.302658 1.185753 0.000000 0.000000 0.000000
1.218350 0.208563 1.018135 0.000000 0.000000 0.000000
0.942394 0.943859 1.947203 0.000000 0.000000 0.000000
0.882704 0.855158 1.880967 0.000000 0.000000 0.000000
0.873202 0.839645 1.861232 0.000000 0.000000 0.000000
0.853034 0.285110 1.292340 0.000000 0.000000 0.000000
0.872116 0.852187 1.899470 0.000000 0.000000 0.000000
0.941637 0.938623 1.947555 0.000000 0.000000 0.000000
0.946296 0.943361 1.944705 0.000000 0.000000 0.000000
0.950271 0.317115 1.222676 0.000000 0.000000 0.000000
0.659776 0.272426 1.098333 0.000000 0.000000 0.000000
0.944894 1.041738 2.149870 0.000000 0.000000 0.000000
0.881522 0.844107 1.869203 0.000000 0.000000 0.000000
1.058519 1.343588 2.564379 0.000000 0.000000 0.000000
0.970546 0.430982 1.371514 0.000000 0.000000 0.000000
0.983211 0.982929 2.101010 0.000000 0.000000 0.000000
0.966279 0.318868 1.229503 0.000000 0.000000 0.000000
0.955127 0.330837 1.235007 0.000000 0.000000 0.000000
0.706520 0.390748 1.252218 0.000000 0.000000 0.000000
0.973298 0.373721 1.300284 0.000000 0.000000 0.000000
0.969858 0.220846 1.090865 0.000000 0.000000 0.000000
0.873839 0.312737 1.317156 0.000000 0.000000 0.000000
0.969814 0.348357 1.265169 0.000000 0.000000 0.000000
0.990149 0.490132 1.431202 0.000000 0.000000 0.000000
0.921698 0.945409 1.956540 0.000000 0.000000 0.000000
0.944311 1.010407 2.102591 0.000000 0.000000 0.000000
0.983304 1.142640 2.281955 0.000000 0.000000 0.000000
1.052206 0.595868 1.378081 0.000000 0.000000 0.000000
0.871183 0.840846 1.878086 0.000000 0.000000 0.000000
0.878170 0.840742 1.865770 0.000000 0.000000 0.000000
0.836385 0.259406 1.279331 0.000000 0.000000 0.000000
0.778535 0.579086 1.505384 0.000000 0.000000 0.000000
0.948854 0.324525 1.230007 0.000000 0.000000 0.000000
1.006139 1.183284 2.342134 0.000000 0.000000 0.000000
1.044165 0.605731 1.370669 0.000000 0.000000 0.000000
0.975046 0.676625 1.664874 0.000000 0.000000 0.000000
0.945513 0.311997 1.216260 0.000000 0.000000 0.000000
0.981960 0.497082 1.425665 0.000000 0.000000 0.000000
0.979364 0.447215 1.401758 0.000000 0.000000 0.000000
0.970809 0.383772 1.298126 0.000000 0.000000 0.000000
0.949917 0.308767 1.218005 0.000000 0.000000 0.000000
0.874771 0.316180 1.314200 0.000000 0.000000 0.000000
0.880493 0.910285 2.033913 0.000000 0.000000 0.000000
0.820785 0.685309 1.651296 0.000000 0.000000 0.000000
0.973581 0.165826 1.025296 0.000000 0.000000 0.000000
0.966473 0.154344 1.033743 0.000000 0.000000 0.000000
0.961283 0.193250 1.039402 0.000000 0.000000 0.000000
0.958717 0.424813 1.406579 0.000000 0.000000 0.000000
0.971314 0.193849 1.054160 0.000000 0.000000 0.000000
1.168453 0.228871 1.048135 0.000000 0.000000 0.000000
0.865479 0.821770 1.846135 0.000000 0.000000 0.000000
0.977278 0.186258 1.045755 0.000000 0.000000 0.000000
0.886336 0.868360 1.901745 0.000000 0.000000 0.000000
0.882756 0.872770 1.928421 0.000000 0.000000 0.000000
0.864790 0.822499 1.853093 0.000000 0.000000 0.000000
0.981488 0.918646 1.975109 0.000000 0.000000 0.000000
0.666339 0.280150 1.113035 0.000000 0.000000 0.000000
0.850373 0.952887 1.977260 0.000000 0.000000 0.000000
0.952558 0.299766 1.188712 0.000000 0.000000 0.000000
0.977123 0.185658 1.046764 0.000000 0.000000 0.000000
0.980477 0.443563 1.373464 0.000000 0.000000 0.000000
0.973343 0.182465 1.054878 0.000000 0.000000 0.000000
0.974054 0.157033 1.031915 0.000000 0.000000 0.000000
1.080942 0.269954 1.125627 0.000000 0.000000 0.000000
0.947217 0.941715 1.951208 0.000000 0.000000 0.000000
0.779163 0.597458 1.540593 0.000000 0.000000 0.000000
0.946220 0.316267 1.215921 0.000000 0.000000 0.000000
0.967355 0.933026 1.950489 0.000000 0.000000 0.000000
0.964224 0.320516 1.214226 0.000000 0.000000 0.000000
1.213567 0.201004 1.025839 0.000000 0.000000 0.000000
0.953040 0.326555 1.223235 0.000000 0.000000 0.000000
0.813394 0.680857 1.651966 0.000000 0.000000 0.000000
0.969922 0.353299 1.272910 0.000000 0.000000 0.000000
1.213765 0.200076 1.017958 0.000000 0.000000 0.000000
0.947490 0.321166 1.213298 0.000000 0.000000 0.000000
0.773687 0.557931 1.477050 0.000000 0.000000 0.000000
0.883373 0.861899 1.893201 0.000000 0.000000 0.000000
0.977377 0.923276 1.949681 0.000000 0.000000 0.000000
0.840493 0.727015 1.716023 0.000000 0.000000 0.000000
1.101382 0.257935 1.107149 0.000000 0.000000 0.000000
0.979415 0.175321 1.046932 0.000000 0.000000 0.000000
1.167984 0.220999 1.045732 0.000000 0.000000 0.000000
0.992088 0.589683 1.528095 0.000000 0.000000 0.000000
1.005089 1.182526 2.347247 0.000000 0.000000 0.000000
0.898971 0.946055 1.973156 0.000000 0.000000 0.000000
0.838087 0.721034 1.714668 0.000000 0.000000 0.000000
0.947402 0.908707 2.029622 0.000000 0.000000 0.000000
0.949938 0.302719 1.206117 0.000000 0.000000 0.000000
0.949292 0.305389 1.214366 0.000000 0.000000 0.000000
0.936718 0.260225 1.149414 0.000000 0.000000 0.000000
0.997513 0.539737 1.496557 0.000000 0.000000 0.000000
0.703461 0.385860 1.243553 0.000000 0.000000 0.000000
1.064336 1.134220 2.367012 0.000000 0.000000 0.000000
1.202336 0.201984 1.013838 0.000000 0.000000 0.000000
0.936868 0.241986 1.124719 0.000000 0.000000 0.000000
0.781140 0.602525 1.538476 0.000000 0.000000 0.000000
0.721401 0.432717 1.316637 0.000000 0.000000 0.000000
1.177473 0.213899 1.037043 0.000000 0.000000 0.000000
1.076846 0.271068 1.132582 0.000000 0.000000 0.000000
0.876229 0.844012 1.884115 0.000000 0.000000 0.000000
0.873216 0.839016 1.861374 0.000000 0.000000 0.000000
1.200483 0.210059 1.031434 0.000000 0.000000 0.000000
0.840183 0.732375 1.730873 0.000000 0.000000 0.000000
1.031856 0.599079 1.419638 0.000000 0.000000 0.000000
0.729986 0.457628 1.338661 0.000000 0.000000 0.000000
0.707302 0.382147 1.236650 0.000000 0.000000 0.000000
1.195379 0.205212 1.031320 0.000000 0.000000 0.000000
0.951767 0.417206 1.397383 0.000000 0.000000 0.000000
0.870599 0.831614 1.853643 0.000000 0.000000 0.000000
0.870682 0.835350 1.860312 0.000000 0.000000 0.000000
0.777824 0.567816 1.494283 0.000000 0.000000 0.000000
0.974931 0.356074 1.267028 0.000000 0.000000 0.000000
1.044741 0.604453 1.383392 0.000000 0.000000 0.000000
0.692763 0.343524 1.207474 0.000000 0.000000 0.000000
1.021611 0.595908 1.438980 0.000000 0.000000 0.000000
0.804487 0.212545 1.256316 0.000000 0.000000 0.000000
1.028352 0.299891 1.178415 0.000000 0.000000 0.000000
1.196990 0.211200 1.030931 0.000000 0.000000 0.000000
0.934728 0.942991 1.946230 0.000000 0.000000 0.000000
0.871252 0.833885 1.855594 0.000000 0.000000 0.000000
0.871663 0.845646 1.876783 0.000000 0.000000 0.000000
0.870115 0.838934 1.866235 0.000000 0.000000 0.000000
0.780039 0.594268 1.530972 0.000000 0.000000 0.000000
0.856409 0.289948 1.291321 0.000000 0.000000 0.000000
0.936885 0.940251 1.948122 0.000000 0.000000 0.000000
0.936327 0.943928 1.952144 0.000000 0.000000 0.000000
0.778222 0.592180 1.525590 0.000000 0.000000 0.000000
0.660220 0.272503 1.103141 0.000000 0.000000 0.000000
0.881824 0.852076 1.877094 0.000000 0.000000 0.000000
0.971339 0.356020 1.277040 0.000000 0.000000 0.000000
0.978269 0.974680 2.092830 0.000000 0.000000 0.000000
0.965237 0.315896 1.225336 0.000000 0.000000 0.000000
0.979098 0.625785 1.605641 0.000000 0.000000 0.000000
1.184452 0.209199 1.034447 0.000000 0.000000 0.000000
0.708646 0.391263 1.250777 0.000000 0.000000 0.000000
0.966236 0.337676 1.248486 0.000000 0.000000 0.000000
0.874934 0.314919 1.317612 0.000000 0.000000 0.000000
0.970414 0.351158 1.269847 0.000000 0.000000 0.000000
0.924394 0.944242 1.952606 0.000000 0.000000 0.000000
0.940244 1.006752 2.091750 0.000000 0.000000 0.000000
0.938193 1.024540 2.135221 0.000000 0.000000 0.000000
1.050478 0.598131 1.371188 0.000000 0.000000 0.000000
0.872550 0.846721 1.886742 0.000000 0.000000 0.000000
0.840392 0.263887 1.279035 0.000000 0.000000 0.000000
0.775819 0.572650 1.487736 0.000000 0.000000 0.000000
0.949670 0.323088 1.226730 0.000000 0.000000 0.000000
1.003606 1.184311 2.352252 0.000000 0.000000 0.000000
0.868840 0.304989 1.314107 0.000000 0.000000 0.000000
0.873238 0.314263 1.317447 0.000000 0.000000 0.000000
0.955975 0.862298 1.909510 0.000000 0.000000 0.000000
0.975970 0.446991 1.412909 0.000000 0.000000 0.000000
0.948163 0.302959 1.211632 0.000000 0.000000 0.000000
0.883820 0.318768 1.315532 0.000000 0.000000 0.000000
0.983702 0.497318 1.434354 0.000000 0.000000 0.000000
0.883585 0.909757 2.028139 0.000000 0.000000 0.000000
0.824633 0.684832 1.664697 0.000000 0.000000 0.000000
0.956998 0.838107 1.871172 0.000000 0.000000 0.000000
0.914588 0.942791 1.952874 0.000000 0.000000 0.000000
0.911820 0.939569 1.951169 0.000000 0.000000 0.000000
0.975719 0.343334 1.241538 0.000000 0.000000 0.000000
1.012840 0.599447 1.470266 0.000000 0.000000 0.000000
1.008954 1.030784 2.174799 0.000000 0.000000 0.000000
0.989451 1.001211 2.138941 0.000000 0.000000 0.000000
0.976280 0.206224 1.078296 0.000000 0.000000 0.000000
0.945369 0.889933 1.952333 0.000000 0.000000 0.000000
0.951057 0.910303 1.980159 0.000000 0.000000 0.000000
0.970169 0.975411 2.093207 0.000000 0.000000 0.000000
0.980366 0.664646 1.638670 0.000000 0.000000 0.000000
0.979957 0.664824 1.653008 0.000000 0.000000 0.000000
0.953564 1.034647 2.142376 0.000000 0.000000 0.000000
1.091430 1.171402 2.437785 0.000000 0.000000 0.000000
0.986276 0.930890 2.001072 0.000000 0.000000 0.000000
0.956686 1.063455 2.171616 0.000000 0.000000 0.000000
0.939340 0.282965 1.178216 0.000000 0.000000 0.000000
0.951523 0.907220 1.969734 0.000000 0.000000 0.000000
1.046981 0.287578 1.158029 0.000000 0.000000 0.000000
0.966992 0.725282 1.726725 0.000000 0.000000 0.000000
0.921894 0.206249 1.083432 0.000000 0.000000 0.000000
0.979477 0.970028 2.098312 0.000000 0.000000 0.000000
0.969109 0.361342 1.251441 0.000000 0.000000 0.000000
0.977128 0.920340 2.014520 0.000000 0.000000 0.000000
0.970158 0.160356 1.025635 0.000000 0.000000 0.000000
0.868368 0.128983 1.001851 0.000000 0.000000 0.000000
1.092713 1.171272 2.442269 0.000000 0.000000 0.000000
0.959489 0.940479 1.948030 0.000000 0.000000 0.000000
0.945889 0.903495 1.974206 0.000000 0.000000 0.000000
1.005868 0.593475 1.468369 0.000000 0.000000 0.000000
0.960886 0.928321 2.032652 0.000000 0.000000 0.000000
0.976139 0.916087 1.956077 0.000000 0.000000 0.000000
0.973909 0.676784 1.672969 0.000000 0.000000 0.000000
0.967345 0.951481 2.054899 0.000000 0.000000 0.000000
1.076038 1.158451 2.417546 0.000000 0.000000 0.000000
1.005940 0.591581 1.463605 0.000000 0.000000 0.000000
1.088834 1.174245 2.441406 0.000000 0.000000 0.000000
0.960798 0.927868 2.018252 0.000000 0.000000 0.000000
0.979124 0.974406 2.109398 0.000000 0.000000 0.000000
0.984508 1.127875 2.264160 0.000000 0.000000 0.000000
1.022916 1.060900 2.240853 0.000000 0.000000 0.000000
1.086380 1.172705 2.447430 0.000000 0.000000 0.000000
0.983798 0.976639 2.105882 0.000000 0.000000 0.000000
1.001883 0.595287 1.485829 0.000000 0.000000 0.000000
1.048223 1.105734 2.324560 0.000000 0.000000 0.000000
1.078240 1.159408 2.426748 0.000000 0.000000 0.000000
0.950468 0.938209 1.944546 0.000000 0.000000 0.000000
0.972094 0.711766 1.714476 0.000000 0.000000 0.000000
0.799159 0.627765 1.572795 0.000000 0.000000 0.000000
0.964420 0.946949 2.045963 0.000000 0.000000 0.000000
0.974466 0.925099 1.968826 0.000000 0.000000 0.000000
0.976511 0.915451 1.957196 0.000000 0.000000 0.000000
1.013197 1.213416 2.392073 0.000000 0.000000 0.000000
0.788265 0.622888 1.575776 0.000000 0.000000 0.000000
0.985048 0.471909 1.399392 0.000000 0.000000 0.000000
0.954947 0.884218 1.958200 0.000000 0.000000 0.000000
0.980076 0.922344 1.966574 0.000000 0.000000 0.000000
0.901846 0.937893 1.950079 0.000000 0.000000 0.000000
0.966098 0.399909 1.327716 0.000000 0.000000 0.000000
0.978600 0.912562 1.963885 0.000000 0.000000 0.000000
0.954946 0.909220 1.982971 0.000000 0.000000 0.000000
1.040748 0.600160 1.384873 0.000000 0.000000 0.000000
0.971257 0.967632 2.094267 0.000000 0.000000 0.000000
0.980493 0.919589 1.964725 0.000000 0.000000 0.000000
0.961412 1.056905 2.156259 0.000000 0.000000 0.000000
0.982706 0.918282 1.960610 0.000000 0.000000 0.000000
0.985095 0.934228 1.997792 0.000000 0.000000 0.000000
0.713503 0.407627 1.266531 0.000000 0.000000 0.000000
0.896372 0.938450 1.957660 0.000000 0.000000 0.000000
0.940028 0.259482 1.153998 0.000000 0.000000 0.000000
0.980947 0.452455 1.429894 0.000000 0.000000 0.000000
0.978994 0.420666 1.349028 0.000000 0.000000 0.000000
0.931336 0.965414 1.974378 0.000000 0.000000 0.000000
0.982589 0.616973 1.586132 0.000000 0.000000 0.000000
0.995528 1.003003 2.131722 0.000000 0.000000 0.000000
0.967341 0.937465 1.945346 0.000000 0.000000 0.000000
0.981960 0.919619 1.963458 0.000000 0.000000 0.000000
0.981442 0.926139 2.013372 0.000000 0.000000 0.000000
0.988374 0.516926 1.454387 0.000000 0.000000 0.000000
0.980351 0.930710 1.959720 0.000000 0.000000 0.000000
1.019392 0.309241 1.196488 0.000000 0.000000 0.000000
0.977996 0.447195 1.374627 0.000000 0.000000 0.000000
0.997288 0.311944 1.198105 0.000000 0.000000 0.000000
0.747464 0.498610 1.405965 0.000000 0.000000 0.000000
0.959783 1.056852 2.161164 0.000000 0.000000 0.000000
0.794511 0.633476 1.579610 0.000000 0.000000 0.000000
0.792299 0.626074 1.579187 0.000000 0.000000 0.000000
0.975617 0.447072 1.428821 0.000000 0.000000 0.000000
0.986393 1.136292 2.273570 0.000000 0.000000 0.000000
0.974027 0.911611 1.982949 0.000000 0.000000 0.000000
0.984906 0.932231 1.996842 0.000000 0.000000 0.000000
0.888946 0.866680 1.910091 0.000000 0.000000 0.000000
0.979679 0.918550 1.963755 0.000000 0.000000 0.000000
