ply
format ascii 1.0
comment VCGLIB generated
obj_info Generated by SPFormer!
element vertex 866
property float x
property float y
property float z
property float nx
property float ny
property float nz
end_header
-0.596137 -0.720199 3.655726 0.000000 0.000000 0.000000
-0.480927 -0.699437 3.635039 0.000000 0.000000 0.000000
-0.408540 -0.571994 3.464348 0.000000 0.000000 0.000000
-0.409981 -0.567847 3.445256 0.000000 0.000000 0.000000
-0.750092 -0.627177 3.460530 0.000000 0.000000 0.000000
-0.407131 -0.569633 3.455954 0.000000 0.000000 0.000000
-0.562110 -0.727247 3.678776 0.000000 0.000000 0.000000
-0.411120 -0.566986 3.448605 0.000000 0.000000 0.000000
-0.480108 -0.503967 3.284785 0.000000 0.000000 0.000000
-0.622444 -0.716608 3.652883 0.000000 0.000000 0.000000
-0.479800 -0.703082 3.632972 0.000000 0.000000 0.000000
-0.409231 -0.570173 3.460767 0.000000 0.000000 0.000000
-0.751572 -0.618404 3.445681 0.000000 0.000000 0.000000
-0.412803 -0.569739 3.466828 0.000000 0.000000 0.000000
-0.451947 -0.652363 3.545392 0.000000 0.000000 0.000000
-0.648770 -0.704980 3.622434 0.000000 0.000000 0.000000
-0.455762 -0.661845 3.554032 0.000000 0.000000 0.000000
-0.637446 -0.632691 3.472641 0.000000 0.000000 0.000000
-0.649504 -0.698906 3.608658 0.000000 0.000000 0.000000
-0.447770 -0.656618 3.546018 0.000000 0.000000 0.000000
-0.405406 -0.549925 3.410097 0.000000 0.000000 0.000000
-0.409508 -0.561635 3.415638 0.000000 0.000000 0.000000
-0.716365 -0.680381 3.574425 0.000000 0.000000 0.000000
-0.709049 -0.678189 3.570565 0.000000 0.000000 0.000000
-0.602904 -0.470236 3.233750 0.000000 0.000000 0.000000
-0.705484 -0.689765 3.589670 0.000000 0.000000 0.000000
-0.705193 -0.684191 3.585000 0.000000 0.000000 0.000000
-0.409328 -0.562661 3.426783 0.000000 0.000000 0.000000
-0.408747 -0.555183 3.396758 0.000000 0.000000 0.000000
-0.434925 -0.668254 3.585613 0.000000 0.000000 0.000000
-0.400755 -0.559180 3.415030 0.000000 0.000000 0.000000
-0.405342 -0.556520 3.422306 0.000000 0.000000 0.000000
-0.405441 -0.560186 3.422629 0.000000 0.000000 0.000000
-0.709790 -0.686577 3.586179 0.000000 0.000000 0.000000
-0.715228 -0.677331 3.566446 0.000000 0.000000 0.000000
-0.613892 -0.469968 3.239472 0.000000 0.000000 0.000000
-0.712189 -0.683524 3.577554 0.000000 0.000000 0.000000
-0.685087 -0.688256 3.591084 0.000000 0.000000 0.000000
-0.410429 -0.553845 3.396725 0.000000 0.000000 0.000000
-0.410861 -0.560751 3.423289 0.000000 0.000000 0.000000
-0.444529 -0.675170 3.596064 0.000000 0.000000 0.000000
-0.411727 -0.571018 3.413038 0.000000 0.000000 0.000000
-0.402038 -0.552515 3.416581 0.000000 0.000000 0.000000
-0.402654 -0.559355 3.419691 0.000000 0.000000 0.000000
-0.447965 -0.662618 3.580631 0.000000 0.000000 0.000000
-0.455532 -0.668283 3.577754 0.000000 0.000000 0.000000
-0.468726 -0.664586 3.585172 0.000000 0.000000 0.000000
-0.595620 -0.635810 3.493797 0.000000 0.000000 0.000000
-0.478107 -0.610765 3.468217 0.000000 0.000000 0.000000
-0.595901 -0.644488 3.508425 0.000000 0.000000 0.000000
-0.457601 -0.659969 3.564574 0.000000 0.000000 0.000000
-0.406411 -0.547855 3.376468 0.000000 0.000000 0.000000
-0.639406 -0.592455 3.381909 0.000000 0.000000 0.000000
-0.460166 -0.656309 3.567696 0.000000 0.000000 0.000000
-0.462559 -0.664094 3.576109 0.000000 0.000000 0.000000
-0.613505 -0.635377 3.467462 0.000000 0.000000 0.000000
-0.489487 -0.613143 3.456136 0.000000 0.000000 0.000000
-0.598312 -0.619167 3.450523 0.000000 0.000000 0.000000
-0.457909 -0.654372 3.548368 0.000000 0.000000 0.000000
-0.401701 -0.552911 3.394352 0.000000 0.000000 0.000000
-0.741245 -0.634989 3.486880 0.000000 0.000000 0.000000
-0.743288 -0.636747 3.493901 0.000000 0.000000 0.000000
-0.735962 -0.623854 3.479803 0.000000 0.000000 0.000000
-0.730965 -0.615517 3.466604 0.000000 0.000000 0.000000
-0.750004 -0.640398 3.484637 0.000000 0.000000 0.000000
-0.487136 -0.713391 3.659398 0.000000 0.000000 0.000000
-0.745374 -0.642328 3.503741 0.000000 0.000000 0.000000
-0.742904 -0.621538 3.474064 0.000000 0.000000 0.000000
-0.722309 -0.614928 3.471630 0.000000 0.000000 0.000000
-0.738873 -0.633678 3.483726 0.000000 0.000000 0.000000
-0.501578 -0.714360 3.662864 0.000000 0.000000 0.000000
0.022395 -0.234912 4.209009 0.000000 0.000000 0.000000
0.010796 -0.224285 4.212077 0.000000 0.000000 0.000000
0.003841 -0.233132 4.216959 0.000000 0.000000 0.000000
0.023661 -0.238867 4.210820 0.000000 0.000000 0.000000
0.009545 -0.226659 4.217853 0.000000 0.000000 0.000000
0.031606 -0.228060 4.218359 0.000000 0.000000 0.000000
-0.086425 -0.227214 4.214050 0.000000 0.000000 0.000000
0.016440 -0.221202 4.209422 0.000000 0.000000 0.000000
-0.095042 -0.217224 4.215132 0.000000 0.000000 0.000000
-0.084837 -0.220806 4.203319 0.000000 0.000000 0.000000
-0.100084 -0.206405 4.209375 0.000000 0.000000 0.000000
-0.115764 -0.228302 4.207784 0.000000 0.000000 0.000000
0.028381 -0.232144 4.212702 0.000000 0.000000 0.000000
0.001463 -0.206814 4.213243 0.000000 0.000000 0.000000
-0.095987 -0.204250 4.212414 0.000000 0.000000 0.000000
-0.103536 -0.200740 4.202219 0.000000 0.000000 0.000000
-0.118696 -0.210885 4.208138 0.000000 0.000000 0.000000
-0.094736 -0.201810 4.205938 0.000000 0.000000 0.000000
-0.110226 -0.218601 4.213715 0.000000 0.000000 0.000000
-0.095602 -0.221494 4.219203 0.000000 0.000000 0.000000
-0.100402 -0.214318 4.211377 0.000000 0.000000 0.000000
0.027164 -0.200487 4.203549 0.000000 0.000000 0.000000
0.024667 -0.207982 4.204680 0.000000 0.000000 0.000000
-0.113242 -0.233270 4.208852 0.000000 0.000000 0.000000
-0.103466 -0.228633 4.208405 0.000000 0.000000 0.000000
-0.111855 -0.235789 4.211209 0.000000 0.000000 0.000000
-0.092700 -0.213536 4.206109 0.000000 0.000000 0.000000
0.029994 -0.231670 4.208813 0.000000 0.000000 0.000000
-0.080666 -0.217793 4.201193 0.000000 0.000000 0.000000
-0.118553 -0.218783 4.222191 0.000000 0.000000 0.000000
-0.086752 -0.208560 4.203676 0.000000 0.000000 0.000000
-0.119322 -0.216189 4.211035 0.000000 0.000000 0.000000
0.166457 -0.323806 4.241246 0.000000 0.000000 0.000000
0.033375 -0.218850 4.211258 0.000000 0.000000 0.000000
-0.112510 -0.233206 4.219148 0.000000 0.000000 0.000000
-0.097864 -0.234452 4.233351 0.000000 0.000000 0.000000
-0.115443 -0.206703 4.210304 0.000000 0.000000 0.000000
-0.108629 -0.208484 4.212444 0.000000 0.000000 0.000000
-0.107270 -0.202360 4.207279 0.000000 0.000000 0.000000
0.160128 -0.351620 4.242190 0.000000 0.000000 0.000000
0.007772 -0.207520 4.212984 0.000000 0.000000 0.000000
0.018567 -0.209426 4.209849 0.000000 0.000000 0.000000
-0.108816 -0.211754 4.208369 0.000000 0.000000 0.000000
-0.106053 -0.205564 4.210069 0.000000 0.000000 0.000000
-0.115230 -0.227855 4.214372 0.000000 0.000000 0.000000
-0.148031 -0.260098 4.246596 0.000000 0.000000 0.000000
0.032181 -0.207426 4.204304 0.000000 0.000000 0.000000
-0.097549 -0.214332 4.208663 0.000000 0.000000 0.000000
-0.119746 -0.206164 4.209380 0.000000 0.000000 0.000000
-0.112085 -0.204241 4.208601 0.000000 0.000000 0.000000
0.010333 -0.440411 4.302571 0.000000 0.000000 0.000000
0.116778 -0.422095 4.368274 0.000000 0.000000 0.000000
0.117605 -0.414149 4.343590 0.000000 0.000000 0.000000
0.091292 -0.440352 4.382647 0.000000 0.000000 0.000000
0.251072 -0.437284 4.463922 0.000000 0.000000 0.000000
0.236048 -0.395324 4.376527 0.000000 0.000000 0.000000
0.215191 -0.424056 4.394860 0.000000 0.000000 0.000000
0.256867 -0.431880 4.447039 0.000000 0.000000 0.000000
0.184564 -0.394511 4.345673 0.000000 0.000000 0.000000
0.081857 -0.425856 4.402934 0.000000 0.000000 0.000000
0.228654 -0.435454 4.443627 0.000000 0.000000 0.000000
0.148331 -0.451610 4.434782 0.000000 0.000000 0.000000
0.119698 -0.425521 4.396479 0.000000 0.000000 0.000000
0.200219 -0.487570 4.500787 0.000000 0.000000 0.000000
0.217387 -0.395243 4.370318 0.000000 0.000000 0.000000
0.176801 -0.474152 4.489573 0.000000 0.000000 0.000000
0.231727 -0.506360 4.535380 0.000000 0.000000 0.000000
0.151184 -0.462222 4.464946 0.000000 0.000000 0.000000
0.163203 -0.404214 4.380153 0.000000 0.000000 0.000000
0.209435 -0.382726 4.346479 0.000000 0.000000 0.000000
0.152680 -0.499021 4.481562 0.000000 0.000000 0.000000
0.035643 -0.468024 4.403487 0.000000 0.000000 0.000000
0.040435 -0.490815 4.436609 0.000000 0.000000 0.000000
0.088608 -0.446771 4.463522 0.000000 0.000000 0.000000
0.074209 -0.468551 4.407122 0.000000 0.000000 0.000000
0.210459 -0.528572 4.542196 0.000000 0.000000 0.000000
0.166792 -0.374510 4.332478 0.000000 0.000000 0.000000
0.212635 -0.392830 4.355954 0.000000 0.000000 0.000000
0.188907 -0.492373 4.517818 0.000000 0.000000 0.000000
0.041877 -0.465128 4.400691 0.000000 0.000000 0.000000
0.202507 -0.415859 4.384424 0.000000 0.000000 0.000000
0.013724 -0.518531 4.451165 0.000000 0.000000 0.000000
0.184553 -0.403364 4.353121 0.000000 0.000000 0.000000
0.213345 -0.502494 4.509757 0.000000 0.000000 0.000000
0.238647 -0.528796 4.569327 0.000000 0.000000 0.000000
0.135270 -0.535240 4.527390 0.000000 0.000000 0.000000
0.212647 -0.413013 4.406802 0.000000 0.000000 0.000000
0.148692 -0.394570 4.342319 0.000000 0.000000 0.000000
0.132992 -0.410387 4.354084 0.000000 0.000000 0.000000
0.152359 -0.442010 4.407330 0.000000 0.000000 0.000000
0.191377 -0.421033 4.412254 0.000000 0.000000 0.000000
0.176314 -0.449202 4.440988 0.000000 0.000000 0.000000
0.164065 -0.408951 4.388466 0.000000 0.000000 0.000000
0.164333 -0.455258 4.429785 0.000000 0.000000 0.000000
0.200117 -0.383037 4.357624 0.000000 0.000000 0.000000
0.224021 -0.422072 4.381382 0.000000 0.000000 0.000000
0.241964 -0.424198 4.444531 0.000000 0.000000 0.000000
0.188396 -0.404125 4.385421 0.000000 0.000000 0.000000
0.188771 -0.470582 4.474116 0.000000 0.000000 0.000000
0.222854 -0.425892 4.435903 0.000000 0.000000 0.000000
0.176218 -0.479614 4.466721 0.000000 0.000000 0.000000
0.044215 -0.426587 4.359911 0.000000 0.000000 0.000000
0.130929 -0.452677 4.448129 0.000000 0.000000 0.000000
0.140519 -0.486309 4.494192 0.000000 0.000000 0.000000
0.230720 -0.445055 4.449770 0.000000 0.000000 0.000000
0.161168 -0.484040 4.478049 0.000000 0.000000 0.000000
0.139991 -0.440801 4.422902 0.000000 0.000000 0.000000
0.119932 -0.513587 4.493217 0.000000 0.000000 0.000000
0.063296 -0.467136 4.404016 0.000000 0.000000 0.000000
0.183200 -0.392581 4.338411 0.000000 0.000000 0.000000
0.148182 -0.526650 4.503765 0.000000 0.000000 0.000000
0.101155 -0.522389 4.498809 0.000000 0.000000 0.000000
0.153120 -0.538696 4.537937 0.000000 0.000000 0.000000
0.019570 -0.522579 4.457722 0.000000 0.000000 0.000000
0.139388 -0.544612 4.544682 0.000000 0.000000 0.000000
0.157005 -0.396091 4.375990 0.000000 0.000000 0.000000
0.132225 -0.454173 4.421723 0.000000 0.000000 0.000000
0.194232 -0.421016 4.390593 0.000000 0.000000 0.000000
0.189910 -0.421204 4.396882 0.000000 0.000000 0.000000
0.188943 -0.431601 4.425671 0.000000 0.000000 0.000000
0.193992 -0.380980 4.360372 0.000000 0.000000 0.000000
0.185719 -0.421511 4.402276 0.000000 0.000000 0.000000
0.159429 -0.376921 4.337069 0.000000 0.000000 0.000000
0.163538 -0.460086 4.446927 0.000000 0.000000 0.000000
0.146535 -0.480128 4.443102 0.000000 0.000000 0.000000
0.206361 -0.442705 4.421234 0.000000 0.000000 0.000000
0.227586 -0.451489 4.469684 0.000000 0.000000 0.000000
0.137147 -0.508451 4.491339 0.000000 0.000000 0.000000
0.109944 -0.444437 4.455941 0.000000 0.000000 0.000000
0.150429 -0.460601 4.505950 0.000000 0.000000 0.000000
0.223721 -0.427292 4.410740 0.000000 0.000000 0.000000
0.163405 -0.455491 4.459482 0.000000 0.000000 0.000000
0.188178 -0.367918 4.334727 0.000000 0.000000 0.000000
0.191838 -0.523351 4.538990 0.000000 0.000000 0.000000
0.033788 -0.473576 4.413276 0.000000 0.000000 0.000000
0.214105 -0.420086 4.371290 0.000000 0.000000 0.000000
0.032177 -0.519172 4.459452 0.000000 0.000000 0.000000
0.141691 -0.513858 4.490309 0.000000 0.000000 0.000000
0.122327 -0.517172 4.510614 0.000000 0.000000 0.000000
0.116833 -0.572080 4.579960 0.000000 0.000000 0.000000
0.093025 -0.537141 4.479158 0.000000 0.000000 0.000000
0.215570 -0.542633 4.589854 0.000000 0.000000 0.000000
0.207309 -0.412084 4.384476 0.000000 0.000000 0.000000
0.148094 -0.514448 4.513987 0.000000 0.000000 0.000000
0.087297 -0.528885 4.503338 0.000000 0.000000 0.000000
0.120370 -0.540647 4.536588 0.000000 0.000000 0.000000
0.061998 -0.545369 4.512004 0.000000 0.000000 0.000000
0.091494 -0.421633 4.408964 0.000000 0.000000 0.000000
0.204640 -0.442628 4.415870 0.000000 0.000000 0.000000
0.219980 -0.440859 4.421685 0.000000 0.000000 0.000000
0.178018 -0.390134 4.374711 0.000000 0.000000 0.000000
0.122248 -0.458230 4.446644 0.000000 0.000000 0.000000
0.126370 -0.485314 4.442751 0.000000 0.000000 0.000000
0.188130 -0.380774 4.343441 0.000000 0.000000 0.000000
0.238101 -0.510000 4.538703 0.000000 0.000000 0.000000
0.018022 -0.477687 4.403297 0.000000 0.000000 0.000000
0.158399 -0.532252 4.540627 0.000000 0.000000 0.000000
0.164569 -0.382945 4.349912 0.000000 0.000000 0.000000
0.129140 -0.498225 4.482685 0.000000 0.000000 0.000000
0.182699 -0.376926 4.331501 0.000000 0.000000 0.000000
0.191059 -0.399692 4.365185 0.000000 0.000000 0.000000
0.042896 -0.500942 4.437234 0.000000 0.000000 0.000000
0.203843 -0.561442 4.582488 0.000000 0.000000 0.000000
0.116930 -0.425819 4.412642 0.000000 0.000000 0.000000
0.193604 -0.466619 4.454360 0.000000 0.000000 0.000000
0.256409 -0.453369 4.492463 0.000000 0.000000 0.000000
0.107736 -0.433115 4.413673 0.000000 0.000000 0.000000
0.017860 -0.548403 4.479544 0.000000 0.000000 0.000000
0.172123 -0.553262 4.577628 0.000000 0.000000 0.000000
0.065545 -0.562895 4.534263 0.000000 0.000000 0.000000
0.145768 -0.419577 4.374451 0.000000 0.000000 0.000000
0.124794 -0.415368 4.363483 0.000000 0.000000 0.000000
0.084430 -0.437332 4.424144 0.000000 0.000000 0.000000
0.166017 -0.400679 4.350097 0.000000 0.000000 0.000000
0.193698 -0.420526 4.381107 0.000000 0.000000 0.000000
0.157974 -0.507925 4.489699 0.000000 0.000000 0.000000
0.133638 -0.503501 4.507593 0.000000 0.000000 0.000000
0.071762 -0.471132 4.433065 0.000000 0.000000 0.000000
0.236998 -0.538470 4.548867 0.000000 0.000000 0.000000
-0.001101 -0.500754 4.425100 0.000000 0.000000 0.000000
0.166079 -0.418438 4.382310 0.000000 0.000000 0.000000
0.154503 -0.383511 4.361583 0.000000 0.000000 0.000000
0.181717 -0.384822 4.335723 0.000000 0.000000 0.000000
0.177832 -0.475641 4.464617 0.000000 0.000000 0.000000
0.108462 -0.545840 4.536150 0.000000 0.000000 0.000000
0.085678 -0.425477 4.418537 0.000000 0.000000 0.000000
0.094634 -0.570690 4.573771 0.000000 0.000000 0.000000
0.135549 -0.430376 4.398633 0.000000 0.000000 0.000000
0.091488 -0.454780 4.379863 0.000000 0.000000 0.000000
0.032186 -0.447759 4.385435 0.000000 0.000000 0.000000
0.126859 -0.470615 4.427571 0.000000 0.000000 0.000000
0.061340 -0.553811 4.518746 0.000000 0.000000 0.000000
0.225990 -0.412068 4.389112 0.000000 0.000000 0.000000
0.204467 -0.491590 4.512892 0.000000 0.000000 0.000000
0.140944 -0.408009 4.347384 0.000000 0.000000 0.000000
0.057577 -0.450506 4.403836 0.000000 0.000000 0.000000
0.098053 -0.536199 4.522014 0.000000 0.000000 0.000000
-0.016996 -0.512840 4.430818 0.000000 0.000000 0.000000
0.197667 -0.573761 4.594376 0.000000 0.000000 0.000000
0.045864 -0.439676 4.380171 0.000000 0.000000 0.000000
0.162387 -0.420923 4.363782 0.000000 0.000000 0.000000
0.204564 -0.370231 4.330585 0.000000 0.000000 0.000000
0.054058 -0.542494 4.500141 0.000000 0.000000 0.000000
0.089039 -0.466834 4.396404 0.000000 0.000000 0.000000
0.016814 -0.529486 4.461615 0.000000 0.000000 0.000000
0.112591 -0.633968 4.659742 0.000000 0.000000 0.000000
0.075326 -0.516038 4.484036 0.000000 0.000000 0.000000
0.034192 -0.541454 4.498457 0.000000 0.000000 0.000000
0.244270 -0.417001 4.415684 0.000000 0.000000 0.000000
0.098472 -0.418963 4.368447 0.000000 0.000000 0.000000
0.237320 -0.489990 4.531434 0.000000 0.000000 0.000000
0.108005 -0.529249 4.520072 0.000000 0.000000 0.000000
-0.009045 -0.512362 4.438640 0.000000 0.000000 0.000000
0.055059 -0.539578 4.501983 0.000000 0.000000 0.000000
0.019054 -0.538627 4.486609 0.000000 0.000000 0.000000
0.056857 -0.438254 4.370136 0.000000 0.000000 0.000000
0.090862 -0.449085 4.409016 0.000000 0.000000 0.000000
0.077369 -0.511005 4.488731 0.000000 0.000000 0.000000
0.163150 -0.404848 4.352493 0.000000 0.000000 0.000000
0.193821 -0.363151 4.324249 0.000000 0.000000 0.000000
0.082865 -0.448379 4.443805 0.000000 0.000000 0.000000
0.033606 -0.512570 4.458295 0.000000 0.000000 0.000000
0.021847 -0.573713 4.511109 0.000000 0.000000 0.000000
0.024580 -0.532386 4.475587 0.000000 0.000000 0.000000
0.009655 -0.544698 4.490516 0.000000 0.000000 0.000000
0.114670 -0.618568 4.629832 0.000000 0.000000 0.000000
0.058404 -0.545706 4.502676 0.000000 0.000000 0.000000
0.226479 -0.526102 4.543912 0.000000 0.000000 0.000000
0.175408 -0.371109 4.326005 0.000000 0.000000 0.000000
0.173248 -0.401646 4.365087 0.000000 0.000000 0.000000
0.058789 -0.440071 4.387224 0.000000 0.000000 0.000000
0.172675 -0.554107 4.550951 0.000000 0.000000 0.000000
0.191347 -0.538392 4.570158 0.000000 0.000000 0.000000
0.272458 -0.437297 4.464924 0.000000 0.000000 0.000000
0.120646 -0.560253 4.563953 0.000000 0.000000 0.000000
0.142912 -0.507632 4.491295 0.000000 0.000000 0.000000
0.143266 -0.497136 4.506744 0.000000 0.000000 0.000000
0.120632 -0.552356 4.554640 0.000000 0.000000 0.000000
0.088748 -0.562620 4.555823 0.000000 0.000000 0.000000
0.074434 -0.427151 4.366158 0.000000 0.000000 0.000000
0.161514 -0.565424 4.553519 0.000000 0.000000 0.000000
0.196875 -0.513486 4.542745 0.000000 0.000000 0.000000
0.203735 -0.571524 4.616175 0.000000 0.000000 0.000000
0.178579 -0.343037 4.321898 0.000000 0.000000 0.000000
0.100938 -0.640199 4.660835 0.000000 0.000000 0.000000
0.107133 -0.495351 4.475533 0.000000 0.000000 0.000000
-0.021953 -0.573699 4.504397 0.000000 0.000000 0.000000
0.078400 -0.580095 4.570948 0.000000 0.000000 0.000000
0.063099 -0.472613 4.399349 0.000000 0.000000 0.000000
0.067110 -0.424022 4.387919 0.000000 0.000000 0.000000
0.168570 -0.542091 4.528615 0.000000 0.000000 0.000000
0.199379 -0.552528 4.572465 0.000000 0.000000 0.000000
0.088717 -0.456420 4.384977 0.000000 0.000000 0.000000
0.225210 -0.417185 4.424544 0.000000 0.000000 0.000000
0.122361 -0.523505 4.520185 0.000000 0.000000 0.000000
0.147209 -0.572936 4.552175 0.000000 0.000000 0.000000
0.152374 -0.388418 4.353545 0.000000 0.000000 0.000000
0.051307 -0.431417 4.371826 0.000000 0.000000 0.000000
0.023168 -0.510686 4.445435 0.000000 0.000000 0.000000
0.026311 -0.489768 4.419038 0.000000 0.000000 0.000000
0.210716 -0.528059 4.560574 0.000000 0.000000 0.000000
0.044694 -0.596978 4.576748 0.000000 0.000000 0.000000
0.170577 -0.602715 4.624905 0.000000 0.000000 0.000000
-0.008213 -0.587042 4.530124 0.000000 0.000000 0.000000
0.048926 -0.458282 4.379878 0.000000 0.000000 0.000000
-0.010552 -0.566353 4.503479 0.000000 0.000000 0.000000
0.032149 -0.551474 4.510712 0.000000 0.000000 0.000000
-0.005148 -0.587326 4.528803 0.000000 0.000000 0.000000
-0.006243 -0.574645 4.511273 0.000000 0.000000 0.000000
0.171817 -0.409342 4.404200 0.000000 0.000000 0.000000
0.102031 -0.424276 4.400177 0.000000 0.000000 0.000000
0.117200 -0.451022 4.415219 0.000000 0.000000 0.000000
0.106560 -0.547887 4.530742 0.000000 0.000000 0.000000
0.092826 -0.613248 4.615992 0.000000 0.000000 0.000000
0.092889 -0.406830 4.381219 0.000000 0.000000 0.000000
0.157705 -0.378455 4.317649 0.000000 0.000000 0.000000
0.147369 -0.560233 4.574198 0.000000 0.000000 0.000000
0.122000 -0.640236 4.662856 0.000000 0.000000 0.000000
0.196564 -0.384773 4.352019 0.000000 0.000000 0.000000
0.112837 -0.401671 4.378499 0.000000 0.000000 0.000000
0.194677 -0.398557 4.350381 0.000000 0.000000 0.000000
0.151805 -0.596577 4.610244 0.000000 0.000000 0.000000
0.047744 -0.572381 4.557151 0.000000 0.000000 0.000000
0.173646 -0.418739 4.366910 0.000000 0.000000 0.000000
0.026220 -0.618122 4.582068 0.000000 0.000000 0.000000
0.101012 -0.580876 4.546686 0.000000 0.000000 0.000000
0.038034 -0.580212 4.554923 0.000000 0.000000 0.000000
0.047178 -0.565392 4.532512 0.000000 0.000000 0.000000
0.146045 -0.590347 4.576711 0.000000 0.000000 0.000000
0.112991 -0.584828 4.581029 0.000000 0.000000 0.000000
0.021304 -0.601477 4.567883 0.000000 0.000000 0.000000
0.021351 -0.616993 4.587467 0.000000 0.000000 0.000000
0.072986 -0.611332 4.588093 0.000000 0.000000 0.000000
0.263194 -0.418422 4.422009 0.000000 0.000000 0.000000
0.192936 -0.388714 4.363416 0.000000 0.000000 0.000000
0.239291 -0.518070 4.553996 0.000000 0.000000 0.000000
0.093906 -0.450227 4.398665 0.000000 0.000000 0.000000
0.116500 -0.458332 4.404930 0.000000 0.000000 0.000000
0.104460 -0.546802 4.539217 0.000000 0.000000 0.000000
0.237660 -0.490745 4.510748 0.000000 0.000000 0.000000
0.063486 -0.635755 4.646449 0.000000 0.000000 0.000000
0.185036 -0.356448 4.319177 0.000000 0.000000 0.000000
0.141234 -0.543488 4.548408 0.000000 0.000000 0.000000
0.156718 -0.543715 4.560870 0.000000 0.000000 0.000000
0.132428 -0.394856 4.365182 0.000000 0.000000 0.000000
0.156041 -0.390958 4.334416 0.000000 0.000000 0.000000
0.039059 -0.582267 4.545178 0.000000 0.000000 0.000000
0.169823 -0.594314 4.613430 0.000000 0.000000 0.000000
0.131548 -0.588952 4.613686 0.000000 0.000000 0.000000
0.036499 -0.609027 4.572234 0.000000 0.000000 0.000000
0.070511 -0.624310 4.622224 0.000000 0.000000 0.000000
0.026127 -0.553082 4.499270 0.000000 0.000000 0.000000
0.059355 -0.588017 4.571993 0.000000 0.000000 0.000000
0.090329 -0.613698 4.600852 0.000000 0.000000 0.000000
0.008296 -0.605367 4.553863 0.000000 0.000000 0.000000
0.193747 -0.574339 4.603689 0.000000 0.000000 0.000000
-0.017386 -0.583519 4.517562 0.000000 0.000000 0.000000
0.108713 -0.631870 4.646399 0.000000 0.000000 0.000000
0.131208 -0.414908 4.339215 0.000000 0.000000 0.000000
0.197056 -0.581507 4.614063 0.000000 0.000000 0.000000
0.081679 -0.578222 4.564777 0.000000 0.000000 0.000000
0.194358 -0.541255 4.577367 0.000000 0.000000 0.000000
0.258299 -0.435676 4.439388 0.000000 0.000000 0.000000
0.101260 -0.629215 4.636754 0.000000 0.000000 0.000000
0.086996 -0.636690 4.654071 0.000000 0.000000 0.000000
0.244325 -0.518672 4.562212 0.000000 0.000000 0.000000
0.254620 -0.485795 4.519196 0.000000 0.000000 0.000000
0.177726 -0.586028 4.592306 0.000000 0.000000 0.000000
0.255235 -0.452448 4.481600 0.000000 0.000000 0.000000
0.192604 -0.415276 4.372481 0.000000 0.000000 0.000000
-0.022057 -0.564908 4.495844 0.000000 0.000000 0.000000
0.172461 -0.421328 4.382269 0.000000 0.000000 0.000000
0.062221 -0.637505 4.630821 0.000000 0.000000 0.000000
0.192008 -0.585452 4.606130 0.000000 0.000000 0.000000
0.079143 -0.598463 4.587897 0.000000 0.000000 0.000000
0.182260 -0.552151 4.581551 0.000000 0.000000 0.000000
0.116821 -0.631895 4.650242 0.000000 0.000000 0.000000
0.099209 -0.608174 4.621845 0.000000 0.000000 0.000000
0.049311 -0.641950 4.643449 0.000000 0.000000 0.000000
0.064878 -0.635584 4.608674 0.000000 0.000000 0.000000
-0.006269 -0.582584 4.522811 0.000000 0.000000 0.000000
0.176963 -0.521054 4.511730 0.000000 0.000000 0.000000
0.206721 -0.387976 4.345735 0.000000 0.000000 0.000000
0.199429 -0.543853 4.554999 0.000000 0.000000 0.000000
0.172401 -0.447266 4.447732 0.000000 0.000000 0.000000
0.181865 -0.532935 4.550700 0.000000 0.000000 0.000000
0.171948 -0.501939 4.523463 0.000000 0.000000 0.000000
0.148682 -0.452913 4.442243 0.000000 0.000000 0.000000
0.219892 -0.491242 4.510972 0.000000 0.000000 0.000000
0.173514 -0.546034 4.563126 0.000000 0.000000 0.000000
0.217938 -0.494490 4.519293 0.000000 0.000000 0.000000
0.018022 -0.553779 4.489285 0.000000 0.000000 0.000000
0.043846 -0.553439 4.508208 0.000000 0.000000 0.000000
0.165381 -0.387496 4.355841 0.000000 0.000000 0.000000
0.206170 -0.572899 4.607063 0.000000 0.000000 0.000000
0.004850 -0.580061 4.521521 0.000000 0.000000 0.000000
0.127764 -0.634521 4.655944 0.000000 0.000000 0.000000
0.040691 -0.632768 4.620065 0.000000 0.000000 0.000000
0.034489 -0.625214 4.587025 0.000000 0.000000 0.000000
0.155651 -0.577732 4.601651 0.000000 0.000000 0.000000
0.191042 -0.374401 4.337834 0.000000 0.000000 0.000000
0.000805 -0.618421 4.567422 0.000000 0.000000 0.000000
0.061273 -0.653130 4.662592 0.000000 0.000000 0.000000
0.094538 -0.629541 4.647371 0.000000 0.000000 0.000000
0.159539 -0.491648 4.505344 0.000000 0.000000 0.000000
0.192629 -0.525641 4.551419 0.000000 0.000000 0.000000
0.192085 -0.454445 4.473103 0.000000 0.000000 0.000000
0.160052 -0.522292 4.518373 0.000000 0.000000 0.000000
0.138382 -0.529105 4.504918 0.000000 0.000000 0.000000
0.171041 -0.428141 4.424448 0.000000 0.000000 0.000000
0.233682 -0.404436 4.381544 0.000000 0.000000 0.000000
0.219418 -0.387118 4.355494 0.000000 0.000000 0.000000
0.179657 -0.541515 4.568588 0.000000 0.000000 0.000000
0.196500 -0.510307 4.526279 0.000000 0.000000 0.000000
0.050873 -0.440782 4.396569 0.000000 0.000000 0.000000
0.126445 -0.599193 4.620177 0.000000 0.000000 0.000000
0.038540 -0.535205 4.481217 0.000000 0.000000 0.000000
0.137361 -0.419362 4.373357 0.000000 0.000000 0.000000
-0.011686 -0.575972 4.513597 0.000000 0.000000 0.000000
0.110972 -0.639492 4.659031 0.000000 0.000000 0.000000
0.164632 -0.585986 4.606920 0.000000 0.000000 0.000000
0.196685 -0.390342 4.335824 0.000000 0.000000 0.000000
0.037537 -0.649737 4.641876 0.000000 0.000000 0.000000
0.009900 -0.616883 4.581398 0.000000 0.000000 0.000000
0.065497 -0.646010 4.645328 0.000000 0.000000 0.000000
0.195760 -0.579827 4.595467 0.000000 0.000000 0.000000
-0.004660 -0.596934 4.545447 0.000000 0.000000 0.000000
0.087594 -0.648486 4.670312 0.000000 0.000000 0.000000
0.201044 -0.382868 4.329218 0.000000 0.000000 0.000000
0.252201 -0.498741 4.540672 0.000000 0.000000 0.000000
0.248628 -0.491894 4.517317 0.000000 0.000000 0.000000
0.246066 -0.511086 4.541120 0.000000 0.000000 0.000000
0.127989 -0.612101 4.633594 0.000000 0.000000 0.000000
-0.004338 -0.603853 4.563128 0.000000 0.000000 0.000000
0.057342 -0.635590 4.616864 0.000000 0.000000 0.000000
0.233239 -0.485888 4.521201 0.000000 0.000000 0.000000
0.249095 -0.484490 4.513821 0.000000 0.000000 0.000000
0.227472 -0.504463 4.533160 0.000000 0.000000 0.000000
0.133650 -0.623803 4.638975 0.000000 0.000000 0.000000
0.105945 -0.642624 4.676284 0.000000 0.000000 0.000000
0.083261 -0.658107 4.678119 0.000000 0.000000 0.000000
0.001915 -0.510563 4.437671 0.000000 0.000000 0.000000
-0.017705 -0.520550 4.442379 0.000000 0.000000 0.000000
-0.018102 -0.589920 4.528150 0.000000 0.000000 0.000000
0.168388 -0.610322 4.633958 0.000000 0.000000 0.000000
0.266105 -0.456709 4.488520 0.000000 0.000000 0.000000
0.070877 -0.500628 4.441217 0.000000 0.000000 0.000000
0.178957 -0.586975 4.608274 0.000000 0.000000 0.000000
0.075855 -0.545974 4.518799 0.000000 0.000000 0.000000
0.244985 -0.457305 4.487731 0.000000 0.000000 0.000000
0.213120 -0.406720 4.377926 0.000000 0.000000 0.000000
0.048353 -0.621214 4.602303 0.000000 0.000000 0.000000
0.105739 -0.550581 4.545890 0.000000 0.000000 0.000000
0.070556 -0.587315 4.569165 0.000000 0.000000 0.000000
0.118228 -0.578797 4.597922 0.000000 0.000000 0.000000
0.077445 -0.633936 4.642212 0.000000 0.000000 0.000000
0.069377 -0.655267 4.668810 0.000000 0.000000 0.000000
0.067219 -0.614483 4.601047 0.000000 0.000000 0.000000
0.131795 -0.582388 4.575627 0.000000 0.000000 0.000000
0.050697 -0.623251 4.610926 0.000000 0.000000 0.000000
0.193899 -0.541695 4.567206 0.000000 0.000000 0.000000
0.085625 -0.628172 4.626625 0.000000 0.000000 0.000000
0.140196 -0.567815 4.564351 0.000000 0.000000 0.000000
0.233319 -0.469933 4.489814 0.000000 0.000000 0.000000
0.272238 -0.445920 4.473032 0.000000 0.000000 0.000000
0.201846 -0.469716 4.454359 0.000000 0.000000 0.000000
0.165679 -0.577355 4.598481 0.000000 0.000000 0.000000
0.126104 -0.600208 4.600893 0.000000 0.000000 0.000000
0.068414 -0.448431 4.417604 0.000000 0.000000 0.000000
0.226445 -0.412453 4.389494 0.000000 0.000000 0.000000
0.100304 -0.596350 4.593603 0.000000 0.000000 0.000000
0.064074 -0.602380 4.579678 0.000000 0.000000 0.000000
0.117244 -0.562339 4.562185 0.000000 0.000000 0.000000
-0.024104 -0.528645 4.461276 0.000000 0.000000 0.000000
0.077383 -0.607691 4.603456 0.000000 0.000000 0.000000
0.106516 -0.618170 4.624052 0.000000 0.000000 0.000000
0.096203 -0.608275 4.643087 0.000000 0.000000 0.000000
0.051138 -0.638169 4.649447 0.000000 0.000000 0.000000
0.085803 -0.582483 4.561062 0.000000 0.000000 0.000000
0.134807 -0.583486 4.590169 0.000000 0.000000 0.000000
0.133560 -0.609910 4.631690 0.000000 0.000000 0.000000
0.115974 -0.574860 4.570278 0.000000 0.000000 0.000000
0.143001 -0.599181 4.622048 0.000000 0.000000 0.000000
0.090619 -0.604978 4.599724 0.000000 0.000000 0.000000
0.132712 -0.564856 4.581891 0.000000 0.000000 0.000000
0.005463 -0.621693 4.586654 0.000000 0.000000 0.000000
0.032171 -0.636365 4.617040 0.000000 0.000000 0.000000
-0.013856 -0.592845 4.528762 0.000000 0.000000 0.000000
-0.014792 -0.560349 4.488033 0.000000 0.000000 0.000000
0.248492 -0.446179 4.484286 0.000000 0.000000 0.000000
0.247897 -0.467712 4.489000 0.000000 0.000000 0.000000
0.081243 -0.506028 4.461216 0.000000 0.000000 0.000000
0.219534 -0.555643 4.593956 0.000000 0.000000 0.000000
0.254058 -0.449671 4.463537 0.000000 0.000000 0.000000
0.106543 -0.644808 4.669162 0.000000 0.000000 0.000000
0.076345 -0.649180 4.664450 0.000000 0.000000 0.000000
0.225998 -0.455371 4.458567 0.000000 0.000000 0.000000
0.258084 -0.470585 4.502056 0.000000 0.000000 0.000000
0.260852 -0.481111 4.517358 0.000000 0.000000 0.000000
0.051086 -0.463891 4.389193 0.000000 0.000000 0.000000
0.249919 -0.453715 4.487113 0.000000 0.000000 0.000000
0.105160 -0.481991 4.441473 0.000000 0.000000 0.000000
0.167361 -0.424116 4.422715 0.000000 0.000000 0.000000
0.216814 -0.542589 4.582273 0.000000 0.000000 0.000000
0.090416 -0.647707 4.666011 0.000000 0.000000 0.000000
-0.025447 -0.559416 4.490519 0.000000 0.000000 0.000000
0.241524 -0.439106 4.451122 0.000000 0.000000 0.000000
0.180205 -0.574043 4.581958 0.000000 0.000000 0.000000
0.077115 -0.653381 4.671262 0.000000 0.000000 0.000000
0.007638 -0.608902 4.562293 0.000000 0.000000 0.000000
0.217763 -0.530671 4.564723 0.000000 0.000000 0.000000
0.245900 -0.515410 4.557038 0.000000 0.000000 0.000000
0.234717 -0.413979 4.427076 0.000000 0.000000 0.000000
0.135095 -0.634627 4.647733 0.000000 0.000000 0.000000
0.047663 -0.657251 4.664395 0.000000 0.000000 0.000000
0.021920 -0.641129 4.618368 0.000000 0.000000 0.000000
0.219119 -0.507656 4.537911 0.000000 0.000000 0.000000
0.229772 -0.415066 4.436101 0.000000 0.000000 0.000000
0.157719 -0.618639 4.640057 0.000000 0.000000 0.000000
0.188108 -0.336703 4.309982 0.000000 0.000000 0.000000
-0.022118 -0.579429 4.512391 0.000000 0.000000 0.000000
0.124801 -0.393495 4.343278 0.000000 0.000000 0.000000
0.059703 -0.490628 4.427018 0.000000 0.000000 0.000000
0.194489 -0.428026 4.388570 0.000000 0.000000 0.000000
0.087627 -0.441984 4.365490 0.000000 0.000000 0.000000
0.082524 -0.410951 4.378054 0.000000 0.000000 0.000000
0.134905 -0.420829 4.387904 0.000000 0.000000 0.000000
0.069313 -0.414752 4.366925 0.000000 0.000000 0.000000
0.186404 -0.415496 4.415500 0.000000 0.000000 0.000000
0.168171 -0.436420 4.388311 0.000000 0.000000 0.000000
0.242022 -0.451987 4.481823 0.000000 0.000000 0.000000
0.236519 -0.457254 4.467854 0.000000 0.000000 0.000000
0.258421 -0.454007 4.477132 0.000000 0.000000 0.000000
0.006205 -0.542194 4.474452 0.000000 0.000000 0.000000
-0.013677 -0.538093 4.470627 0.000000 0.000000 0.000000
0.085703 -0.432078 4.362089 0.000000 0.000000 0.000000
0.221330 -0.547337 4.585612 0.000000 0.000000 0.000000
0.245801 -0.460927 4.482245 0.000000 0.000000 0.000000
0.178313 -0.413707 4.366023 0.000000 0.000000 0.000000
0.096877 -0.435496 4.366868 0.000000 0.000000 0.000000
0.184221 -0.429445 4.388220 0.000000 0.000000 0.000000
0.047990 -0.626748 4.609263 0.000000 0.000000 0.000000
0.243777 -0.483825 4.526570 0.000000 0.000000 0.000000
0.175784 -0.444902 4.406460 0.000000 0.000000 0.000000
0.043572 -0.663118 4.676399 0.000000 0.000000 0.000000
0.262622 -0.446170 4.462064 0.000000 0.000000 0.000000
-0.011176 -0.597830 4.536415 0.000000 0.000000 0.000000
-0.008348 -0.607622 4.553774 0.000000 0.000000 0.000000
0.249573 -0.421992 4.423808 0.000000 0.000000 0.000000
0.061379 -0.578431 4.556930 0.000000 0.000000 0.000000
0.086634 -0.545453 4.527361 0.000000 0.000000 0.000000
0.143523 -0.621275 4.645483 0.000000 0.000000 0.000000
0.030611 -0.644338 4.629186 0.000000 0.000000 0.000000
0.221371 -0.407704 4.399158 0.000000 0.000000 0.000000
0.162655 -0.612430 4.637791 0.000000 0.000000 0.000000
0.042841 -0.486523 4.416193 0.000000 0.000000 0.000000
0.237376 -0.406879 4.392921 0.000000 0.000000 0.000000
0.097624 -0.551354 4.547516 0.000000 0.000000 0.000000
0.088416 -0.571151 4.560409 0.000000 0.000000 0.000000
0.226914 -0.420693 4.412139 0.000000 0.000000 0.000000
0.187161 -0.355147 4.324518 0.000000 0.000000 0.000000
0.246080 -0.439001 4.449888 0.000000 0.000000 0.000000
0.221967 -0.511106 4.526316 0.000000 0.000000 0.000000
0.192831 -0.474796 4.499759 0.000000 0.000000 0.000000
0.233780 -0.541268 4.567901 0.000000 0.000000 0.000000
0.166666 -0.376882 4.321580 0.000000 0.000000 0.000000
0.149328 -0.378875 4.339840 0.000000 0.000000 0.000000
0.181284 -0.358213 4.310136 0.000000 0.000000 0.000000
0.106809 -0.588624 4.579790 0.000000 0.000000 0.000000
0.223997 -0.494443 4.501312 0.000000 0.000000 0.000000
0.215247 -0.483666 4.495839 0.000000 0.000000 0.000000
0.247877 -0.474813 4.518769 0.000000 0.000000 0.000000
0.117996 -0.537979 4.519590 0.000000 0.000000 0.000000
0.245552 -0.466850 4.498155 0.000000 0.000000 0.000000
0.059841 -0.662057 4.680804 0.000000 0.000000 0.000000
0.179284 -0.368614 4.332431 0.000000 0.000000 0.000000
0.232127 -0.517728 4.546303 0.000000 0.000000 0.000000
0.182694 -0.368814 4.321882 0.000000 0.000000 0.000000
0.160285 -0.391371 4.339026 0.000000 0.000000 0.000000
0.184797 -0.345191 4.312277 0.000000 0.000000 0.000000
0.266700 -0.435440 4.448630 0.000000 0.000000 0.000000
0.101250 -0.612795 4.599126 0.000000 0.000000 0.000000
0.206446 -0.439999 4.456492 0.000000 0.000000 0.000000
0.185668 -0.577253 4.598220 0.000000 0.000000 0.000000
0.152429 -0.622745 4.651978 0.000000 0.000000 0.000000
0.241243 -0.470945 4.507756 0.000000 0.000000 0.000000
0.191180 -0.389460 4.357740 0.000000 0.000000 0.000000
0.258122 -0.463178 4.475854 0.000000 0.000000 0.000000
0.200623 -0.414297 4.365692 0.000000 0.000000 0.000000
0.083573 -0.502269 4.457743 0.000000 0.000000 0.000000
0.085857 -0.483526 4.458436 0.000000 0.000000 0.000000
0.054743 -0.516172 4.460426 0.000000 0.000000 0.000000
0.055339 -0.481362 4.436332 0.000000 0.000000 0.000000
0.036872 -0.532483 4.490999 0.000000 0.000000 0.000000
0.196498 -0.437533 4.372866 0.000000 0.000000 0.000000
0.114411 -0.392063 4.364292 0.000000 0.000000 0.000000
0.067960 -0.496191 4.442556 0.000000 0.000000 0.000000
0.174543 -0.604168 4.639274 0.000000 0.000000 0.000000
0.027969 -0.541179 4.478508 0.000000 0.000000 0.000000
0.216002 -0.394532 4.375099 0.000000 0.000000 0.000000
0.219928 -0.400733 4.363356 0.000000 0.000000 0.000000
0.220559 -0.540991 4.569114 0.000000 0.000000 0.000000
0.049010 -0.520753 4.473850 0.000000 0.000000 0.000000
0.096585 -0.513463 4.480169 0.000000 0.000000 0.000000
0.226218 -0.535379 4.564386 0.000000 0.000000 0.000000
0.050220 -0.499622 4.453637 0.000000 0.000000 0.000000
0.071258 -0.520773 4.493497 0.000000 0.000000 0.000000
0.059457 -0.487895 4.424701 0.000000 0.000000 0.000000
0.159637 -0.623526 4.630130 0.000000 0.000000 0.000000
0.067213 -0.525340 4.477870 0.000000 0.000000 0.000000
0.189004 -0.377199 4.323819 0.000000 0.000000 0.000000
0.085239 -0.655602 4.673143 0.000000 0.000000 0.000000
0.251417 -0.441526 4.462604 0.000000 0.000000 0.000000
0.126553 -0.634401 4.658008 0.000000 0.000000 0.000000
0.156359 -0.620233 4.637673 0.000000 0.000000 0.000000
0.155301 -0.635393 4.653230 0.000000 0.000000 0.000000
0.117905 -0.621312 4.644047 0.000000 0.000000 0.000000
0.238652 -0.500372 4.532421 0.000000 0.000000 0.000000
0.170257 -0.608847 4.624077 0.000000 0.000000 0.000000
0.071913 -0.649523 4.659471 0.000000 0.000000 0.000000
0.079911 -0.663346 4.681299 0.000000 0.000000 0.000000
0.119076 -0.485414 4.475013 0.000000 0.000000 0.000000
0.016321 -0.483324 4.417267 0.000000 0.000000 0.000000
0.025905 -0.515004 4.451134 0.000000 0.000000 0.000000
0.196580 -0.376924 4.326488 0.000000 0.000000 0.000000
0.002121 -0.476197 4.404992 0.000000 0.000000 0.000000
0.194159 -0.376210 4.332611 0.000000 0.000000 0.000000
0.085185 -0.643094 4.652196 0.000000 0.000000 0.000000
0.259079 -0.462873 4.507397 0.000000 0.000000 0.000000
0.259755 -0.464756 4.493050 0.000000 0.000000 0.000000
0.028611 -0.476010 4.407408 0.000000 0.000000 0.000000
0.035323 -0.483284 4.422362 0.000000 0.000000 0.000000
0.017756 -0.499311 4.430785 0.000000 0.000000 0.000000
0.201929 -0.381292 4.331528 0.000000 0.000000 0.000000
0.004305 -0.491629 4.418153 0.000000 0.000000 0.000000
0.184207 -0.363824 4.326545 0.000000 0.000000 0.000000
0.132401 -0.614671 4.624857 0.000000 0.000000 0.000000
0.256731 -0.466499 4.508336 0.000000 0.000000 0.000000
0.257262 -0.473980 4.503669 0.000000 0.000000 0.000000
0.003797 -0.517061 4.445868 0.000000 0.000000 0.000000
0.051345 -0.466597 4.416281 0.000000 0.000000 0.000000
0.093627 -0.661261 4.679840 0.000000 0.000000 0.000000
0.048564 -0.661530 4.675425 0.000000 0.000000 0.000000
0.044262 -0.447987 4.383062 0.000000 0.000000 0.000000
0.146925 -0.621835 4.643940 0.000000 0.000000 0.000000
0.189687 -0.586989 4.617233 0.000000 0.000000 0.000000
0.222802 -0.550817 4.590424 0.000000 0.000000 0.000000
0.045772 -0.447142 4.374422 0.000000 0.000000 0.000000
0.155147 -0.608298 4.633038 0.000000 0.000000 0.000000
0.193051 -0.584505 4.622460 0.000000 0.000000 0.000000
0.219434 -0.557661 4.586049 0.000000 0.000000 0.000000
0.168391 -0.600798 4.641300 0.000000 0.000000 0.000000
-0.016766 -0.516341 4.436300 0.000000 0.000000 0.000000
0.053828 -0.651184 4.658523 0.000000 0.000000 0.000000
0.181923 -0.350531 4.305686 0.000000 0.000000 0.000000
0.264934 -0.462994 4.487453 0.000000 0.000000 0.000000
0.266946 -0.462428 4.496825 0.000000 0.000000 0.000000
-0.003528 -0.528597 4.459520 0.000000 0.000000 0.000000
0.036685 -0.649514 4.646948 0.000000 0.000000 0.000000
0.204217 -0.565518 4.596552 0.000000 0.000000 0.000000
0.140305 -0.639783 4.661869 0.000000 0.000000 0.000000
0.157266 -0.628602 4.653410 0.000000 0.000000 0.000000
0.037752 -0.443634 4.384134 0.000000 0.000000 0.000000
0.265502 -0.463615 4.501616 0.000000 0.000000 0.000000
0.245271 -0.427335 4.445403 0.000000 0.000000 0.000000
0.147317 -0.637216 4.641297 0.000000 0.000000 0.000000
0.139401 -0.621909 4.645883 0.000000 0.000000 0.000000
0.053971 -0.662987 4.669855 0.000000 0.000000 0.000000
0.196435 -0.395976 4.393504 0.000000 0.000000 0.000000
0.194259 -0.457889 4.443769 0.000000 0.000000 0.000000
0.155038 -0.427198 4.369799 0.000000 0.000000 0.000000
0.162437 -0.575563 4.582205 0.000000 0.000000 0.000000
0.201980 -0.397155 4.378805 0.000000 0.000000 0.000000
0.220732 -0.454771 4.450754 0.000000 0.000000 0.000000
0.052319 -0.628531 4.609453 0.000000 0.000000 0.000000
0.137008 -0.594527 4.598903 0.000000 0.000000 0.000000
0.035387 -0.458318 4.380205 0.000000 0.000000 0.000000
0.258309 -0.468506 4.490355 0.000000 0.000000 0.000000
0.182185 -0.593954 4.632267 0.000000 0.000000 0.000000
0.215076 -0.426383 4.401135 0.000000 0.000000 0.000000
0.169784 -0.625681 4.641621 0.000000 0.000000 0.000000
0.173131 -0.606797 4.618864 0.000000 0.000000 0.000000
0.026943 -0.474159 4.400530 0.000000 0.000000 0.000000
0.233326 -0.538035 4.573186 0.000000 0.000000 0.000000
0.028550 -0.466771 4.388055 0.000000 0.000000 0.000000
0.262780 -0.443740 4.462504 0.000000 0.000000 0.000000
0.181196 -0.588975 4.613173 0.000000 0.000000 0.000000
0.166016 -0.615135 4.647589 0.000000 0.000000 0.000000
0.166029 -0.603135 4.628347 0.000000 0.000000 0.000000
0.019244 -0.467021 4.404082 0.000000 0.000000 0.000000
0.093417 -0.654589 4.677992 0.000000 0.000000 0.000000
0.091918 -0.648198 4.665991 0.000000 0.000000 0.000000
0.259963 -0.446183 4.451660 0.000000 0.000000 0.000000
0.193759 -0.426735 4.376953 0.000000 0.000000 0.000000
0.252882 -0.446659 4.439331 0.000000 0.000000 0.000000
0.186694 -0.427229 4.383130 0.000000 0.000000 0.000000
0.119082 -0.649720 4.674118 0.000000 0.000000 0.000000
0.041493 -0.642214 4.621499 0.000000 0.000000 0.000000
0.209671 -0.437591 4.386129 0.000000 0.000000 0.000000
0.027717 -0.663727 4.657472 0.000000 0.000000 0.000000
0.093292 -0.648639 4.669350 0.000000 0.000000 0.000000
0.100342 -0.652993 4.665003 0.000000 0.000000 0.000000
0.019239 -0.610639 4.564416 0.000000 0.000000 0.000000
0.023020 -0.567003 4.516020 0.000000 0.000000 0.000000
0.009520 -0.590660 4.533445 0.000000 0.000000 0.000000
0.058487 -0.603463 4.569015 0.000000 0.000000 0.000000
0.021794 -0.587739 4.547037 0.000000 0.000000 0.000000
0.059635 -0.601093 4.557879 0.000000 0.000000 0.000000
0.048674 -0.597993 4.554887 0.000000 0.000000 0.000000
0.048502 -0.577833 4.540040 0.000000 0.000000 0.000000
-0.000216 -0.596882 4.541407 0.000000 0.000000 0.000000
-0.000190 -0.603029 4.547287 0.000000 0.000000 0.000000
-0.002852 -0.610052 4.568880 0.000000 0.000000 0.000000
0.032551 -0.565468 4.504642 0.000000 0.000000 0.000000
0.005616 -0.617026 4.577003 0.000000 0.000000 0.000000
0.036258 -0.565209 4.534164 0.000000 0.000000 0.000000
0.041127 -0.595745 4.550287 0.000000 0.000000 0.000000
0.064195 -0.566960 4.547745 0.000000 0.000000 0.000000
-0.001885 -0.575251 4.517687 0.000000 0.000000 0.000000
0.011434 -0.583859 4.537671 0.000000 0.000000 0.000000
0.023244 -0.584201 4.524841 0.000000 0.000000 0.000000
0.036914 -0.590801 4.540290 0.000000 0.000000 0.000000
-0.000664 -0.583283 4.530789 0.000000 0.000000 0.000000
-0.002664 -0.611122 4.559109 0.000000 0.000000 0.000000
-0.000238 -0.625128 4.576869 0.000000 0.000000 0.000000
0.059971 -0.568096 4.518868 0.000000 0.000000 0.000000
0.260199 -0.440114 4.464230 0.000000 0.000000 0.000000
0.262705 -0.458351 4.500382 0.000000 0.000000 0.000000
0.237199 -0.435157 4.463296 0.000000 0.000000 0.000000
0.261752 -0.440689 4.464112 0.000000 0.000000 0.000000
0.252662 -0.435625 4.469105 0.000000 0.000000 0.000000
0.214797 -0.386647 4.357749 0.000000 0.000000 0.000000
0.238477 -0.502460 4.547449 0.000000 0.000000 0.000000
0.199081 -0.391261 4.353942 0.000000 0.000000 0.000000
-0.002749 -0.605545 4.553175 0.000000 0.000000 0.000000
0.250016 -0.487399 4.528793 0.000000 0.000000 0.000000
0.255933 -0.487229 4.528230 0.000000 0.000000 0.000000
0.254858 -0.510308 4.554285 0.000000 0.000000 0.000000
0.206557 -0.378994 4.334887 0.000000 0.000000 0.000000
0.206456 -0.391043 4.363897 0.000000 0.000000 0.000000
0.022770 -0.455428 4.389131 0.000000 0.000000 0.000000
0.025481 -0.648860 4.637688 0.000000 0.000000 0.000000
0.048163 -0.663350 4.670788 0.000000 0.000000 0.000000
0.226264 -0.546646 4.583492 0.000000 0.000000 0.000000
0.233510 -0.527753 4.557783 0.000000 0.000000 0.000000
0.184073 -0.340996 4.304891 0.000000 0.000000 0.000000
0.100021 -0.651297 4.673702 0.000000 0.000000 0.000000
0.264637 -0.466178 4.516747 0.000000 0.000000 0.000000
0.021426 -0.635358 4.606628 0.000000 0.000000 0.000000
0.257450 -0.479201 4.528368 0.000000 0.000000 0.000000
0.014644 -0.634455 4.601480 0.000000 0.000000 0.000000
0.175730 -0.367830 4.319762 0.000000 0.000000 0.000000
0.191966 -0.372986 4.320034 0.000000 0.000000 0.000000
0.251331 -0.429877 4.423980 0.000000 0.000000 0.000000
0.170256 -0.372623 4.308738 0.000000 0.000000 0.000000
0.034751 -0.652527 4.649910 0.000000 0.000000 0.000000
0.206524 -0.552452 4.578875 0.000000 0.000000 0.000000
0.189799 -0.368075 4.325683 0.000000 0.000000 0.000000
0.156129 -0.375905 4.313763 0.000000 0.000000 0.000000
0.019491 -0.658642 4.655827 0.000000 0.000000 0.000000
0.207297 -0.545720 4.576962 0.000000 0.000000 0.000000
-0.019511 -0.564685 4.490326 0.000000 0.000000 0.000000
0.213434 -0.569749 4.589684 0.000000 0.000000 0.000000
-0.012660 -0.559082 4.496296 0.000000 0.000000 0.000000
0.020666 -0.644315 4.626017 0.000000 0.000000 0.000000
0.033480 -0.450594 4.371586 0.000000 0.000000 0.000000
0.023160 -0.452485 4.387852 0.000000 0.000000 0.000000
0.164205 -0.394101 4.323014 0.000000 0.000000 0.000000
0.172327 -0.386298 4.332407 0.000000 0.000000 0.000000
0.164928 -0.406096 4.330492 0.000000 0.000000 0.000000
0.218588 -0.545195 4.575846 0.000000 0.000000 0.000000
0.169759 -0.383765 4.330235 0.000000 0.000000 0.000000
0.197393 -0.449875 4.420724 0.000000 0.000000 0.000000
0.228232 -0.546469 4.575826 0.000000 0.000000 0.000000
-0.009962 -0.508331 4.432157 0.000000 0.000000 0.000000
-0.010899 -0.496912 4.426618 0.000000 0.000000 0.000000
0.030260 -0.659807 4.658674 0.000000 0.000000 0.000000
0.042104 -0.664784 4.667593 0.000000 0.000000 0.000000
0.189037 -0.379577 4.335870 0.000000 0.000000 0.000000
-0.011229 -0.530070 4.450275 0.000000 0.000000 0.000000
0.029091 -0.665325 4.670726 0.000000 0.000000 0.000000
0.027146 -0.455933 4.382342 0.000000 0.000000 0.000000
-0.007091 -0.499950 4.419088 0.000000 0.000000 0.000000
0.015532 -0.508791 4.444683 0.000000 0.000000 0.000000
0.021754 -0.500097 4.437488 0.000000 0.000000 0.000000
0.182482 -0.599815 4.596475 0.000000 0.000000 0.000000
0.002429 -0.513108 4.442608 0.000000 0.000000 0.000000
0.017182 -0.507684 4.437604 0.000000 0.000000 0.000000
0.005358 -0.505174 4.436157 0.000000 0.000000 0.000000
-0.017466 -0.604932 4.541266 0.000000 0.000000 0.000000
0.003821 -0.482198 4.422693 0.000000 0.000000 0.000000
-0.000614 -0.494254 4.451874 0.000000 0.000000 0.000000
0.213656 -0.562498 4.603447 0.000000 0.000000 0.000000
0.087658 -0.491968 4.439071 0.000000 0.000000 0.000000
0.209448 -0.474142 4.465115 0.000000 0.000000 0.000000
0.118165 -0.471475 4.415943 0.000000 0.000000 0.000000
0.256530 -0.479940 4.503522 0.000000 0.000000 0.000000
0.159264 -0.397397 4.334671 0.000000 0.000000 0.000000
0.247499 -0.468038 4.505159 0.000000 0.000000 0.000000
0.048225 -0.655026 4.654699 0.000000 0.000000 0.000000
0.170734 -0.489591 4.468434 0.000000 0.000000 0.000000
0.190113 -0.492209 4.480579 0.000000 0.000000 0.000000
0.033015 -0.654805 4.654478 0.000000 0.000000 0.000000
0.191650 -0.590681 4.589926 0.000000 0.000000 0.000000
0.165015 -0.441994 4.395566 0.000000 0.000000 0.000000
0.091216 -0.485417 4.422962 0.000000 0.000000 0.000000
0.181300 -0.461145 4.429506 0.000000 0.000000 0.000000
0.076471 -0.460630 4.392224 0.000000 0.000000 0.000000
0.250577 -0.417177 4.405801 0.000000 0.000000 0.000000
0.257421 -0.483933 4.506353 0.000000 0.000000 0.000000
0.216964 -0.457440 4.443474 0.000000 0.000000 0.000000
0.040873 -0.656381 4.655230 0.000000 0.000000 0.000000
0.231890 -0.439345 4.434699 0.000000 0.000000 0.000000
0.233127 -0.486858 4.500604 0.000000 0.000000 0.000000
0.038283 -0.639812 4.622077 0.000000 0.000000 0.000000
0.201783 -0.577522 4.577169 0.000000 0.000000 0.000000
0.160274 -0.482671 4.453868 0.000000 0.000000 0.000000
0.199092 -0.378612 4.327324 0.000000 0.000000 0.000000
0.199798 -0.379455 4.332732 0.000000 0.000000 0.000000
0.049785 -0.646226 4.640944 0.000000 0.000000 0.000000
0.253047 -0.427437 4.441017 0.000000 0.000000 0.000000
0.206893 -0.571660 4.606719 0.000000 0.000000 0.000000
0.196934 -0.417431 4.376023 0.000000 0.000000 0.000000
0.239946 -0.447544 4.448955 0.000000 0.000000 0.000000
0.108276 -0.395620 4.343503 0.000000 0.000000 0.000000
-0.009103 -0.547319 4.486511 0.000000 0.000000 0.000000
-0.001660 -0.540210 4.477995 0.000000 0.000000 0.000000
-0.013535 -0.546645 4.474544 0.000000 0.000000 0.000000
0.260525 -0.441090 4.472414 0.000000 0.000000 0.000000
0.000003 -0.543370 4.474320 0.000000 0.000000 0.000000
-0.012757 -0.552365 4.484241 0.000000 0.000000 0.000000
0.005206 -0.560890 4.497526 0.000000 0.000000 0.000000
0.254464 -0.442809 4.449509 0.000000 0.000000 0.000000
0.235138 -0.547941 4.588860 0.000000 0.000000 0.000000
0.001423 -0.557350 4.491137 0.000000 0.000000 0.000000
