ply
format ascii 1.0
comment VCGLIB generated
obj_info Generated by SPFormer!
element vertex 868
property float x
property float y
property float z
property float nx
property float ny
property float nz
end_header
0.956474 -0.773565 0.496714 0.000000 0.000000 0.000000
0.799364 -0.705976 0.504938 0.000000 0.000000 0.000000
0.934172 -0.864275 0.430851 0.000000 0.000000 0.000000
0.610349 -0.566478 0.582515 0.000000 0.000000 0.000000
0.840654 -0.721594 0.515336 0.000000 0.000000 0.000000
0.774378 -0.702110 0.526246 0.000000 0.000000 0.000000
0.550558 -0.827409 0.339186 0.000000 0.000000 0.000000
0.682047 -0.901654 0.376093 0.000000 0.000000 0.000000
0.751515 -1.009428 0.331180 0.000000 0.000000 0.000000
0.953419 -0.747285 0.499503 0.000000 0.000000 0.000000
0.855388 -0.798369 0.478885 0.000000 0.000000 0.000000
0.650624 -0.757121 0.439321 0.000000 0.000000 0.000000
0.669551 -0.572913 0.602170 0.000000 0.000000 0.000000
0.596047 -0.856016 0.353857 0.000000 0.000000 0.000000
0.765872 -1.031195 0.316238 0.000000 0.000000 0.000000
0.812150 -0.728059 0.495692 0.000000 0.000000 0.000000
0.778236 -0.759097 0.462888 0.000000 0.000000 0.000000
0.879747 -0.754190 0.483988 0.000000 0.000000 0.000000
0.769449 -0.648984 0.554766 0.000000 0.000000 0.000000
0.576555 -0.861055 0.345620 0.000000 0.000000 0.000000
0.898628 -0.784693 0.472852 0.000000 0.000000 0.000000
0.821160 -0.790635 0.457510 0.000000 0.000000 0.000000
0.872495 -0.719306 0.522964 0.000000 0.000000 0.000000
0.537741 -0.856828 0.337495 0.000000 0.000000 0.000000
0.860179 -0.744043 0.497293 0.000000 0.000000 0.000000
0.643987 -0.531239 0.616470 0.000000 0.000000 0.000000
0.965661 -0.791646 0.485944 0.000000 0.000000 0.000000
0.660998 -0.656093 0.521606 0.000000 0.000000 0.000000
0.896193 -0.720583 0.528817 0.000000 0.000000 0.000000
0.951118 -0.814006 0.482562 0.000000 0.000000 0.000000
0.667193 -0.629785 0.562496 0.000000 0.000000 0.000000
0.742634 -0.605846 0.578667 0.000000 0.000000 0.000000
0.669686 -0.635491 0.542883 0.000000 0.000000 0.000000
0.673470 -0.545662 0.669204 0.000000 0.000000 0.000000
0.676402 -0.517853 0.656473 0.000000 0.000000 0.000000
0.964191 -0.787999 0.489760 0.000000 0.000000 0.000000
0.638255 -0.785490 0.419980 0.000000 0.000000 0.000000
0.731196 -0.627090 0.610254 0.000000 0.000000 0.000000
0.718902 -0.596156 0.652475 0.000000 0.000000 0.000000
0.634641 -0.899904 0.365383 0.000000 0.000000 0.000000
0.632786 -0.639722 0.497866 0.000000 0.000000 0.000000
0.803046 -0.522216 0.774306 0.000000 0.000000 0.000000
0.684897 -0.635120 0.530639 0.000000 0.000000 0.000000
0.685373 -0.539474 0.672701 0.000000 0.000000 0.000000
0.946833 -0.749067 0.510664 0.000000 0.000000 0.000000
0.783053 -0.770833 0.466672 0.000000 0.000000 0.000000
0.890840 -0.637586 0.667095 0.000000 0.000000 0.000000
0.610245 -0.925578 0.341768 0.000000 0.000000 0.000000
0.783559 -0.771563 0.475582 0.000000 0.000000 0.000000
0.753252 -1.045294 0.314430 0.000000 0.000000 0.000000
0.900311 -0.698533 0.568494 0.000000 0.000000 0.000000
0.772503 -0.777045 0.441572 0.000000 0.000000 0.000000
0.685003 -0.771591 0.428358 0.000000 0.000000 0.000000
0.835593 -0.771079 0.455858 0.000000 0.000000 0.000000
0.600000 -0.699968 0.462245 0.000000 0.000000 0.000000
0.807975 -0.791458 0.425579 0.000000 0.000000 0.000000
0.778880 -0.482825 0.766855 0.000000 0.000000 0.000000
0.887969 -0.775804 0.489644 0.000000 0.000000 0.000000
0.699693 -0.627605 0.555753 0.000000 0.000000 0.000000
0.872120 -0.848893 0.434363 0.000000 0.000000 0.000000
0.715549 -0.654523 0.524529 0.000000 0.000000 0.000000
0.752687 -0.697758 0.479565 0.000000 0.000000 0.000000
0.681493 -0.823666 0.397754 0.000000 0.000000 0.000000
0.686617 -0.711091 0.474408 0.000000 0.000000 0.000000
0.705454 -0.868493 0.391143 0.000000 0.000000 0.000000
0.739988 -0.501602 0.739528 0.000000 0.000000 0.000000
0.669848 -0.780709 0.414306 0.000000 0.000000 0.000000
0.631911 -0.686287 0.459346 0.000000 0.000000 0.000000
0.768531 -0.486718 0.751765 0.000000 0.000000 0.000000
0.684599 -0.656583 0.509851 0.000000 0.000000 0.000000
0.744822 -0.857887 0.385624 0.000000 0.000000 0.000000
0.614454 -0.861852 0.354745 0.000000 0.000000 0.000000
0.882388 -0.785460 0.483808 0.000000 0.000000 0.000000
0.569994 -0.573895 0.531834 0.000000 0.000000 0.000000
0.691917 -0.826010 0.381372 0.000000 0.000000 0.000000
0.734521 -1.049981 0.315278 0.000000 0.000000 0.000000
0.706321 -0.777449 0.403733 0.000000 0.000000 0.000000
0.738911 -0.870172 0.378158 0.000000 0.000000 0.000000
0.644456 -0.704644 0.471495 0.000000 0.000000 0.000000
0.554771 -0.736996 0.396891 0.000000 0.000000 0.000000
0.661637 -0.764525 0.438547 0.000000 0.000000 0.000000
0.947580 -0.784216 0.463124 0.000000 0.000000 0.000000
0.831127 -0.745791 0.476293 0.000000 0.000000 0.000000
0.590035 -0.836290 0.378224 0.000000 0.000000 0.000000
0.684303 -0.508105 0.675734 0.000000 0.000000 0.000000
0.597401 -0.787532 0.396512 0.000000 0.000000 0.000000
0.682691 -0.762220 0.435026 0.000000 0.000000 0.000000
0.724803 -0.642681 0.536826 0.000000 0.000000 0.000000
0.709431 -0.630052 0.572612 0.000000 0.000000 0.000000
0.621951 -0.988254 0.332758 0.000000 0.000000 0.000000
0.557739 -0.825887 0.368773 0.000000 0.000000 0.000000
0.798122 -0.673771 0.584646 0.000000 0.000000 0.000000
0.719374 -0.598924 0.578003 0.000000 0.000000 0.000000
0.592560 -0.565816 0.564359 0.000000 0.000000 0.000000
0.807777 -0.707518 0.518611 0.000000 0.000000 0.000000
0.770177 -1.022838 0.315305 0.000000 0.000000 0.000000
0.951253 -0.745498 0.505803 0.000000 0.000000 0.000000
0.865697 -0.628953 0.687045 0.000000 0.000000 0.000000
0.727200 -0.743823 0.447900 0.000000 0.000000 0.000000
0.733326 -0.727138 0.464761 0.000000 0.000000 0.000000
0.615319 -0.753424 0.437565 0.000000 0.000000 0.000000
0.671848 -0.554447 0.626236 0.000000 0.000000 0.000000
0.579250 -0.868450 0.335822 0.000000 0.000000 0.000000
0.767972 -1.020428 0.313798 0.000000 0.000000 0.000000
0.785508 -0.728945 0.486795 0.000000 0.000000 0.000000
0.765791 -0.794188 0.463617 0.000000 0.000000 0.000000
0.844513 -0.728758 0.518471 0.000000 0.000000 0.000000
0.793890 -0.838224 0.472766 0.000000 0.000000 0.000000
0.772331 -0.660783 0.534814 0.000000 0.000000 0.000000
0.562273 -0.824849 0.353376 0.000000 0.000000 0.000000
0.900458 -0.788345 0.468768 0.000000 0.000000 0.000000
0.786231 -0.784261 0.458753 0.000000 0.000000 0.000000
0.677119 -0.532755 0.685158 0.000000 0.000000 0.000000
0.803346 -0.679269 0.584776 0.000000 0.000000 0.000000
0.817652 -0.726071 0.493306 0.000000 0.000000 0.000000
0.960818 -0.795679 0.483724 0.000000 0.000000 0.000000
0.942730 -0.799289 0.493379 0.000000 0.000000 0.000000
0.955573 -0.784940 0.490850 0.000000 0.000000 0.000000
0.682110 -0.658364 0.521599 0.000000 0.000000 0.000000
0.882880 -0.781571 0.475038 0.000000 0.000000 0.000000
0.936581 -0.805476 0.484782 0.000000 0.000000 0.000000
0.689855 -0.586563 0.600806 0.000000 0.000000 0.000000
0.749393 -0.642654 0.553815 0.000000 0.000000 0.000000
0.723618 -0.725207 0.458259 0.000000 0.000000 0.000000
0.674730 -0.558899 0.634537 0.000000 0.000000 0.000000
0.952331 -0.802847 0.477658 0.000000 0.000000 0.000000
0.641157 -0.786606 0.415667 0.000000 0.000000 0.000000
0.697890 -0.607938 0.611608 0.000000 0.000000 0.000000
0.662675 -0.928148 0.379892 0.000000 0.000000 0.000000
0.958224 -0.840887 0.443115 0.000000 0.000000 0.000000
0.627061 -0.959267 0.344775 0.000000 0.000000 0.000000
0.671955 -0.954254 0.356134 0.000000 0.000000 0.000000
0.676852 -0.594546 0.574728 0.000000 0.000000 0.000000
0.601858 -0.866517 0.369769 0.000000 0.000000 0.000000
0.549888 -0.766924 0.403722 0.000000 0.000000 0.000000
0.662508 -0.586882 0.590559 0.000000 0.000000 0.000000
0.738786 -0.633846 0.561105 0.000000 0.000000 0.000000
0.897021 -0.637650 0.662437 0.000000 0.000000 0.000000
0.639479 -1.007178 0.334277 0.000000 0.000000 0.000000
0.846405 -0.861156 0.403752 0.000000 0.000000 0.000000
0.718507 -0.865712 0.386705 0.000000 0.000000 0.000000
0.788502 -0.829204 0.423508 0.000000 0.000000 0.000000
0.777371 -1.001944 0.325548 0.000000 0.000000 0.000000
0.904665 -0.675041 0.605299 0.000000 0.000000 0.000000
0.697081 -0.755744 0.432191 0.000000 0.000000 0.000000
0.705103 -0.853733 0.388537 0.000000 0.000000 0.000000
0.817137 -0.730599 0.509730 0.000000 0.000000 0.000000
0.639387 -0.668596 0.476475 0.000000 0.000000 0.000000
0.769637 -0.468436 0.762731 0.000000 0.000000 0.000000
0.790150 -0.503703 0.785293 0.000000 0.000000 0.000000
0.746476 -0.678099 0.526282 0.000000 0.000000 0.000000
0.780464 -0.737440 0.491140 0.000000 0.000000 0.000000
0.962313 -0.784355 0.479142 0.000000 0.000000 0.000000
0.693950 -0.635850 0.538047 0.000000 0.000000 0.000000
0.852628 -0.614940 0.717220 0.000000 0.000000 0.000000
0.685374 -0.807129 0.412435 0.000000 0.000000 0.000000
0.715261 -0.929098 0.365718 0.000000 0.000000 0.000000
0.774086 -0.497168 0.764496 0.000000 0.000000 0.000000
0.707587 -0.775521 0.419654 0.000000 0.000000 0.000000
0.657036 -0.780695 0.411873 0.000000 0.000000 0.000000
0.843643 -0.853169 0.424569 0.000000 0.000000 0.000000
0.778895 -0.471373 0.778645 0.000000 0.000000 0.000000
0.764511 -0.477597 0.753812 0.000000 0.000000 0.000000
0.536832 -0.671811 0.452249 0.000000 0.000000 0.000000
0.694055 -0.667229 0.498715 0.000000 0.000000 0.000000
0.951629 -0.752873 0.491778 0.000000 0.000000 0.000000
0.866376 -0.755115 0.489382 0.000000 0.000000 0.000000
0.561447 -0.590992 0.509753 0.000000 0.000000 0.000000
0.613850 -0.828119 0.380022 0.000000 0.000000 0.000000
0.656512 -0.792222 0.417237 0.000000 0.000000 0.000000
0.654928 -0.773863 0.422801 0.000000 0.000000 0.000000
0.678958 -0.687172 0.489472 0.000000 0.000000 0.000000
0.708201 -0.908732 0.368192 0.000000 0.000000 0.000000
0.684313 -0.514969 0.675072 0.000000 0.000000 0.000000
0.736652 -0.939354 0.358129 0.000000 0.000000 0.000000
0.778017 -0.827439 0.397247 0.000000 0.000000 0.000000
0.713897 -0.760474 0.433442 0.000000 0.000000 0.000000
0.745390 -0.905318 0.366623 0.000000 0.000000 0.000000
0.903597 -0.662840 0.622751 0.000000 0.000000 0.000000
0.849871 -0.616846 0.709803 0.000000 0.000000 0.000000
0.911044 -0.652145 0.632259 0.000000 0.000000 0.000000
0.869230 -0.630665 0.700482 0.000000 0.000000 0.000000
0.530724 -0.851180 0.338460 0.000000 0.000000 0.000000
0.964876 -0.808171 0.485005 0.000000 0.000000 0.000000
0.561637 -0.591785 0.516001 0.000000 0.000000 0.000000
0.789197 -0.485466 0.784438 0.000000 0.000000 0.000000
0.852275 -0.604246 0.707453 0.000000 0.000000 0.000000
0.854555 -0.605011 0.709547 0.000000 0.000000 0.000000
0.858685 -0.621646 0.704361 0.000000 0.000000 0.000000
0.800004 -0.518938 0.777490 0.000000 0.000000 0.000000
0.865877 -0.628990 0.701845 0.000000 0.000000 0.000000
0.871613 -0.773834 0.483349 0.000000 0.000000 0.000000
0.717618 -0.617754 0.572014 0.000000 0.000000 0.000000
0.850329 -0.625935 0.695875 0.000000 0.000000 0.000000
0.843166 -0.699924 0.551022 0.000000 0.000000 0.000000
0.835348 -0.698515 0.564212 0.000000 0.000000 0.000000
0.909792 -0.662407 0.629013 0.000000 0.000000 0.000000
0.809554 -0.523597 0.766389 0.000000 0.000000 0.000000
0.654677 -0.660260 0.496490 0.000000 0.000000 0.000000
0.712837 -0.627115 0.556903 0.000000 0.000000 0.000000
0.527869 -0.799566 0.347930 0.000000 0.000000 0.000000
0.730896 -0.922153 0.358096 0.000000 0.000000 0.000000
0.624905 -1.025533 0.327427 0.000000 0.000000 0.000000
0.589533 -0.806668 0.372557 0.000000 0.000000 0.000000
0.941519 -0.696100 0.583577 0.000000 0.000000 0.000000
0.945703 -0.714681 0.538961 0.000000 0.000000 0.000000
0.799455 -0.724222 0.491696 0.000000 0.000000 0.000000
0.604377 -0.777444 0.399512 0.000000 0.000000 0.000000
0.855693 -0.632631 0.684197 0.000000 0.000000 0.000000
0.826783 -0.608580 0.697714 0.000000 0.000000 0.000000
0.866000 -0.628049 0.700827 0.000000 0.000000 0.000000
0.893738 -0.772558 0.481601 0.000000 0.000000 0.000000
0.676192 -0.554776 0.668528 0.000000 0.000000 0.000000
0.711586 -0.619337 0.555267 0.000000 0.000000 0.000000
0.855181 -0.610695 0.708936 0.000000 0.000000 0.000000
0.849547 -0.716211 0.546608 0.000000 0.000000 0.000000
0.861355 -0.629593 0.680006 0.000000 0.000000 0.000000
0.655035 -0.696387 0.466423 0.000000 0.000000 0.000000
0.823595 -0.725871 0.520275 0.000000 0.000000 0.000000
0.628880 -0.986297 0.351433 0.000000 0.000000 0.000000
0.951991 -0.819986 0.457614 0.000000 0.000000 0.000000
0.533542 -0.699518 0.402174 0.000000 0.000000 0.000000
0.672314 -0.664676 0.498323 0.000000 0.000000 0.000000
0.609353 -1.028787 0.332071 0.000000 0.000000 0.000000
0.538058 -0.657224 0.466151 0.000000 0.000000 0.000000
0.943201 -0.801457 0.473585 0.000000 0.000000 0.000000
0.717485 -0.996016 0.339880 0.000000 0.000000 0.000000
0.734055 -0.947234 0.352150 0.000000 0.000000 0.000000
0.650750 -0.775458 0.416865 0.000000 0.000000 0.000000
0.772808 -0.714740 0.475360 0.000000 0.000000 0.000000
0.692044 -0.791910 0.404554 0.000000 0.000000 0.000000
0.665501 -0.519880 0.647927 0.000000 0.000000 0.000000
0.853899 -0.755589 0.498402 0.000000 0.000000 0.000000
0.786390 -0.440937 0.794005 0.000000 0.000000 0.000000
0.957535 -0.741562 0.509098 0.000000 0.000000 0.000000
0.941742 -0.704805 0.557050 0.000000 0.000000 0.000000
0.905482 -0.656759 0.624772 0.000000 0.000000 0.000000
0.629204 -0.530107 0.609180 0.000000 0.000000 0.000000
0.605435 -1.010630 0.315198 0.000000 0.000000 0.000000
0.702607 -0.513562 0.725263 0.000000 0.000000 0.000000
0.606109 -0.997830 0.338043 0.000000 0.000000 0.000000
0.687883 -0.512610 0.709535 0.000000 0.000000 0.000000
0.927166 -0.690066 0.605990 0.000000 0.000000 0.000000
0.859985 -0.763348 0.470478 0.000000 0.000000 0.000000
0.850101 -0.719531 0.516469 0.000000 0.000000 0.000000
0.833974 -0.817239 0.452243 0.000000 0.000000 0.000000
0.679314 -0.937506 0.339300 0.000000 0.000000 0.000000
0.609561 -0.988016 0.312654 0.000000 0.000000 0.000000
0.826133 -0.749097 0.502714 0.000000 0.000000 0.000000
0.955425 -0.764511 0.480925 0.000000 0.000000 0.000000
0.693149 -0.515559 0.720591 0.000000 0.000000 0.000000
0.856346 -0.747890 0.478475 0.000000 0.000000 0.000000
0.696409 -0.937160 0.352871 0.000000 0.000000 0.000000
0.606836 -0.990324 0.311161 0.000000 0.000000 0.000000
0.677323 -0.510705 0.659545 0.000000 0.000000 0.000000
0.526091 -0.653144 0.460838 0.000000 0.000000 0.000000
0.685300 -0.766935 0.423324 0.000000 0.000000 0.000000
0.571866 -0.577987 0.524177 0.000000 0.000000 0.000000
0.632322 -0.545134 0.615072 0.000000 0.000000 0.000000
0.623367 -1.039161 0.328929 0.000000 0.000000 0.000000
0.534522 -0.716752 0.370868 0.000000 0.000000 0.000000
0.668508 -0.521653 0.649405 0.000000 0.000000 0.000000
0.532619 -0.638651 0.498520 0.000000 0.000000 0.000000
0.815376 -0.534203 0.755807 0.000000 0.000000 0.000000
0.783216 -0.459695 0.788171 0.000000 0.000000 0.000000
0.633776 -0.570021 0.588589 0.000000 0.000000 0.000000
0.609267 -0.546125 0.587733 0.000000 0.000000 0.000000
0.862608 -0.848407 0.422818 0.000000 0.000000 0.000000
0.543731 -0.697104 0.435135 0.000000 0.000000 0.000000
0.574867 -0.853725 0.383333 0.000000 0.000000 0.000000
0.889688 -0.635957 0.671877 0.000000 0.000000 0.000000
0.681875 -0.837677 0.385732 0.000000 0.000000 0.000000
0.692273 -0.718009 0.464582 0.000000 0.000000 0.000000
0.576005 -0.658839 0.481528 0.000000 0.000000 0.000000
0.532452 -0.664780 0.448803 0.000000 0.000000 0.000000
0.782916 -0.817780 0.404113 0.000000 0.000000 0.000000
0.543695 -0.633177 0.502383 0.000000 0.000000 0.000000
0.809730 -0.529581 0.768459 0.000000 0.000000 0.000000
0.783184 -0.484999 0.780431 0.000000 0.000000 0.000000
0.875226 -0.731737 0.503148 0.000000 0.000000 0.000000
0.700840 -0.742699 0.435710 0.000000 0.000000 0.000000
0.605641 -0.553022 0.576690 0.000000 0.000000 0.000000
0.748957 -0.883768 0.379596 0.000000 0.000000 0.000000
0.788873 -0.836106 0.395942 0.000000 0.000000 0.000000
0.933952 -0.704809 0.561153 0.000000 0.000000 0.000000
0.939169 -0.701454 0.560528 0.000000 0.000000 0.000000
0.581940 -0.576504 0.531798 0.000000 0.000000 0.000000
0.849037 -0.613472 0.714917 0.000000 0.000000 0.000000
0.873878 -0.632046 0.701269 0.000000 0.000000 0.000000
0.568785 -0.573961 0.530648 0.000000 0.000000 0.000000
0.944395 -0.701628 0.559714 0.000000 0.000000 0.000000
0.524757 -0.724052 0.363620 0.000000 0.000000 0.000000
0.772896 -0.457326 0.766941 0.000000 0.000000 0.000000
0.575346 -0.572575 0.531828 0.000000 0.000000 0.000000
0.633474 -0.563671 0.583339 0.000000 0.000000 0.000000
0.932711 -0.699372 0.564405 0.000000 0.000000 0.000000
0.612790 -0.553973 0.580765 0.000000 0.000000 0.000000
0.607188 -0.548119 0.587686 0.000000 0.000000 0.000000
0.888129 -0.644532 0.642770 0.000000 0.000000 0.000000
0.965856 -0.838835 0.451520 0.000000 0.000000 0.000000
0.970938 -0.822328 0.467669 0.000000 0.000000 0.000000
0.638658 -0.528757 0.615784 0.000000 0.000000 0.000000
0.958587 -0.828688 0.458000 0.000000 0.000000 0.000000
0.938392 -0.698950 0.572938 0.000000 0.000000 0.000000
0.539669 -0.846711 0.386025 0.000000 0.000000 0.000000
0.606616 -0.545238 0.588816 0.000000 0.000000 0.000000
0.966633 -0.787110 0.481901 0.000000 0.000000 0.000000
0.679912 -0.693801 0.464769 0.000000 0.000000 0.000000
0.614387 -0.852122 0.364781 0.000000 0.000000 0.000000
0.682075 -0.809236 0.397067 0.000000 0.000000 0.000000
0.642022 -0.806658 0.401640 0.000000 0.000000 0.000000
0.719363 -0.873249 0.376843 0.000000 0.000000 0.000000
0.937513 -0.705270 0.566598 0.000000 0.000000 0.000000
0.686696 -0.717594 0.473049 0.000000 0.000000 0.000000
0.555694 -0.841250 0.379846 0.000000 0.000000 0.000000
0.559536 -0.839047 0.373201 0.000000 0.000000 0.000000
0.693868 -0.506471 0.713354 0.000000 0.000000 0.000000
0.762612 -0.768895 0.420134 0.000000 0.000000 0.000000
0.684150 -0.744965 0.441253 0.000000 0.000000 0.000000
0.587367 -0.589884 0.542220 0.000000 0.000000 0.000000
0.622931 -0.547399 0.590490 0.000000 0.000000 0.000000
0.932426 -0.705368 0.546247 0.000000 0.000000 0.000000
0.607021 -0.545320 0.587366 0.000000 0.000000 0.000000
0.701495 -1.070134 0.319800 0.000000 0.000000 0.000000
0.608805 -0.539307 0.592494 0.000000 0.000000 0.000000
0.891794 -0.638089 0.663631 0.000000 0.000000 0.000000
0.629354 -0.540562 0.603112 0.000000 0.000000 0.000000
0.965857 -0.827274 0.462557 0.000000 0.000000 0.000000
0.629397 -0.541421 0.600079 0.000000 0.000000 0.000000
0.572333 -0.588242 0.519431 0.000000 0.000000 0.000000
0.963204 -0.816925 0.466031 0.000000 0.000000 0.000000
0.558138 -0.864936 0.377028 0.000000 0.000000 0.000000
0.603639 -0.548432 0.586039 0.000000 0.000000 0.000000
0.756046 -1.017828 0.329666 0.000000 0.000000 0.000000
0.522578 -0.754738 0.353556 0.000000 0.000000 0.000000
0.679443 -0.710224 0.458502 0.000000 0.000000 0.000000
0.611494 -0.884918 0.367126 0.000000 0.000000 0.000000
0.695365 -0.814298 0.391072 0.000000 0.000000 0.000000
0.938989 -0.707641 0.546669 0.000000 0.000000 0.000000
0.664966 -0.805568 0.391731 0.000000 0.000000 0.000000
0.582395 -0.933117 0.309724 0.000000 0.000000 0.000000
0.687980 -0.511194 0.708322 0.000000 0.000000 0.000000
0.665201 -0.869644 0.376724 0.000000 0.000000 0.000000
0.554739 -0.841788 0.387267 0.000000 0.000000 0.000000
0.749677 -0.780740 0.413941 0.000000 0.000000 0.000000
0.656053 -0.525726 0.633428 0.000000 0.000000 0.000000
0.573796 -0.578523 0.520687 0.000000 0.000000 0.000000
0.531180 -0.669577 0.434612 0.000000 0.000000 0.000000
0.819259 -0.556515 0.723679 0.000000 0.000000 0.000000
0.517830 -0.750774 0.356578 0.000000 0.000000 0.000000
0.816509 -0.551112 0.728179 0.000000 0.000000 0.000000
0.518018 -0.778112 0.348239 0.000000 0.000000 0.000000
0.628920 -0.974274 0.340920 0.000000 0.000000 0.000000
0.838330 -0.580545 0.719346 0.000000 0.000000 0.000000
0.533986 -0.710716 0.399088 0.000000 0.000000 0.000000
0.542013 -0.692516 0.427585 0.000000 0.000000 0.000000
0.666750 -0.510282 0.671023 0.000000 0.000000 0.000000
0.546185 -0.771899 0.336454 0.000000 0.000000 0.000000
0.524257 -0.768251 0.348635 0.000000 0.000000 0.000000
0.652879 -0.535519 0.633864 0.000000 0.000000 0.000000
0.588546 -0.561637 0.565425 0.000000 0.000000 0.000000
0.943687 -0.771410 0.502973 0.000000 0.000000 0.000000
0.528103 -0.761069 0.370145 0.000000 0.000000 0.000000
0.678596 -0.658879 0.499497 0.000000 0.000000 0.000000
0.687094 -0.726716 0.448182 0.000000 0.000000 0.000000
0.765114 -0.784009 0.416762 0.000000 0.000000 0.000000
0.723251 -1.070760 0.321545 0.000000 0.000000 0.000000
0.538284 -0.840322 0.322777 0.000000 0.000000 0.000000
0.578847 -0.785259 0.383779 0.000000 0.000000 0.000000
0.641282 -1.067098 0.313323 0.000000 0.000000 0.000000
0.672751 -0.737901 0.438942 0.000000 0.000000 0.000000
0.648315 -0.992628 0.326378 0.000000 0.000000 0.000000
0.837664 -0.581163 0.725733 0.000000 0.000000 0.000000
0.837180 -0.557261 0.735680 0.000000 0.000000 0.000000
0.533534 -0.717055 0.387972 0.000000 0.000000 0.000000
0.652745 -0.965126 0.349214 0.000000 0.000000 0.000000
0.535336 -0.669642 0.445306 0.000000 0.000000 0.000000
0.671352 -0.506639 0.660211 0.000000 0.000000 0.000000
0.519565 -0.785737 0.340680 0.000000 0.000000 0.000000
0.595974 -0.949337 0.301873 0.000000 0.000000 0.000000
0.600888 -0.561207 0.572866 0.000000 0.000000 0.000000
0.943487 -0.751348 0.499621 0.000000 0.000000 0.000000
0.675518 -0.953789 0.369133 0.000000 0.000000 0.000000
0.692352 -0.649843 0.517614 0.000000 0.000000 0.000000
0.966697 -0.797612 0.490273 0.000000 0.000000 0.000000
0.685027 -0.712285 0.456294 0.000000 0.000000 0.000000
0.751928 -0.723964 0.461555 0.000000 0.000000 0.000000
0.533036 -0.662858 0.427048 0.000000 0.000000 0.000000
0.633889 -0.530589 0.605404 0.000000 0.000000 0.000000
0.667188 -0.528627 0.644261 0.000000 0.000000 0.000000
0.867822 -0.630488 0.688008 0.000000 0.000000 0.000000
0.822416 -0.553746 0.739840 0.000000 0.000000 0.000000
0.630196 -1.033898 0.371742 0.000000 0.000000 0.000000
0.631004 -0.522205 0.607983 0.000000 0.000000 0.000000
0.803325 -0.564323 0.723530 0.000000 0.000000 0.000000
0.646086 -0.513068 0.622962 0.000000 0.000000 0.000000
0.770097 -0.462913 0.763835 0.000000 0.000000 0.000000
0.773159 -0.458750 0.767346 0.000000 0.000000 0.000000
0.641925 -0.519987 0.616769 0.000000 0.000000 0.000000
0.699991 -0.522841 0.709793 0.000000 0.000000 0.000000
0.919684 -0.723151 0.537097 0.000000 0.000000 0.000000
0.658976 -0.932581 0.358371 0.000000 0.000000 0.000000
0.859176 -0.628697 0.702283 0.000000 0.000000 0.000000
0.795598 -0.835981 0.422710 0.000000 0.000000 0.000000
0.704325 -0.782003 0.414089 0.000000 0.000000 0.000000
0.548452 -0.826521 0.322217 0.000000 0.000000 0.000000
0.968488 -0.770571 0.490704 0.000000 0.000000 0.000000
0.675203 -0.536727 0.668077 0.000000 0.000000 0.000000
0.743818 -0.798833 0.405274 0.000000 0.000000 0.000000
0.646808 -0.521751 0.618771 0.000000 0.000000 0.000000
0.689417 -0.509546 0.704235 0.000000 0.000000 0.000000
0.940010 -0.737826 0.520241 0.000000 0.000000 0.000000
0.527717 -0.703510 0.386645 0.000000 0.000000 0.000000
0.533704 -0.716301 0.378972 0.000000 0.000000 0.000000
0.964719 -0.823386 0.477462 0.000000 0.000000 0.000000
0.564594 -0.581985 0.511926 0.000000 0.000000 0.000000
0.658490 -0.512549 0.628533 0.000000 0.000000 0.000000
0.534448 -0.799960 0.329302 0.000000 0.000000 0.000000
0.675632 -0.523269 0.662925 0.000000 0.000000 0.000000
0.549586 -0.799086 0.371869 0.000000 0.000000 0.000000
0.860769 -0.627043 0.709873 0.000000 0.000000 0.000000
0.775730 -0.455463 0.772510 0.000000 0.000000 0.000000
0.965130 -0.826260 0.458209 0.000000 0.000000 0.000000
0.665553 -0.509988 0.647143 0.000000 0.000000 0.000000
0.521480 -0.778302 0.362528 0.000000 0.000000 0.000000
0.817344 -0.681902 0.561959 0.000000 0.000000 0.000000
0.656253 -0.665255 0.498630 0.000000 0.000000 0.000000
0.815268 -0.795096 0.420821 0.000000 0.000000 0.000000
0.671289 -0.513996 0.657981 0.000000 0.000000 0.000000
0.551370 -0.834375 0.314810 0.000000 0.000000 0.000000
0.966571 -0.820942 0.465005 0.000000 0.000000 0.000000
0.778250 -0.831970 0.394160 0.000000 0.000000 0.000000
0.646845 -0.566344 0.619510 0.000000 0.000000 0.000000
0.952787 -0.728385 0.521049 0.000000 0.000000 0.000000
0.530477 -0.829642 0.338197 0.000000 0.000000 0.000000
0.723330 -0.515080 0.746993 0.000000 0.000000 0.000000
0.805142 -0.797319 0.413452 0.000000 0.000000 0.000000
0.785962 -0.496441 0.769098 0.000000 0.000000 0.000000
0.616886 -0.820697 0.402289 0.000000 0.000000 0.000000
0.587858 -0.562040 0.564167 0.000000 0.000000 0.000000
0.716243 -0.511679 0.727404 0.000000 0.000000 0.000000
0.783744 -0.475586 0.780884 0.000000 0.000000 0.000000
0.644767 -0.739071 0.421772 0.000000 0.000000 0.000000
0.668856 -0.531285 0.645788 0.000000 0.000000 0.000000
0.957005 -0.736536 0.510395 0.000000 0.000000 0.000000
0.782677 -0.448458 0.786916 0.000000 0.000000 0.000000
0.548312 -0.665251 0.464742 0.000000 0.000000 0.000000
0.666756 -0.518299 0.656649 0.000000 0.000000 0.000000
0.577472 -0.573404 0.534876 0.000000 0.000000 0.000000
0.883454 -0.636497 0.673318 0.000000 0.000000 0.000000
0.516066 -0.730824 0.360949 0.000000 0.000000 0.000000
0.782520 -0.435491 0.801131 0.000000 0.000000 0.000000
0.531200 -0.650929 0.468952 0.000000 0.000000 0.000000
0.601023 -0.976395 0.322606 0.000000 0.000000 0.000000
0.654540 -0.513290 0.636609 0.000000 0.000000 0.000000
0.780337 -0.437955 0.802214 0.000000 0.000000 0.000000
0.668548 -0.511098 0.642923 0.000000 0.000000 0.000000
0.537951 -0.642943 0.479012 0.000000 0.000000 0.000000
0.539522 -0.662697 0.468567 0.000000 0.000000 0.000000
0.547770 -0.694416 0.436354 0.000000 0.000000 0.000000
0.593090 -0.761081 0.426294 0.000000 0.000000 0.000000
0.576900 -0.699361 0.456880 0.000000 0.000000 0.000000
0.562513 -0.650859 0.476859 0.000000 0.000000 0.000000
0.557741 -0.721267 0.445611 0.000000 0.000000 0.000000
0.540786 -0.662194 0.467545 0.000000 0.000000 0.000000
0.528770 -0.655412 0.466724 0.000000 0.000000 0.000000
0.744359 -1.050072 0.312999 0.000000 0.000000 0.000000
0.526408 -0.657803 0.464984 0.000000 0.000000 0.000000
0.551183 -0.857922 0.335010 0.000000 0.000000 0.000000
0.834545 -0.572527 0.727741 0.000000 0.000000 0.000000
0.751323 -1.044910 0.313050 0.000000 0.000000 0.000000
0.530424 -0.660227 0.443017 0.000000 0.000000 0.000000
0.696783 -0.908294 0.371310 0.000000 0.000000 0.000000
0.824723 -0.778379 0.452609 0.000000 0.000000 0.000000
0.534378 -0.663535 0.445593 0.000000 0.000000 0.000000
0.562451 -0.659295 0.470366 0.000000 0.000000 0.000000
0.795805 -0.820487 0.411266 0.000000 0.000000 0.000000
0.609959 -0.757081 0.397531 0.000000 0.000000 0.000000
0.558870 -0.670501 0.470141 0.000000 0.000000 0.000000
0.525667 -0.653015 0.471316 0.000000 0.000000 0.000000
0.527483 -0.655277 0.476604 0.000000 0.000000 0.000000
0.629648 -0.720516 0.451084 0.000000 0.000000 0.000000
0.550352 -0.655332 0.470283 0.000000 0.000000 0.000000
0.555819 -0.716731 0.454229 0.000000 0.000000 0.000000
0.539572 -0.648246 0.471505 0.000000 0.000000 0.000000
0.529619 -0.648564 0.469175 0.000000 0.000000 0.000000
0.742637 -1.046111 0.310513 0.000000 0.000000 0.000000
0.565184 -0.861917 0.347145 0.000000 0.000000 0.000000
0.531691 -0.683954 0.405840 0.000000 0.000000 0.000000
0.829242 -0.572792 0.723272 0.000000 0.000000 0.000000
0.585668 -0.562803 0.554495 0.000000 0.000000 0.000000
0.726775 -0.839253 0.390127 0.000000 0.000000 0.000000
0.528536 -0.656845 0.459009 0.000000 0.000000 0.000000
0.781084 -0.762877 0.428333 0.000000 0.000000 0.000000
0.622237 -0.757127 0.405150 0.000000 0.000000 0.000000
0.579809 -0.570722 0.537177 0.000000 0.000000 0.000000
0.962756 -0.808701 0.474753 0.000000 0.000000 0.000000
0.961821 -0.773943 0.488243 0.000000 0.000000 0.000000
0.944139 -0.704237 0.553029 0.000000 0.000000 0.000000
0.968704 -0.813262 0.485657 0.000000 0.000000 0.000000
0.962251 -0.847089 0.459282 0.000000 0.000000 0.000000
0.532008 -0.664251 0.423330 0.000000 0.000000 0.000000
0.643276 -0.532633 0.617085 0.000000 0.000000 0.000000
0.763913 -0.473894 0.756976 0.000000 0.000000 0.000000
0.552136 -0.871440 0.331198 0.000000 0.000000 0.000000
0.535971 -0.827664 0.322023 0.000000 0.000000 0.000000
0.674070 -0.738991 0.425329 0.000000 0.000000 0.000000
0.542269 -0.628268 0.491239 0.000000 0.000000 0.000000
0.744789 -0.728914 0.465723 0.000000 0.000000 0.000000
0.961841 -0.778105 0.488714 0.000000 0.000000 0.000000
0.813618 -0.873513 0.400959 0.000000 0.000000 0.000000
0.647243 -0.516303 0.618723 0.000000 0.000000 0.000000
0.695476 -0.797478 0.394968 0.000000 0.000000 0.000000
0.742442 -0.812908 0.400506 0.000000 0.000000 0.000000
0.778251 -0.458456 0.773429 0.000000 0.000000 0.000000
0.542867 -0.830357 0.324324 0.000000 0.000000 0.000000
0.702632 -0.755848 0.428271 0.000000 0.000000 0.000000
0.750708 -0.782097 0.402525 0.000000 0.000000 0.000000
0.537736 -0.640439 0.483925 0.000000 0.000000 0.000000
0.967091 -0.810267 0.486708 0.000000 0.000000 0.000000
0.547481 -0.620666 0.495307 0.000000 0.000000 0.000000
0.733958 -0.819617 0.411870 0.000000 0.000000 0.000000
0.743914 -0.802167 0.405277 0.000000 0.000000 0.000000
0.615401 -0.527231 0.607114 0.000000 0.000000 0.000000
0.857769 -0.614220 0.704228 0.000000 0.000000 0.000000
0.927237 -0.694478 0.602177 0.000000 0.000000 0.000000
0.898128 -0.674228 0.599734 0.000000 0.000000 0.000000
0.535054 -0.635529 0.490783 0.000000 0.000000 0.000000
0.529825 -0.646912 0.474755 0.000000 0.000000 0.000000
0.537690 -0.642535 0.471200 0.000000 0.000000 0.000000
0.540846 -0.646757 0.479012 0.000000 0.000000 0.000000
0.527556 -0.811745 0.337685 0.000000 0.000000 0.000000
0.539369 -0.609836 0.498848 0.000000 0.000000 0.000000
0.570848 -0.587286 0.512748 0.000000 0.000000 0.000000
0.912947 -0.673883 0.597157 0.000000 0.000000 0.000000
0.853739 -0.621818 0.704827 0.000000 0.000000 0.000000
0.540378 -0.624469 0.499188 0.000000 0.000000 0.000000
0.886113 -0.690526 0.562164 0.000000 0.000000 0.000000
0.695604 -1.070608 0.320637 0.000000 0.000000 0.000000
0.532706 -0.639310 0.485127 0.000000 0.000000 0.000000
0.674539 -0.514848 0.672078 0.000000 0.000000 0.000000
0.528421 -0.651563 0.476909 0.000000 0.000000 0.000000
0.672715 -0.795625 0.388528 0.000000 0.000000 0.000000
0.565541 -0.885295 0.317858 0.000000 0.000000 0.000000
0.541320 -0.635002 0.486423 0.000000 0.000000 0.000000
0.528978 -0.662557 0.452220 0.000000 0.000000 0.000000
0.777771 -0.815010 0.404607 0.000000 0.000000 0.000000
0.943939 -0.737946 0.527525 0.000000 0.000000 0.000000
0.542104 -0.614754 0.499250 0.000000 0.000000 0.000000
0.914766 -0.668186 0.611288 0.000000 0.000000 0.000000
0.548359 -0.653934 0.475748 0.000000 0.000000 0.000000
0.571283 -0.573199 0.516620 0.000000 0.000000 0.000000
0.897433 -0.668765 0.602813 0.000000 0.000000 0.000000
0.522438 -0.794086 0.342346 0.000000 0.000000 0.000000
0.581916 -0.788158 0.373715 0.000000 0.000000 0.000000
0.544357 -0.628320 0.491492 0.000000 0.000000 0.000000
0.531957 -0.833836 0.342086 0.000000 0.000000 0.000000
0.538122 -0.640414 0.487905 0.000000 0.000000 0.000000
0.553448 -0.641774 0.483198 0.000000 0.000000 0.000000
0.721676 -0.712579 0.468161 0.000000 0.000000 0.000000
0.672495 -0.782416 0.399978 0.000000 0.000000 0.000000
0.575630 -0.891692 0.319278 0.000000 0.000000 0.000000
0.548188 -0.629401 0.487951 0.000000 0.000000 0.000000
0.533923 -0.662079 0.460707 0.000000 0.000000 0.000000
0.793850 -0.829321 0.400530 0.000000 0.000000 0.000000
0.687029 -0.525307 0.721686 0.000000 0.000000 0.000000
0.533538 -0.632748 0.489385 0.000000 0.000000 0.000000
0.559108 -0.562087 0.557402 0.000000 0.000000 0.000000
0.788798 -0.457932 0.794273 0.000000 0.000000 0.000000
0.785018 -0.454514 0.796916 0.000000 0.000000 0.000000
0.788913 -0.432758 0.795607 0.000000 0.000000 0.000000
0.874173 -0.637191 0.677566 0.000000 0.000000 0.000000
0.784992 -0.467643 0.780212 0.000000 0.000000 0.000000
0.598453 -0.540717 0.586510 0.000000 0.000000 0.000000
0.603909 -0.954716 0.335285 0.000000 0.000000 0.000000
0.540426 -0.865431 0.349232 0.000000 0.000000 0.000000
0.782903 -0.437128 0.796684 0.000000 0.000000 0.000000
0.783666 -0.434852 0.794743 0.000000 0.000000 0.000000
0.669089 -0.510474 0.646530 0.000000 0.000000 0.000000
0.534979 -0.647500 0.478813 0.000000 0.000000 0.000000
0.658064 -0.510863 0.631157 0.000000 0.000000 0.000000
0.786170 -0.429836 0.794392 0.000000 0.000000 0.000000
0.654066 -1.061650 0.325837 0.000000 0.000000 0.000000
0.549750 -0.878510 0.329595 0.000000 0.000000 0.000000
0.666685 -0.520189 0.647712 0.000000 0.000000 0.000000
0.695795 -0.555443 0.662008 0.000000 0.000000 0.000000
0.521676 -0.730352 0.365819 0.000000 0.000000 0.000000
0.878205 -0.634934 0.690841 0.000000 0.000000 0.000000
0.521428 -0.748588 0.360330 0.000000 0.000000 0.000000
0.886593 -0.636838 0.678247 0.000000 0.000000 0.000000
0.643644 -0.543149 0.615945 0.000000 0.000000 0.000000
0.788746 -0.476991 0.790618 0.000000 0.000000 0.000000
0.970499 -0.849180 0.445031 0.000000 0.000000 0.000000
0.968669 -0.819793 0.468805 0.000000 0.000000 0.000000
0.780179 -0.448402 0.782214 0.000000 0.000000 0.000000
0.537219 -0.803930 0.322008 0.000000 0.000000 0.000000
0.527265 -0.651026 0.470919 0.000000 0.000000 0.000000
0.773353 -0.775572 0.437479 0.000000 0.000000 0.000000
0.965260 -0.800586 0.486060 0.000000 0.000000 0.000000
0.664042 -0.520499 0.642953 0.000000 0.000000 0.000000
0.523419 -0.742592 0.356603 0.000000 0.000000 0.000000
0.883982 -0.635591 0.674678 0.000000 0.000000 0.000000
0.948849 -0.737704 0.521232 0.000000 0.000000 0.000000
0.653261 -0.544398 0.615182 0.000000 0.000000 0.000000
0.783196 -0.445735 0.791868 0.000000 0.000000 0.000000
0.712769 -0.862873 0.373458 0.000000 0.000000 0.000000
0.725190 -1.068444 0.312027 0.000000 0.000000 0.000000
0.547951 -0.821635 0.317090 0.000000 0.000000 0.000000
0.749610 -0.758751 0.434413 0.000000 0.000000 0.000000
0.862722 -0.629520 0.696003 0.000000 0.000000 0.000000
0.716259 -0.514613 0.726407 0.000000 0.000000 0.000000
0.676584 -0.509298 0.670441 0.000000 0.000000 0.000000
0.610031 -1.010477 0.325494 0.000000 0.000000 0.000000
0.935652 -0.707289 0.549130 0.000000 0.000000 0.000000
0.543202 -0.639638 0.485470 0.000000 0.000000 0.000000
0.861598 -0.629257 0.689257 0.000000 0.000000 0.000000
0.752255 -0.486488 0.749678 0.000000 0.000000 0.000000
0.859460 -0.620603 0.696368 0.000000 0.000000 0.000000
0.778347 -0.495834 0.777881 0.000000 0.000000 0.000000
0.725580 -0.511332 0.729548 0.000000 0.000000 0.000000
0.544439 -0.628860 0.496142 0.000000 0.000000 0.000000
0.756183 -0.939035 0.364118 0.000000 0.000000 0.000000
0.955637 -0.737300 0.514513 0.000000 0.000000 0.000000
0.511389 -0.797381 0.340859 0.000000 0.000000 0.000000
0.511665 -0.798989 0.341978 0.000000 0.000000 0.000000
0.721359 -0.821895 0.397987 0.000000 0.000000 0.000000
0.753489 -0.823366 0.398241 0.000000 0.000000 0.000000
0.963118 -0.775407 0.498230 0.000000 0.000000 0.000000
0.605606 -0.561310 0.575625 0.000000 0.000000 0.000000
0.859560 -0.621137 0.696536 0.000000 0.000000 0.000000
0.781522 -0.488166 0.786704 0.000000 0.000000 0.000000
0.739177 -0.514169 0.728891 0.000000 0.000000 0.000000
0.829048 -0.617493 0.669984 0.000000 0.000000 0.000000
0.856373 -0.619234 0.693521 0.000000 0.000000 0.000000
0.557111 -0.623061 0.490977 0.000000 0.000000 0.000000
0.781847 -0.488646 0.786734 0.000000 0.000000 0.000000
0.714047 -0.501109 0.732837 0.000000 0.000000 0.000000
0.753119 -0.479585 0.751471 0.000000 0.000000 0.000000
0.528479 -0.631852 0.493465 0.000000 0.000000 0.000000
0.858481 -0.615830 0.711651 0.000000 0.000000 0.000000
0.934009 -0.764701 0.500925 0.000000 0.000000 0.000000
0.723121 -0.787060 0.414783 0.000000 0.000000 0.000000
0.782742 -0.439851 0.787902 0.000000 0.000000 0.000000
0.797248 -0.800394 0.447335 0.000000 0.000000 0.000000
0.852913 -0.619704 0.689596 0.000000 0.000000 0.000000
0.518949 -0.739181 0.370397 0.000000 0.000000 0.000000
0.635408 -0.528152 0.616115 0.000000 0.000000 0.000000
0.541284 -0.649662 0.477848 0.000000 0.000000 0.000000
0.523122 -0.653995 0.463780 0.000000 0.000000 0.000000
0.795813 -0.603594 0.688434 0.000000 0.000000 0.000000
0.613658 -0.562773 0.575462 0.000000 0.000000 0.000000
0.627131 -0.723865 0.449782 0.000000 0.000000 0.000000
0.946506 -0.827734 0.455443 0.000000 0.000000 0.000000
0.961591 -0.834472 0.457894 0.000000 0.000000 0.000000
0.631793 -1.003496 0.364995 0.000000 0.000000 0.000000
0.958095 -0.845008 0.452059 0.000000 0.000000 0.000000
0.719220 -0.778600 0.419376 0.000000 0.000000 0.000000
0.731450 -1.060413 0.312821 0.000000 0.000000 0.000000
0.759614 -0.584073 0.689166 0.000000 0.000000 0.000000
0.938090 -0.870634 0.435043 0.000000 0.000000 0.000000
0.653060 -0.977287 0.355539 0.000000 0.000000 0.000000
0.714186 -0.835344 0.397193 0.000000 0.000000 0.000000
0.800565 -0.589898 0.690585 0.000000 0.000000 0.000000
0.605922 -0.544406 0.585478 0.000000 0.000000 0.000000
0.525227 -0.714610 0.384437 0.000000 0.000000 0.000000
0.958039 -0.839571 0.463930 0.000000 0.000000 0.000000
0.626004 -1.026317 0.349369 0.000000 0.000000 0.000000
0.752421 -0.613971 0.644284 0.000000 0.000000 0.000000
0.762116 -0.702745 0.478739 0.000000 0.000000 0.000000
0.750008 -0.793077 0.408099 0.000000 0.000000 0.000000
0.889122 -0.645779 0.651348 0.000000 0.000000 0.000000
0.954832 -0.850386 0.443898 0.000000 0.000000 0.000000
0.577164 -0.576952 0.532042 0.000000 0.000000 0.000000
0.578609 -0.570088 0.534961 0.000000 0.000000 0.000000
0.586841 -0.580588 0.556728 0.000000 0.000000 0.000000
0.960042 -0.854930 0.444431 0.000000 0.000000 0.000000
0.565296 -0.581648 0.523072 0.000000 0.000000 0.000000
0.704700 -0.516598 0.718860 0.000000 0.000000 0.000000
0.704364 -0.506675 0.732348 0.000000 0.000000 0.000000
0.965938 -0.791442 0.478038 0.000000 0.000000 0.000000
0.927827 -0.703835 0.573575 0.000000 0.000000 0.000000
0.688278 -0.510633 0.713643 0.000000 0.000000 0.000000
0.928574 -0.694746 0.593976 0.000000 0.000000 0.000000
0.587422 -0.603948 0.516370 0.000000 0.000000 0.000000
0.574095 -0.588967 0.520962 0.000000 0.000000 0.000000
0.591354 -0.560122 0.567852 0.000000 0.000000 0.000000
0.600070 -0.550298 0.581250 0.000000 0.000000 0.000000
0.958977 -0.836708 0.449379 0.000000 0.000000 0.000000
0.952447 -0.842222 0.447048 0.000000 0.000000 0.000000
0.957637 -0.750743 0.502419 0.000000 0.000000 0.000000
0.583391 -0.582767 0.526761 0.000000 0.000000 0.000000
0.888071 -0.638562 0.658478 0.000000 0.000000 0.000000
0.563137 -0.603516 0.515127 0.000000 0.000000 0.000000
0.574001 -0.595720 0.511920 0.000000 0.000000 0.000000
0.574358 -0.574087 0.533377 0.000000 0.000000 0.000000
0.964479 -0.841051 0.449343 0.000000 0.000000 0.000000
0.561873 -0.587784 0.526686 0.000000 0.000000 0.000000
0.959686 -0.778322 0.489522 0.000000 0.000000 0.000000
0.782854 -0.442177 0.792316 0.000000 0.000000 0.000000
0.586274 -0.578510 0.531149 0.000000 0.000000 0.000000
0.885503 -0.642929 0.658769 0.000000 0.000000 0.000000
0.571730 -0.579728 0.532292 0.000000 0.000000 0.000000
0.554165 -0.637800 0.496317 0.000000 0.000000 0.000000
0.568236 -0.577324 0.524589 0.000000 0.000000 0.000000
0.692065 -0.518157 0.698186 0.000000 0.000000 0.000000
0.697349 -0.512979 0.727070 0.000000 0.000000 0.000000
0.967695 -0.842772 0.448678 0.000000 0.000000 0.000000
0.567081 -0.611452 0.525455 0.000000 0.000000 0.000000
0.898272 -0.639563 0.661299 0.000000 0.000000 0.000000
0.590231 -0.565074 0.564141 0.000000 0.000000 0.000000
0.740652 -0.776812 0.422751 0.000000 0.000000 0.000000
0.732817 -1.070043 0.318111 0.000000 0.000000 0.000000
0.959540 -0.770688 0.501152 0.000000 0.000000 0.000000
0.940450 -0.831432 0.451316 0.000000 0.000000 0.000000
0.974834 -0.799652 0.480185 0.000000 0.000000 0.000000
0.705503 -0.509174 0.728172 0.000000 0.000000 0.000000
0.597687 -0.565310 0.568563 0.000000 0.000000 0.000000
0.646594 -0.521342 0.621323 0.000000 0.000000 0.000000
0.711169 -0.500586 0.734896 0.000000 0.000000 0.000000
0.975107 -0.799228 0.485612 0.000000 0.000000 0.000000
0.932754 -0.688279 0.599202 0.000000 0.000000 0.000000
0.963955 -0.834507 0.453631 0.000000 0.000000 0.000000
0.961174 -0.833230 0.471452 0.000000 0.000000 0.000000
0.531829 -0.663162 0.426804 0.000000 0.000000 0.000000
0.649046 -0.518373 0.639212 0.000000 0.000000 0.000000
0.781391 -0.439150 0.798556 0.000000 0.000000 0.000000
0.584753 -0.566022 0.552451 0.000000 0.000000 0.000000
0.528430 -0.652099 0.468806 0.000000 0.000000 0.000000
0.581181 -0.556629 0.571888 0.000000 0.000000 0.000000
0.783146 -0.437208 0.794319 0.000000 0.000000 0.000000
0.673279 -0.874694 0.372455 0.000000 0.000000 0.000000
0.719171 -0.743658 0.447541 0.000000 0.000000 0.000000
0.678204 -0.509157 0.664193 0.000000 0.000000 0.000000
0.609682 -0.998770 0.325174 0.000000 0.000000 0.000000
0.594186 -0.943629 0.309516 0.000000 0.000000 0.000000
0.630922 -1.022536 0.289425 0.000000 0.000000 0.000000
0.618242 -0.998628 0.344133 0.000000 0.000000 0.000000
0.636761 -0.982543 0.354157 0.000000 0.000000 0.000000
0.634959 -1.028397 0.320075 0.000000 0.000000 0.000000
0.922136 -0.678436 0.606149 0.000000 0.000000 0.000000
0.614461 -1.014504 0.336721 0.000000 0.000000 0.000000
0.788834 -0.661752 0.545237 0.000000 0.000000 0.000000
0.622257 -0.868252 0.362535 0.000000 0.000000 0.000000
0.680701 -0.508260 0.676568 0.000000 0.000000 0.000000
0.716824 -0.813540 0.409467 0.000000 0.000000 0.000000
0.683593 -0.508874 0.676151 0.000000 0.000000 0.000000
0.638619 -1.016555 0.320617 0.000000 0.000000 0.000000
0.618851 -1.008713 0.323182 0.000000 0.000000 0.000000
0.608995 -0.986141 0.295145 0.000000 0.000000 0.000000
0.604772 -1.009927 0.336007 0.000000 0.000000 0.000000
0.610154 -1.009665 0.331193 0.000000 0.000000 0.000000
0.626320 -0.996010 0.350206 0.000000 0.000000 0.000000
0.525950 -0.653816 0.463024 0.000000 0.000000 0.000000
0.792772 -0.671216 0.539015 0.000000 0.000000 0.000000
0.656707 -0.515774 0.637352 0.000000 0.000000 0.000000
0.574566 -0.567981 0.536207 0.000000 0.000000 0.000000
0.720578 -1.078851 0.311485 0.000000 0.000000 0.000000
0.652471 -0.513992 0.629925 0.000000 0.000000 0.000000
0.781050 -0.430538 0.801023 0.000000 0.000000 0.000000
0.602069 -0.550470 0.583699 0.000000 0.000000 0.000000
0.682487 -0.517418 0.675468 0.000000 0.000000 0.000000
0.782562 -0.440564 0.791584 0.000000 0.000000 0.000000
0.535051 -0.669393 0.420959 0.000000 0.000000 0.000000
0.946719 -0.708583 0.541595 0.000000 0.000000 0.000000
0.712939 -1.059064 0.326924 0.000000 0.000000 0.000000
0.530246 -0.676567 0.416317 0.000000 0.000000 0.000000
0.643094 -1.041415 0.306496 0.000000 0.000000 0.000000
0.912795 -0.727308 0.544721 0.000000 0.000000 0.000000
0.887293 -0.699094 0.586052 0.000000 0.000000 0.000000
0.744318 -1.044257 0.333756 0.000000 0.000000 0.000000
0.953553 -0.808484 0.489697 0.000000 0.000000 0.000000
0.731941 -1.052918 0.317191 0.000000 0.000000 0.000000
0.525881 -0.661824 0.445426 0.000000 0.000000 0.000000
0.619881 -0.832329 0.396132 0.000000 0.000000 0.000000
0.907290 -0.739469 0.532902 0.000000 0.000000 0.000000
0.534256 -0.675651 0.418613 0.000000 0.000000 0.000000
0.716799 -1.076152 0.314396 0.000000 0.000000 0.000000
0.537240 -0.650596 0.468074 0.000000 0.000000 0.000000
0.739979 -1.028852 0.330628 0.000000 0.000000 0.000000
0.928485 -0.718198 0.542336 0.000000 0.000000 0.000000
0.529175 -0.665905 0.430535 0.000000 0.000000 0.000000
0.528052 -0.672560 0.412160 0.000000 0.000000 0.000000
0.533631 -0.692628 0.404722 0.000000 0.000000 0.000000
0.954158 -0.789985 0.485293 0.000000 0.000000 0.000000
0.904773 -0.705850 0.566486 0.000000 0.000000 0.000000
0.728755 -1.037060 0.330754 0.000000 0.000000 0.000000
0.713268 -1.049708 0.320043 0.000000 0.000000 0.000000
0.673539 -0.512135 0.674572 0.000000 0.000000 0.000000
0.531257 -0.665423 0.447996 0.000000 0.000000 0.000000
0.682320 -0.874219 0.375076 0.000000 0.000000 0.000000
0.799169 -0.514542 0.780786 0.000000 0.000000 0.000000
0.874058 -0.731244 0.543492 0.000000 0.000000 0.000000
0.927019 -0.671917 0.611562 0.000000 0.000000 0.000000
0.532211 -0.666728 0.423029 0.000000 0.000000 0.000000
0.720696 -1.046934 0.328966 0.000000 0.000000 0.000000
0.761582 -1.039453 0.316076 0.000000 0.000000 0.000000
0.865976 -0.625078 0.694384 0.000000 0.000000 0.000000
0.526853 -0.664269 0.448295 0.000000 0.000000 0.000000
0.888294 -0.635244 0.684094 0.000000 0.000000 0.000000
0.657364 -0.517492 0.639463 0.000000 0.000000 0.000000
0.526900 -0.664294 0.439358 0.000000 0.000000 0.000000
0.535679 -0.667044 0.427420 0.000000 0.000000 0.000000
0.781337 -0.443953 0.788862 0.000000 0.000000 0.000000
0.880164 -0.637985 0.669213 0.000000 0.000000 0.000000
0.876975 -0.635613 0.681122 0.000000 0.000000 0.000000
0.729046 -1.067129 0.315483 0.000000 0.000000 0.000000
0.814110 -0.687642 0.538307 0.000000 0.000000 0.000000
0.575522 -0.592498 0.515881 0.000000 0.000000 0.000000
0.531041 -0.660888 0.430789 0.000000 0.000000 0.000000
0.718194 -0.495675 0.740389 0.000000 0.000000 0.000000
0.680100 -0.798406 0.387131 0.000000 0.000000 0.000000
0.567121 -0.638742 0.486284 0.000000 0.000000 0.000000
0.918180 -0.678099 0.601402 0.000000 0.000000 0.000000
0.790175 -0.674003 0.535874 0.000000 0.000000 0.000000
0.838389 -0.566229 0.730246 0.000000 0.000000 0.000000
0.926954 -0.676372 0.609019 0.000000 0.000000 0.000000
0.921346 -0.676516 0.614134 0.000000 0.000000 0.000000
0.533968 -0.659409 0.445126 0.000000 0.000000 0.000000
0.926000 -0.679793 0.606398 0.000000 0.000000 0.000000
0.542913 -0.616717 0.500981 0.000000 0.000000 0.000000
0.759839 -0.817675 0.402900 0.000000 0.000000 0.000000
0.615235 -0.544449 0.598691 0.000000 0.000000 0.000000
0.941922 -0.705666 0.562443 0.000000 0.000000 0.000000
0.836175 -0.552388 0.736399 0.000000 0.000000 0.000000
0.938339 -0.703278 0.563084 0.000000 0.000000 0.000000
0.745264 -0.504182 0.769820 0.000000 0.000000 0.000000
0.937576 -0.702506 0.559357 0.000000 0.000000 0.000000
0.821428 -0.557335 0.732952 0.000000 0.000000 0.000000
0.729573 -0.480372 0.751373 0.000000 0.000000 0.000000
0.759734 -0.518139 0.756430 0.000000 0.000000 0.000000
0.925025 -0.690242 0.592670 0.000000 0.000000 0.000000
0.823293 -0.760669 0.475009 0.000000 0.000000 0.000000
0.942396 -0.706589 0.541597 0.000000 0.000000 0.000000
0.739193 -0.517708 0.752766 0.000000 0.000000 0.000000
0.683343 -0.971946 0.352535 0.000000 0.000000 0.000000
0.740649 -0.509719 0.760661 0.000000 0.000000 0.000000
0.612332 -1.008104 0.308608 0.000000 0.000000 0.000000
0.831725 -0.540969 0.742573 0.000000 0.000000 0.000000
0.759095 -0.498852 0.750132 0.000000 0.000000 0.000000
0.738019 -0.738240 0.445187 0.000000 0.000000 0.000000
0.938169 -0.701504 0.564893 0.000000 0.000000 0.000000
0.740171 -0.522892 0.747415 0.000000 0.000000 0.000000
0.696935 -0.544005 0.698167 0.000000 0.000000 0.000000
0.657939 -0.510260 0.631032 0.000000 0.000000 0.000000
0.678546 -0.511406 0.677584 0.000000 0.000000 0.000000
0.675045 -0.514711 0.679943 0.000000 0.000000 0.000000
0.702152 -0.517783 0.725700 0.000000 0.000000 0.000000
0.527023 -0.831166 0.327455 0.000000 0.000000 0.000000
0.657598 -0.514697 0.651906 0.000000 0.000000 0.000000
0.788945 -0.496685 0.790254 0.000000 0.000000 0.000000
0.533096 -0.645466 0.474598 0.000000 0.000000 0.000000
0.782834 -0.441043 0.793226 0.000000 0.000000 0.000000
0.676708 -0.508272 0.674846 0.000000 0.000000 0.000000
0.698281 -0.522408 0.703812 0.000000 0.000000 0.000000
0.758916 -0.497262 0.778638 0.000000 0.000000 0.000000
0.676776 -0.527046 0.662886 0.000000 0.000000 0.000000
0.679517 -0.517608 0.674894 0.000000 0.000000 0.000000
0.682340 -0.509842 0.670567 0.000000 0.000000 0.000000
0.690263 -0.506933 0.697535 0.000000 0.000000 0.000000
0.688988 -1.078080 0.322537 0.000000 0.000000 0.000000
0.565625 -0.589904 0.512141 0.000000 0.000000 0.000000
0.725700 -1.059254 0.312891 0.000000 0.000000 0.000000
0.665094 -0.512988 0.641227 0.000000 0.000000 0.000000
0.672315 -0.513127 0.671247 0.000000 0.000000 0.000000
0.689764 -0.506987 0.703561 0.000000 0.000000 0.000000
0.677275 -0.507517 0.658516 0.000000 0.000000 0.000000
0.941712 -0.716434 0.536100 0.000000 0.000000 0.000000
0.591885 -0.543539 0.591918 0.000000 0.000000 0.000000
