ply
format ascii 1.0
comment VCGLIB generated
obj_info Generated by SPFormer!
element vertex 884
property float x
property float y
property float z
property float nx
property float ny
property float nz
end_header
0.552162 0.869740 1.548378 0.000000 0.000000 0.000000
0.569870 1.077298 1.455442 0.000000 0.000000 0.000000
0.421614 1.022072 1.604804 0.000000 0.000000 0.000000
0.555442 1.081680 1.468104 0.000000 0.000000 0.000000
0.546225 1.076574 1.476436 0.000000 0.000000 0.000000
0.446707 1.033361 1.580703 0.000000 0.000000 0.000000
0.569252 1.048454 1.467483 0.000000 0.000000 0.000000
0.420806 1.024330 1.604618 0.000000 0.000000 0.000000
0.470908 0.985031 1.572567 0.000000 0.000000 0.000000
0.444504 1.015313 1.582213 0.000000 0.000000 0.000000
0.433470 1.033898 1.589622 0.000000 0.000000 0.000000
0.437009 1.022479 1.591110 0.000000 0.000000 0.000000
0.593245 1.066360 1.448093 0.000000 0.000000 0.000000
0.463896 1.051695 1.561952 0.000000 0.000000 0.000000
0.460451 0.988496 1.580741 0.000000 0.000000 0.000000
0.434323 1.044267 1.587820 0.000000 0.000000 0.000000
0.428367 1.027497 1.595608 0.000000 0.000000 0.000000
0.479959 1.077910 1.544691 0.000000 0.000000 0.000000
0.423456 0.942251 1.623516 0.000000 0.000000 0.000000
0.552010 0.862972 1.550817 0.000000 0.000000 0.000000
0.546727 0.865576 1.556799 0.000000 0.000000 0.000000
0.426045 1.014303 1.609968 0.000000 0.000000 0.000000
0.669596 0.971922 1.417021 0.000000 0.000000 0.000000
0.572050 1.055600 1.466165 0.000000 0.000000 0.000000
0.551961 1.077223 1.472599 0.000000 0.000000 0.000000
0.564763 0.866277 1.531766 0.000000 0.000000 0.000000
0.542078 1.063602 1.494671 0.000000 0.000000 0.000000
0.617223 1.057007 1.422143 0.000000 0.000000 0.000000
0.652141 0.937233 1.437131 0.000000 0.000000 0.000000
0.647087 0.945271 1.445103 0.000000 0.000000 0.000000
0.616799 1.059464 1.418426 0.000000 0.000000 0.000000
0.594094 0.881222 1.487426 0.000000 0.000000 0.000000
0.600611 1.063839 1.427562 0.000000 0.000000 0.000000
0.617758 1.051046 1.426002 0.000000 0.000000 0.000000
0.561454 0.869146 1.540452 0.000000 0.000000 0.000000
0.384429 0.977611 1.640988 0.000000 0.000000 0.000000
0.489071 1.067415 1.538484 0.000000 0.000000 0.000000
0.415341 0.927488 1.627934 0.000000 0.000000 0.000000
0.650768 0.928943 1.440591 0.000000 0.000000 0.000000
0.508616 0.888717 1.586663 0.000000 0.000000 0.000000
0.672719 0.999666 1.417316 0.000000 0.000000 0.000000
0.615332 0.885029 1.471511 0.000000 0.000000 0.000000
0.535027 0.868754 1.564886 0.000000 0.000000 0.000000
0.613518 0.884571 1.471485 0.000000 0.000000 0.000000
0.618987 0.907877 1.459503 0.000000 0.000000 0.000000
0.616307 0.904242 1.467547 0.000000 0.000000 0.000000
0.541717 0.867278 1.559248 0.000000 0.000000 0.000000
0.451506 1.040115 1.571371 0.000000 0.000000 0.000000
0.396867 0.992616 1.625901 0.000000 0.000000 0.000000
0.404203 0.992527 1.624705 0.000000 0.000000 0.000000
0.410500 0.994311 1.617932 0.000000 0.000000 0.000000
0.409283 0.996216 1.618426 0.000000 0.000000 0.000000
0.405687 0.933784 1.634560 0.000000 0.000000 0.000000
0.448959 0.909311 1.611484 0.000000 0.000000 0.000000
0.510939 0.892831 1.579524 0.000000 0.000000 0.000000
0.581627 1.065509 1.450931 0.000000 0.000000 0.000000
0.405333 0.992552 1.622066 0.000000 0.000000 0.000000
0.403669 0.983117 1.626299 0.000000 0.000000 0.000000
0.433351 1.018230 1.598841 0.000000 0.000000 0.000000
0.423147 1.000119 1.612409 0.000000 0.000000 0.000000
0.405117 1.005865 1.624317 0.000000 0.000000 0.000000
0.396354 0.995907 1.629436 0.000000 0.000000 0.000000
0.444691 0.974135 1.601096 0.000000 0.000000 0.000000
0.436995 1.026618 1.589063 0.000000 0.000000 0.000000
0.540552 0.877752 1.558608 0.000000 0.000000 0.000000
0.390742 0.991465 1.632299 0.000000 0.000000 0.000000
0.605398 1.054246 1.438075 0.000000 0.000000 0.000000
0.545525 0.868962 1.556068 0.000000 0.000000 0.000000
0.593054 0.894328 1.497355 0.000000 0.000000 0.000000
0.594066 0.878436 1.490291 0.000000 0.000000 0.000000
0.508488 0.878278 1.584988 0.000000 0.000000 0.000000
0.598663 0.871980 1.487368 0.000000 0.000000 0.000000
0.602562 1.061868 1.440421 0.000000 0.000000 0.000000
0.608070 1.065663 1.440211 0.000000 0.000000 0.000000
0.407090 0.960461 1.628054 0.000000 0.000000 0.000000
0.437322 1.001387 1.595846 0.000000 0.000000 0.000000
0.416068 0.981316 1.616068 0.000000 0.000000 0.000000
0.390677 0.975185 1.639273 0.000000 0.000000 0.000000
0.395423 0.990468 1.629968 0.000000 0.000000 0.000000
0.396495 0.997303 1.627371 0.000000 0.000000 0.000000
0.482651 1.002199 1.560493 0.000000 0.000000 0.000000
0.402594 0.997049 1.620947 0.000000 0.000000 0.000000
0.393241 0.981221 1.630922 0.000000 0.000000 0.000000
0.575794 0.876105 1.519552 0.000000 0.000000 0.000000
0.540397 0.867348 1.558041 0.000000 0.000000 0.000000
0.586300 0.875001 1.506433 0.000000 0.000000 0.000000
0.582263 0.868141 1.503585 0.000000 0.000000 0.000000
0.603022 0.875048 1.479747 0.000000 0.000000 0.000000
0.589477 0.871071 1.495515 0.000000 0.000000 0.000000
0.599788 1.069855 1.429512 0.000000 0.000000 0.000000
0.545465 0.867235 1.554595 0.000000 0.000000 0.000000
0.591975 1.065965 1.443641 0.000000 0.000000 0.000000
0.499558 0.883861 1.586841 0.000000 0.000000 0.000000
0.492264 0.883966 1.592203 0.000000 0.000000 0.000000
0.398669 0.999569 1.624984 0.000000 0.000000 0.000000
0.581825 0.865565 1.506118 0.000000 0.000000 0.000000
0.635978 0.949438 1.446806 0.000000 0.000000 0.000000
0.657780 0.964096 1.428227 0.000000 0.000000 0.000000
0.398107 0.989623 1.627754 0.000000 0.000000 0.000000
0.671971 1.006487 1.421399 0.000000 0.000000 0.000000
0.391318 0.972107 1.636314 0.000000 0.000000 0.000000
0.388497 0.992346 1.634014 0.000000 0.000000 0.000000
0.675307 1.004568 1.416035 0.000000 0.000000 0.000000
0.659689 0.966543 1.425237 0.000000 0.000000 0.000000
0.405006 1.009608 1.620659 0.000000 0.000000 0.000000
0.623494 0.975725 1.447480 0.000000 0.000000 0.000000
0.648016 0.948424 1.434270 0.000000 0.000000 0.000000
0.393053 0.979679 1.633488 0.000000 0.000000 0.000000
0.679941 1.000694 1.411558 0.000000 0.000000 0.000000
0.392688 0.983244 1.631984 0.000000 0.000000 0.000000
0.400451 0.996484 1.621953 0.000000 0.000000 0.000000
0.397484 0.951457 1.640620 0.000000 0.000000 0.000000
0.664511 0.970561 1.420534 0.000000 0.000000 0.000000
0.603140 0.873305 1.481756 0.000000 0.000000 0.000000
0.407876 0.985831 1.613727 0.000000 0.000000 0.000000
0.637369 0.958803 1.440590 0.000000 0.000000 0.000000
0.393789 0.961553 1.637373 0.000000 0.000000 0.000000
0.533114 0.870157 1.568668 0.000000 0.000000 0.000000
0.549810 1.085906 1.473612 0.000000 0.000000 0.000000
0.547508 1.076935 1.470725 0.000000 0.000000 0.000000
0.453943 0.908344 1.609483 0.000000 0.000000 0.000000
0.627147 0.909252 1.457108 0.000000 0.000000 0.000000
0.581152 0.868046 1.508129 0.000000 0.000000 0.000000
0.562339 1.070986 1.459307 0.000000 0.000000 0.000000
0.479173 0.890582 1.599665 0.000000 0.000000 0.000000
0.569262 1.069343 1.452912 0.000000 0.000000 0.000000
0.560770 1.081700 1.462199 0.000000 0.000000 0.000000
0.551812 1.079506 1.467590 0.000000 0.000000 0.000000
0.567012 1.083024 1.453779 0.000000 0.000000 0.000000
0.544470 0.870987 1.554958 0.000000 0.000000 0.000000
0.562657 1.081287 1.457728 0.000000 0.000000 0.000000
0.466878 0.897982 1.606314 0.000000 0.000000 0.000000
0.551504 1.078201 1.472023 0.000000 0.000000 0.000000
0.384951 0.962580 1.645749 0.000000 0.000000 0.000000
0.679265 1.010783 1.410004 0.000000 0.000000 0.000000
0.401168 0.992279 1.625841 0.000000 0.000000 0.000000
0.392675 0.984162 1.633300 0.000000 0.000000 0.000000
0.439388 0.914984 1.614810 0.000000 0.000000 0.000000
0.635011 0.914516 1.451662 0.000000 0.000000 0.000000
0.668427 1.018667 1.425560 0.000000 0.000000 0.000000
0.599137 1.066574 1.435151 0.000000 0.000000 0.000000
0.602196 1.048698 1.444318 0.000000 0.000000 0.000000
0.606018 1.042198 1.448699 0.000000 0.000000 0.000000
0.619738 1.053636 1.426139 0.000000 0.000000 0.000000
0.620016 1.040836 1.436625 0.000000 0.000000 0.000000
0.619447 1.033970 1.439484 0.000000 0.000000 0.000000
0.601955 1.030980 1.461811 0.000000 0.000000 0.000000
0.622039 1.034321 1.440160 0.000000 0.000000 0.000000
0.418743 1.033968 1.604781 0.000000 0.000000 0.000000
0.581494 1.074778 1.442624 0.000000 0.000000 0.000000
0.588647 1.073547 1.434237 0.000000 0.000000 0.000000
0.577016 1.071537 1.449593 0.000000 0.000000 0.000000
0.621220 1.044662 1.434304 0.000000 0.000000 0.000000
0.593290 1.038853 1.459789 0.000000 0.000000 0.000000
0.614500 1.047475 1.432361 0.000000 0.000000 0.000000
0.615065 1.050955 1.435887 0.000000 0.000000 0.000000
0.600305 1.047946 1.450061 0.000000 0.000000 0.000000
0.617443 0.992435 1.462497 0.000000 0.000000 0.000000
0.619224 1.021340 1.456580 0.000000 0.000000 0.000000
0.600075 1.065879 1.432442 0.000000 0.000000 0.000000
0.596104 1.067032 1.435327 0.000000 0.000000 0.000000
0.571855 1.063246 1.467519 0.000000 0.000000 0.000000
0.607829 1.060603 1.428292 0.000000 0.000000 0.000000
0.586518 1.068375 1.443329 0.000000 0.000000 0.000000
0.389249 0.964881 1.640654 0.000000 0.000000 0.000000
0.544962 1.065735 1.487984 0.000000 0.000000 0.000000
0.570322 1.065911 1.459969 0.000000 0.000000 0.000000
0.411636 0.991306 1.622153 0.000000 0.000000 0.000000
0.415264 0.941771 1.622943 0.000000 0.000000 0.000000
0.428111 0.933311 1.615300 0.000000 0.000000 0.000000
0.408261 1.005442 1.621167 0.000000 0.000000 0.000000
0.676340 1.012918 1.407465 0.000000 0.000000 0.000000
0.551679 0.863040 1.551025 0.000000 0.000000 0.000000
0.510789 1.069170 1.521142 0.000000 0.000000 0.000000
0.653257 0.954106 1.430689 0.000000 0.000000 0.000000
0.411111 1.012774 1.619723 0.000000 0.000000 0.000000
0.611367 1.061888 1.421667 0.000000 0.000000 0.000000
0.662012 0.960531 1.421623 0.000000 0.000000 0.000000
0.666278 0.958527 1.418285 0.000000 0.000000 0.000000
0.415213 0.936330 1.627552 0.000000 0.000000 0.000000
0.407994 1.014396 1.614756 0.000000 0.000000 0.000000
0.633019 1.061446 1.426459 0.000000 0.000000 0.000000
0.473727 1.072653 1.552040 0.000000 0.000000 0.000000
0.668260 0.964016 1.416178 0.000000 0.000000 0.000000
0.663109 0.958330 1.423851 0.000000 0.000000 0.000000
0.519739 1.082562 1.505388 0.000000 0.000000 0.000000
0.389116 0.954894 1.644476 0.000000 0.000000 0.000000
0.525363 0.872862 1.575580 0.000000 0.000000 0.000000
0.529278 0.872115 1.571288 0.000000 0.000000 0.000000
0.673629 0.986472 1.412408 0.000000 0.000000 0.000000
0.576142 0.871160 1.512136 0.000000 0.000000 0.000000
0.663538 0.958129 1.422957 0.000000 0.000000 0.000000
0.490487 1.049962 1.536024 0.000000 0.000000 0.000000
0.481765 0.890545 1.597344 0.000000 0.000000 0.000000
0.515838 1.083282 1.510168 0.000000 0.000000 0.000000
0.542218 0.870667 1.560804 0.000000 0.000000 0.000000
0.668622 1.026927 1.409675 0.000000 0.000000 0.000000
0.498863 1.071302 1.533569 0.000000 0.000000 0.000000
0.671910 1.025223 1.408273 0.000000 0.000000 0.000000
0.527924 0.878842 1.567809 0.000000 0.000000 0.000000
0.492287 1.051890 1.541002 0.000000 0.000000 0.000000
0.386501 0.967156 1.641666 0.000000 0.000000 0.000000
0.509100 1.084076 1.523389 0.000000 0.000000 0.000000
0.571475 0.883118 1.514103 0.000000 0.000000 0.000000
0.655839 0.943994 1.431192 0.000000 0.000000 0.000000
0.668761 0.986268 1.419661 0.000000 0.000000 0.000000
0.578812 0.865039 1.511568 0.000000 0.000000 0.000000
0.566587 0.878200 1.527097 0.000000 0.000000 0.000000
0.678062 1.003217 1.412258 0.000000 0.000000 0.000000
0.572280 0.888068 1.518813 0.000000 0.000000 0.000000
0.667560 0.986694 1.421143 0.000000 0.000000 0.000000
0.389759 0.981727 1.633437 0.000000 0.000000 0.000000
0.509081 1.084489 1.522159 0.000000 0.000000 0.000000
0.405221 1.005562 1.621745 0.000000 0.000000 0.000000
0.424906 0.932010 1.622011 0.000000 0.000000 0.000000
0.678170 0.997821 1.412395 0.000000 0.000000 0.000000
0.514485 1.082568 1.511832 0.000000 0.000000 0.000000
0.427532 0.927146 1.619467 0.000000 0.000000 0.000000
0.568527 0.885488 1.522535 0.000000 0.000000 0.000000
0.481778 1.077918 1.541930 0.000000 0.000000 0.000000
0.676124 1.018211 1.411206 0.000000 0.000000 0.000000
0.492589 0.882783 1.591058 0.000000 0.000000 0.000000
0.492383 1.062602 1.534214 0.000000 0.000000 0.000000
0.679172 1.026930 1.412712 0.000000 0.000000 0.000000
0.480541 0.888461 1.600844 0.000000 0.000000 0.000000
0.474074 1.039356 1.554170 0.000000 0.000000 0.000000
0.487584 0.883819 1.597590 0.000000 0.000000 0.000000
0.428518 0.915163 1.621998 0.000000 0.000000 0.000000
0.493475 1.062784 1.538661 0.000000 0.000000 0.000000
0.491490 0.891145 1.595564 0.000000 0.000000 0.000000
0.493430 0.891348 1.591344 0.000000 0.000000 0.000000
0.485277 1.044778 1.543545 0.000000 0.000000 0.000000
0.484626 1.067183 1.540210 0.000000 0.000000 0.000000
0.665226 0.961220 1.416958 0.000000 0.000000 0.000000
0.556424 0.864094 1.541571 0.000000 0.000000 0.000000
0.474843 1.068893 1.548451 0.000000 0.000000 0.000000
0.486700 1.034035 1.540615 0.000000 0.000000 0.000000
0.495356 1.072520 1.531760 0.000000 0.000000 0.000000
0.454644 1.066835 1.563058 0.000000 0.000000 0.000000
0.491750 1.079001 1.537703 0.000000 0.000000 0.000000
0.565574 0.872566 1.527832 0.000000 0.000000 0.000000
0.623704 0.899692 1.460057 0.000000 0.000000 0.000000
0.551043 0.862272 1.552507 0.000000 0.000000 0.000000
0.551584 0.863959 1.552002 0.000000 0.000000 0.000000
0.383095 0.962544 1.650274 0.000000 0.000000 0.000000
0.472908 0.895715 1.600131 0.000000 0.000000 0.000000
0.401987 0.992040 1.621260 0.000000 0.000000 0.000000
0.455254 0.912158 1.606794 0.000000 0.000000 0.000000
0.467449 0.894143 1.606605 0.000000 0.000000 0.000000
0.391201 0.993006 1.632319 0.000000 0.000000 0.000000
0.542992 0.869608 1.557531 0.000000 0.000000 0.000000
0.393657 0.980024 1.631749 0.000000 0.000000 0.000000
0.657114 0.991468 1.434498 0.000000 0.000000 0.000000
0.601233 0.876343 1.484134 0.000000 0.000000 0.000000
0.560029 0.868237 1.533807 0.000000 0.000000 0.000000
0.421042 1.035453 1.599649 0.000000 0.000000 0.000000
0.665584 1.000022 1.429950 0.000000 0.000000 0.000000
0.442421 0.916913 1.617488 0.000000 0.000000 0.000000
0.613205 0.884272 1.472251 0.000000 0.000000 0.000000
0.562842 0.864610 1.531829 0.000000 0.000000 0.000000
0.422510 1.037115 1.599432 0.000000 0.000000 0.000000
0.616808 1.062018 1.413345 0.000000 0.000000 0.000000
0.561300 0.860929 1.535388 0.000000 0.000000 0.000000
0.451056 0.905828 1.612753 0.000000 0.000000 0.000000
0.384219 0.967341 1.644654 0.000000 0.000000 0.000000
0.554034 1.082937 1.464893 0.000000 0.000000 0.000000
0.394719 0.955369 1.640235 0.000000 0.000000 0.000000
0.487976 0.889806 1.591593 0.000000 0.000000 0.000000
0.480221 1.050598 1.546820 0.000000 0.000000 0.000000
0.450530 1.066264 1.570232 0.000000 0.000000 0.000000
0.401254 0.938199 1.639535 0.000000 0.000000 0.000000
0.569373 0.863287 1.521367 0.000000 0.000000 0.000000
0.662018 0.951889 1.423151 0.000000 0.000000 0.000000
0.670058 0.985993 1.416002 0.000000 0.000000 0.000000
0.665997 0.964465 1.428211 0.000000 0.000000 0.000000
0.467066 1.065150 1.555840 0.000000 0.000000 0.000000
0.522901 1.082978 1.499564 0.000000 0.000000 0.000000
0.404474 0.951858 1.638505 0.000000 0.000000 0.000000
0.570987 0.862189 1.521713 0.000000 0.000000 0.000000
0.674847 0.995765 1.411722 0.000000 0.000000 0.000000
0.389086 0.959089 1.646165 0.000000 0.000000 0.000000
0.552486 1.079584 1.468000 0.000000 0.000000 0.000000
0.398175 1.004772 1.626101 0.000000 0.000000 0.000000
0.549384 1.084329 1.476256 0.000000 0.000000 0.000000
0.414106 1.024161 1.610983 0.000000 0.000000 0.000000
0.619177 0.885795 1.470639 0.000000 0.000000 0.000000
0.448422 0.914780 1.609784 0.000000 0.000000 0.000000
0.632410 0.907064 1.456009 0.000000 0.000000 0.000000
0.627294 0.905387 1.457341 0.000000 0.000000 0.000000
0.393164 0.951234 1.642147 0.000000 0.000000 0.000000
0.533427 0.870040 1.569328 0.000000 0.000000 0.000000
0.540722 1.079231 1.477513 0.000000 0.000000 0.000000
0.623090 0.894172 1.464274 0.000000 0.000000 0.000000
0.390360 1.002723 1.630987 0.000000 0.000000 0.000000
0.621748 0.898964 1.464010 0.000000 0.000000 0.000000
0.620695 0.904102 1.462412 0.000000 0.000000 0.000000
0.539595 1.083788 1.480297 0.000000 0.000000 0.000000
0.562072 1.079557 1.461074 0.000000 0.000000 0.000000
0.552428 1.084712 1.468200 0.000000 0.000000 0.000000
0.456305 1.057401 1.568375 0.000000 0.000000 0.000000
0.639039 0.925766 1.448345 0.000000 0.000000 0.000000
0.617861 0.892525 1.467475 0.000000 0.000000 0.000000
0.554286 1.086434 1.466350 0.000000 0.000000 0.000000
0.553483 1.081994 1.465376 0.000000 0.000000 0.000000
0.554147 1.084909 1.464871 0.000000 0.000000 0.000000
0.674007 1.007599 1.416685 0.000000 0.000000 0.000000
0.451732 1.057943 1.569603 0.000000 0.000000 0.000000
0.652971 0.938187 1.435766 0.000000 0.000000 0.000000
0.565670 0.872673 1.522983 0.000000 0.000000 0.000000
0.601976 0.878829 1.481115 0.000000 0.000000 0.000000
0.391430 0.949794 1.645451 0.000000 0.000000 0.000000
0.625594 0.894344 1.464322 0.000000 0.000000 0.000000
0.586864 0.865814 1.497797 0.000000 0.000000 0.000000
0.609704 0.884086 1.473957 0.000000 0.000000 0.000000
0.598224 0.891518 1.484951 0.000000 0.000000 0.000000
0.613819 0.890063 1.470511 0.000000 0.000000 0.000000
0.594456 0.868785 1.488637 0.000000 0.000000 0.000000
0.602588 0.884186 1.481599 0.000000 0.000000 0.000000
0.604579 0.881756 1.474195 0.000000 0.000000 0.000000
0.658771 1.045065 1.416380 0.000000 0.000000 0.000000
0.617551 0.886969 1.468899 0.000000 0.000000 0.000000
0.416460 1.021915 1.608789 0.000000 0.000000 0.000000
0.408876 1.011915 1.610573 0.000000 0.000000 0.000000
0.392748 0.995950 1.630928 0.000000 0.000000 0.000000
0.645342 0.925526 1.445773 0.000000 0.000000 0.000000
0.507869 1.080611 1.521401 0.000000 0.000000 0.000000
0.628085 0.906517 1.456609 0.000000 0.000000 0.000000
0.545335 0.866915 1.560697 0.000000 0.000000 0.000000
0.524593 1.084207 1.497941 0.000000 0.000000 0.000000
0.527380 1.062303 1.505248 0.000000 0.000000 0.000000
0.525869 1.068396 1.504545 0.000000 0.000000 0.000000
0.509508 1.076856 1.520095 0.000000 0.000000 0.000000
0.409874 1.009015 1.622321 0.000000 0.000000 0.000000
0.387706 0.983786 1.636375 0.000000 0.000000 0.000000
0.437918 1.046197 1.586078 0.000000 0.000000 0.000000
0.481591 1.076333 1.542072 0.000000 0.000000 0.000000
0.476236 1.072743 1.547187 0.000000 0.000000 0.000000
0.486537 1.083541 1.539947 0.000000 0.000000 0.000000
0.436839 1.024512 1.588033 0.000000 0.000000 0.000000
0.527903 1.071796 1.501599 0.000000 0.000000 0.000000
0.510658 1.080990 1.518317 0.000000 0.000000 0.000000
0.386101 0.976570 1.639886 0.000000 0.000000 0.000000
0.524887 1.076788 1.502020 0.000000 0.000000 0.000000
0.424553 1.024235 1.609531 0.000000 0.000000 0.000000
0.446050 1.057805 1.572740 0.000000 0.000000 0.000000
0.475908 1.073660 1.548047 0.000000 0.000000 0.000000
0.398638 0.960026 1.629731 0.000000 0.000000 0.000000
0.560053 1.073444 1.470293 0.000000 0.000000 0.000000
0.562092 1.080568 1.456787 0.000000 0.000000 0.000000
0.419592 1.034940 1.604509 0.000000 0.000000 0.000000
0.419397 1.028744 1.600098 0.000000 0.000000 0.000000
0.650777 0.959253 1.434212 0.000000 0.000000 0.000000
0.437840 0.918150 1.621073 0.000000 0.000000 0.000000
0.568583 1.070502 1.462729 0.000000 0.000000 0.000000
0.427166 1.034908 1.597915 0.000000 0.000000 0.000000
0.463372 1.077734 1.551505 0.000000 0.000000 0.000000
0.662954 0.956448 1.422696 0.000000 0.000000 0.000000
0.424375 1.032458 1.600922 0.000000 0.000000 0.000000
0.430009 1.045359 1.589003 0.000000 0.000000 0.000000
0.445941 1.060225 1.569609 0.000000 0.000000 0.000000
0.420682 1.028809 1.606831 0.000000 0.000000 0.000000
0.584639 0.873409 1.502435 0.000000 0.000000 0.000000
0.574114 1.028635 1.486461 0.000000 0.000000 0.000000
0.560866 1.078165 1.456952 0.000000 0.000000 0.000000
0.570607 1.059303 1.474064 0.000000 0.000000 0.000000
0.568610 1.046558 1.484537 0.000000 0.000000 0.000000
0.563088 1.016193 1.495357 0.000000 0.000000 0.000000
0.423299 1.022169 1.607662 0.000000 0.000000 0.000000
0.430513 1.043502 1.585921 0.000000 0.000000 0.000000
0.438198 1.041300 1.584432 0.000000 0.000000 0.000000
0.422587 1.020069 1.609008 0.000000 0.000000 0.000000
0.575423 0.866497 1.511112 0.000000 0.000000 0.000000
0.430021 1.046301 1.590536 0.000000 0.000000 0.000000
0.438639 1.037492 1.586565 0.000000 0.000000 0.000000
0.415656 1.020736 1.609397 0.000000 0.000000 0.000000
0.454706 1.041952 1.577472 0.000000 0.000000 0.000000
0.582797 1.015538 1.481776 0.000000 0.000000 0.000000
0.564365 1.083763 1.458420 0.000000 0.000000 0.000000
0.555367 1.056165 1.495300 0.000000 0.000000 0.000000
0.518399 1.026023 1.512673 0.000000 0.000000 0.000000
0.421213 1.029011 1.602665 0.000000 0.000000 0.000000
0.425814 1.040139 1.596154 0.000000 0.000000 0.000000
0.415967 1.016163 1.614254 0.000000 0.000000 0.000000
0.435144 1.014841 1.595093 0.000000 0.000000 0.000000
0.424895 1.041965 1.596672 0.000000 0.000000 0.000000
0.429834 1.033826 1.589875 0.000000 0.000000 0.000000
0.432926 1.039359 1.591323 0.000000 0.000000 0.000000
0.440245 1.040570 1.585043 0.000000 0.000000 0.000000
0.437450 1.047684 1.581859 0.000000 0.000000 0.000000
0.411805 1.003263 1.615600 0.000000 0.000000 0.000000
0.423089 1.028676 1.604186 0.000000 0.000000 0.000000
0.391562 0.988884 1.635712 0.000000 0.000000 0.000000
0.528038 0.893136 1.561514 0.000000 0.000000 0.000000
0.547502 0.858585 1.551456 0.000000 0.000000 0.000000
0.540988 0.889071 1.554078 0.000000 0.000000 0.000000
0.543774 0.869190 1.558789 0.000000 0.000000 0.000000
0.541052 0.877622 1.551782 0.000000 0.000000 0.000000
0.555609 0.859694 1.545075 0.000000 0.000000 0.000000
0.587433 1.075963 1.435768 0.000000 0.000000 0.000000
0.542822 0.870342 1.555202 0.000000 0.000000 0.000000
0.555838 0.867849 1.541120 0.000000 0.000000 0.000000
0.553891 0.863573 1.547204 0.000000 0.000000 0.000000
0.554310 0.882024 1.541215 0.000000 0.000000 0.000000
0.413111 0.935904 1.627106 0.000000 0.000000 0.000000
0.576345 1.076581 1.452267 0.000000 0.000000 0.000000
0.396383 1.001283 1.627690 0.000000 0.000000 0.000000
0.670466 0.974430 1.415132 0.000000 0.000000 0.000000
0.404945 0.997974 1.623242 0.000000 0.000000 0.000000
0.491483 1.080658 1.539089 0.000000 0.000000 0.000000
0.465922 1.067561 1.555169 0.000000 0.000000 0.000000
0.569545 0.861779 1.524528 0.000000 0.000000 0.000000
0.438130 1.036179 1.586317 0.000000 0.000000 0.000000
0.432094 1.041263 1.589484 0.000000 0.000000 0.000000
0.480752 1.078373 1.546889 0.000000 0.000000 0.000000
0.663307 0.971810 1.424067 0.000000 0.000000 0.000000
0.678889 1.010210 1.411943 0.000000 0.000000 0.000000
0.471582 1.078724 1.550998 0.000000 0.000000 0.000000
0.665170 0.964623 1.418912 0.000000 0.000000 0.000000
0.514716 1.089458 1.511919 0.000000 0.000000 0.000000
0.517652 1.080490 1.504478 0.000000 0.000000 0.000000
0.438120 1.049817 1.580327 0.000000 0.000000 0.000000
0.429671 1.035178 1.593740 0.000000 0.000000 0.000000
0.485669 1.081405 1.540835 0.000000 0.000000 0.000000
0.663390 0.962841 1.423274 0.000000 0.000000 0.000000
0.456173 1.055924 1.565208 0.000000 0.000000 0.000000
0.669160 0.974772 1.416426 0.000000 0.000000 0.000000
0.521207 1.080039 1.499568 0.000000 0.000000 0.000000
0.407470 0.941774 1.629283 0.000000 0.000000 0.000000
0.580283 1.058729 1.450040 0.000000 0.000000 0.000000
0.387390 0.985279 1.635600 0.000000 0.000000 0.000000
0.615909 0.897536 1.467558 0.000000 0.000000 0.000000
0.570424 0.866348 1.523001 0.000000 0.000000 0.000000
0.414349 0.952178 1.633510 0.000000 0.000000 0.000000
0.396998 0.961766 1.641376 0.000000 0.000000 0.000000
0.643891 1.004689 1.445466 0.000000 0.000000 0.000000
0.651793 1.006080 1.437690 0.000000 0.000000 0.000000
0.558034 0.864046 1.544435 0.000000 0.000000 0.000000
0.643310 0.924209 1.447543 0.000000 0.000000 0.000000
0.400033 0.970794 1.634586 0.000000 0.000000 0.000000
0.623406 0.990795 1.463856 0.000000 0.000000 0.000000
0.632453 0.987194 1.454378 0.000000 0.000000 0.000000
0.547238 0.869580 1.554084 0.000000 0.000000 0.000000
0.670388 0.989844 1.416502 0.000000 0.000000 0.000000
0.555758 1.088040 1.459757 0.000000 0.000000 0.000000
0.425094 0.918305 1.623505 0.000000 0.000000 0.000000
0.531431 0.869650 1.570324 0.000000 0.000000 0.000000
0.534470 0.871493 1.567998 0.000000 0.000000 0.000000
0.669065 0.999799 1.413602 0.000000 0.000000 0.000000
0.679310 0.997236 1.412844 0.000000 0.000000 0.000000
0.667699 0.977677 1.417088 0.000000 0.000000 0.000000
0.445060 1.048368 1.576594 0.000000 0.000000 0.000000
0.672301 0.985500 1.413462 0.000000 0.000000 0.000000
0.670353 0.991665 1.415877 0.000000 0.000000 0.000000
0.506818 0.880170 1.583058 0.000000 0.000000 0.000000
0.505178 0.884706 1.586180 0.000000 0.000000 0.000000
0.451106 1.043423 1.570458 0.000000 0.000000 0.000000
0.669333 0.979368 1.415443 0.000000 0.000000 0.000000
0.667994 0.974620 1.420819 0.000000 0.000000 0.000000
0.512427 0.878355 1.581350 0.000000 0.000000 0.000000
0.509234 1.083006 1.518724 0.000000 0.000000 0.000000
0.537187 0.876663 1.564289 0.000000 0.000000 0.000000
0.615440 0.894460 1.467191 0.000000 0.000000 0.000000
0.572837 0.867931 1.520730 0.000000 0.000000 0.000000
0.619777 0.901345 1.463455 0.000000 0.000000 0.000000
0.437046 0.915592 1.617903 0.000000 0.000000 0.000000
0.584470 0.865861 1.502986 0.000000 0.000000 0.000000
0.672209 0.982874 1.425100 0.000000 0.000000 0.000000
0.594165 0.869776 1.490470 0.000000 0.000000 0.000000
0.657451 0.964011 1.422786 0.000000 0.000000 0.000000
0.615462 0.889918 1.467512 0.000000 0.000000 0.000000
0.672364 0.993138 1.420011 0.000000 0.000000 0.000000
0.407450 1.011200 1.616743 0.000000 0.000000 0.000000
0.653916 0.945058 1.432904 0.000000 0.000000 0.000000
0.534470 0.870047 1.568291 0.000000 0.000000 0.000000
0.678813 1.007513 1.410886 0.000000 0.000000 0.000000
0.401501 1.003732 1.621544 0.000000 0.000000 0.000000
0.406849 1.015970 1.620399 0.000000 0.000000 0.000000
0.401868 1.001841 1.623119 0.000000 0.000000 0.000000
0.674200 0.997597 1.411214 0.000000 0.000000 0.000000
0.404508 1.004500 1.618519 0.000000 0.000000 0.000000
0.670863 0.986975 1.416818 0.000000 0.000000 0.000000
0.491555 0.879205 1.599374 0.000000 0.000000 0.000000
0.658579 0.938112 1.429508 0.000000 0.000000 0.000000
0.467271 0.893180 1.608397 0.000000 0.000000 0.000000
0.441129 0.911848 1.617275 0.000000 0.000000 0.000000
0.464718 1.074593 1.554674 0.000000 0.000000 0.000000
0.457456 0.904204 1.610098 0.000000 0.000000 0.000000
0.457986 0.908339 1.610412 0.000000 0.000000 0.000000
0.642127 0.921834 1.447066 0.000000 0.000000 0.000000
0.676284 1.002719 1.411127 0.000000 0.000000 0.000000
0.457376 0.902911 1.609827 0.000000 0.000000 0.000000
0.464453 1.072750 1.554495 0.000000 0.000000 0.000000
0.457939 0.904937 1.611640 0.000000 0.000000 0.000000
0.460980 0.905841 1.608228 0.000000 0.000000 0.000000
0.651618 0.936734 1.437172 0.000000 0.000000 0.000000
0.459233 0.910768 1.608441 0.000000 0.000000 0.000000
0.670922 0.985233 1.413397 0.000000 0.000000 0.000000
0.651729 0.936406 1.436469 0.000000 0.000000 0.000000
0.399152 0.994496 1.626756 0.000000 0.000000 0.000000
0.531643 0.871443 1.570104 0.000000 0.000000 0.000000
0.445625 1.055122 1.576675 0.000000 0.000000 0.000000
0.621297 0.890849 1.464491 0.000000 0.000000 0.000000
0.440818 1.038397 1.579190 0.000000 0.000000 0.000000
0.446271 0.910700 1.613446 0.000000 0.000000 0.000000
0.426375 1.038811 1.587498 0.000000 0.000000 0.000000
0.623883 0.896504 1.461909 0.000000 0.000000 0.000000
0.441262 1.052125 1.578632 0.000000 0.000000 0.000000
0.435006 1.040848 1.584763 0.000000 0.000000 0.000000
0.436113 1.055162 1.582245 0.000000 0.000000 0.000000
0.620042 0.892770 1.465117 0.000000 0.000000 0.000000
0.435439 1.044669 1.585702 0.000000 0.000000 0.000000
0.649552 0.953760 1.436515 0.000000 0.000000 0.000000
0.389853 0.983888 1.632359 0.000000 0.000000 0.000000
0.676886 0.994442 1.412727 0.000000 0.000000 0.000000
0.513372 0.878909 1.582065 0.000000 0.000000 0.000000
0.671350 0.986579 1.413315 0.000000 0.000000 0.000000
0.437140 1.047248 1.582338 0.000000 0.000000 0.000000
0.635511 0.912227 1.452612 0.000000 0.000000 0.000000
0.649301 0.983063 1.439329 0.000000 0.000000 0.000000
0.549106 0.863378 1.548235 0.000000 0.000000 0.000000
0.636840 0.910618 1.451750 0.000000 0.000000 0.000000
0.397202 1.002946 1.624757 0.000000 0.000000 0.000000
0.568302 0.862528 1.526264 0.000000 0.000000 0.000000
0.536004 0.868810 1.567587 0.000000 0.000000 0.000000
0.641439 0.920396 1.447624 0.000000 0.000000 0.000000
0.655250 1.043322 1.409349 0.000000 0.000000 0.000000
0.660622 1.037755 1.412000 0.000000 0.000000 0.000000
0.524746 0.870867 1.577488 0.000000 0.000000 0.000000
0.655130 0.949038 1.429622 0.000000 0.000000 0.000000
0.512698 0.879054 1.581272 0.000000 0.000000 0.000000
0.514835 0.881020 1.580850 0.000000 0.000000 0.000000
0.507481 0.876105 1.583760 0.000000 0.000000 0.000000
0.679941 1.027077 1.411653 0.000000 0.000000 0.000000
0.446592 0.911638 1.619220 0.000000 0.000000 0.000000
0.678785 1.031085 1.413222 0.000000 0.000000 0.000000
0.500064 0.880481 1.590464 0.000000 0.000000 0.000000
0.506126 0.875373 1.589038 0.000000 0.000000 0.000000
0.506844 1.059679 1.522943 0.000000 0.000000 0.000000
0.625067 0.902000 1.458687 0.000000 0.000000 0.000000
0.499619 0.880857 1.592197 0.000000 0.000000 0.000000
0.424128 0.923901 1.621684 0.000000 0.000000 0.000000
0.483374 0.919459 1.575141 0.000000 0.000000 0.000000
0.459925 1.041748 1.567346 0.000000 0.000000 0.000000
0.495469 1.063489 1.531884 0.000000 0.000000 0.000000
0.650031 0.992608 1.438693 0.000000 0.000000 0.000000
0.583382 1.075754 1.442028 0.000000 0.000000 0.000000
0.578351 1.077431 1.445838 0.000000 0.000000 0.000000
0.515330 0.874884 1.580994 0.000000 0.000000 0.000000
0.499107 0.882499 1.591779 0.000000 0.000000 0.000000
0.471119 0.965736 1.567973 0.000000 0.000000 0.000000
0.487195 1.053118 1.540158 0.000000 0.000000 0.000000
0.490241 1.055611 1.537051 0.000000 0.000000 0.000000
0.581549 0.976056 1.483147 0.000000 0.000000 0.000000
0.583708 1.071719 1.445126 0.000000 0.000000 0.000000
0.433737 0.917836 1.619466 0.000000 0.000000 0.000000
0.574380 1.080846 1.450200 0.000000 0.000000 0.000000
0.502864 0.879733 1.589402 0.000000 0.000000 0.000000
0.504500 0.879618 1.589014 0.000000 0.000000 0.000000
0.651295 0.937245 1.439936 0.000000 0.000000 0.000000
0.392092 0.993590 1.632065 0.000000 0.000000 0.000000
0.611235 0.881501 1.471462 0.000000 0.000000 0.000000
0.502512 0.878597 1.588211 0.000000 0.000000 0.000000
0.518271 0.874495 1.580880 0.000000 0.000000 0.000000
0.510466 0.876791 1.584508 0.000000 0.000000 0.000000
0.403520 0.996347 1.625105 0.000000 0.000000 0.000000
0.394948 0.946232 1.643124 0.000000 0.000000 0.000000
0.407193 0.948140 1.636603 0.000000 0.000000 0.000000
0.395248 0.947078 1.643460 0.000000 0.000000 0.000000
0.514230 0.872853 1.582445 0.000000 0.000000 0.000000
0.426192 0.919801 1.620803 0.000000 0.000000 0.000000
0.559621 0.942905 1.501575 0.000000 0.000000 0.000000
0.487796 0.955403 1.555916 0.000000 0.000000 0.000000
0.585944 0.870321 1.502662 0.000000 0.000000 0.000000
0.567281 1.010570 1.475178 0.000000 0.000000 0.000000
0.600658 0.988044 1.455306 0.000000 0.000000 0.000000
0.651086 0.958806 1.434424 0.000000 0.000000 0.000000
0.664606 0.993699 1.417603 0.000000 0.000000 0.000000
0.584950 0.860482 1.502571 0.000000 0.000000 0.000000
0.671598 0.989496 1.414061 0.000000 0.000000 0.000000
0.671535 0.980281 1.420039 0.000000 0.000000 0.000000
0.668645 0.979683 1.415194 0.000000 0.000000 0.000000
0.421935 0.919951 1.625788 0.000000 0.000000 0.000000
0.663846 0.965473 1.420720 0.000000 0.000000 0.000000
0.668424 0.977416 1.417817 0.000000 0.000000 0.000000
0.574370 0.868913 1.518310 0.000000 0.000000 0.000000
0.578799 0.861750 1.511082 0.000000 0.000000 0.000000
0.675256 0.992184 1.412604 0.000000 0.000000 0.000000
0.667112 0.973797 1.418089 0.000000 0.000000 0.000000
0.388204 1.000753 1.633964 0.000000 0.000000 0.000000
0.669633 0.976108 1.416183 0.000000 0.000000 0.000000
0.424054 1.035474 1.594071 0.000000 0.000000 0.000000
0.577795 0.954680 1.486261 0.000000 0.000000 0.000000
0.661257 0.988944 1.415927 0.000000 0.000000 0.000000
0.570823 0.872422 1.521581 0.000000 0.000000 0.000000
0.674712 0.987344 1.411704 0.000000 0.000000 0.000000
0.666188 0.981190 1.417601 0.000000 0.000000 0.000000
0.427576 1.027137 1.597159 0.000000 0.000000 0.000000
0.600154 0.954827 1.465653 0.000000 0.000000 0.000000
0.553020 0.864441 1.548460 0.000000 0.000000 0.000000
0.670457 0.995011 1.410650 0.000000 0.000000 0.000000
0.574858 0.860924 1.515446 0.000000 0.000000 0.000000
0.678389 1.000198 1.410753 0.000000 0.000000 0.000000
0.674204 1.000077 1.410452 0.000000 0.000000 0.000000
0.524289 1.084501 1.497252 0.000000 0.000000 0.000000
0.531840 1.085029 1.491009 0.000000 0.000000 0.000000
0.679195 0.998176 1.417643 0.000000 0.000000 0.000000
0.663464 0.977295 1.425880 0.000000 0.000000 0.000000
0.555053 0.861116 1.546421 0.000000 0.000000 0.000000
0.679262 1.004406 1.409570 0.000000 0.000000 0.000000
0.677491 1.004367 1.409964 0.000000 0.000000 0.000000
0.519634 1.083849 1.504402 0.000000 0.000000 0.000000
0.413039 1.020765 1.611964 0.000000 0.000000 0.000000
0.536352 1.084466 1.485457 0.000000 0.000000 0.000000
0.666235 0.971444 1.422732 0.000000 0.000000 0.000000
0.665501 0.987582 1.413821 0.000000 0.000000 0.000000
0.557894 0.858405 1.548667 0.000000 0.000000 0.000000
0.390030 0.983360 1.633722 0.000000 0.000000 0.000000
0.428824 0.919491 1.621187 0.000000 0.000000 0.000000
0.432491 0.917963 1.619938 0.000000 0.000000 0.000000
0.404232 1.011748 1.621774 0.000000 0.000000 0.000000
0.392417 0.995745 1.630678 0.000000 0.000000 0.000000
0.393588 1.000706 1.629510 0.000000 0.000000 0.000000
0.421338 0.921895 1.624043 0.000000 0.000000 0.000000
0.394123 0.999639 1.630349 0.000000 0.000000 0.000000
0.392509 0.966525 1.639205 0.000000 0.000000 0.000000
0.410502 0.967902 1.630086 0.000000 0.000000 0.000000
0.426749 0.922204 1.622415 0.000000 0.000000 0.000000
0.413732 1.012263 1.610947 0.000000 0.000000 0.000000
0.393414 0.995231 1.630532 0.000000 0.000000 0.000000
0.442270 1.056719 1.578941 0.000000 0.000000 0.000000
0.406110 1.014791 1.619745 0.000000 0.000000 0.000000
0.497857 0.878694 1.593102 0.000000 0.000000 0.000000
0.397410 0.972289 1.637431 0.000000 0.000000 0.000000
0.528898 0.868084 1.573555 0.000000 0.000000 0.000000
0.394589 0.994249 1.627285 0.000000 0.000000 0.000000
0.436515 0.918353 1.618855 0.000000 0.000000 0.000000
0.395730 1.000830 1.628119 0.000000 0.000000 0.000000
0.404507 0.992575 1.621971 0.000000 0.000000 0.000000
0.447769 1.062095 1.574191 0.000000 0.000000 0.000000
0.437418 1.059111 1.583525 0.000000 0.000000 0.000000
0.410405 1.017488 1.615547 0.000000 0.000000 0.000000
0.388854 0.962027 1.642810 0.000000 0.000000 0.000000
0.652865 0.962114 1.430730 0.000000 0.000000 0.000000
0.474215 1.079963 1.545013 0.000000 0.000000 0.000000
0.552861 1.086529 1.470113 0.000000 0.000000 0.000000
0.397270 1.003930 1.627423 0.000000 0.000000 0.000000
0.430824 1.049033 1.589057 0.000000 0.000000 0.000000
0.472040 1.076187 1.548151 0.000000 0.000000 0.000000
0.462026 1.070966 1.555218 0.000000 0.000000 0.000000
0.427300 1.045431 1.595645 0.000000 0.000000 0.000000
0.425287 1.041648 1.595248 0.000000 0.000000 0.000000
0.428605 1.041402 1.591503 0.000000 0.000000 0.000000
0.436520 1.032815 1.583337 0.000000 0.000000 0.000000
0.497657 0.884653 1.593342 0.000000 0.000000 0.000000
0.438381 1.027517 1.586640 0.000000 0.000000 0.000000
0.458155 1.066191 1.562253 0.000000 0.000000 0.000000
0.426250 1.039191 1.597441 0.000000 0.000000 0.000000
0.568278 1.071047 1.470301 0.000000 0.000000 0.000000
0.466469 1.073051 1.551524 0.000000 0.000000 0.000000
0.424638 1.035746 1.598218 0.000000 0.000000 0.000000
0.432469 1.040446 1.595329 0.000000 0.000000 0.000000
0.626793 1.058865 1.412971 0.000000 0.000000 0.000000
0.543453 1.082697 1.477102 0.000000 0.000000 0.000000
0.464117 1.063174 1.557078 0.000000 0.000000 0.000000
0.421353 1.026662 1.598105 0.000000 0.000000 0.000000
0.419021 1.028708 1.605084 0.000000 0.000000 0.000000
0.429747 1.037662 1.590142 0.000000 0.000000 0.000000
0.386532 0.988008 1.635602 0.000000 0.000000 0.000000
0.393740 1.004790 1.628404 0.000000 0.000000 0.000000
0.650332 0.970701 1.444084 0.000000 0.000000 0.000000
0.661495 0.959169 1.434940 0.000000 0.000000 0.000000
0.515184 0.928316 1.556082 0.000000 0.000000 0.000000
0.663385 0.964874 1.430452 0.000000 0.000000 0.000000
0.656561 1.040238 1.407239 0.000000 0.000000 0.000000
0.664035 0.963145 1.421419 0.000000 0.000000 0.000000
0.659924 0.962529 1.439439 0.000000 0.000000 0.000000
0.647766 0.952176 1.438063 0.000000 0.000000 0.000000
0.527111 0.921389 1.544772 0.000000 0.000000 0.000000
0.653413 0.950411 1.428348 0.000000 0.000000 0.000000
0.657048 1.036103 1.409054 0.000000 0.000000 0.000000
0.477380 0.892029 1.597200 0.000000 0.000000 0.000000
0.397342 1.002886 1.628358 0.000000 0.000000 0.000000
0.566741 0.869262 1.524654 0.000000 0.000000 0.000000
0.437979 0.927459 1.609474 0.000000 0.000000 0.000000
0.466341 1.071749 1.553789 0.000000 0.000000 0.000000
0.417011 0.936614 1.626764 0.000000 0.000000 0.000000
0.467034 1.074986 1.552150 0.000000 0.000000 0.000000
0.667985 0.979383 1.418697 0.000000 0.000000 0.000000
0.640359 0.944515 1.439662 0.000000 0.000000 0.000000
0.658362 0.945584 1.433284 0.000000 0.000000 0.000000
0.566789 1.086201 1.449847 0.000000 0.000000 0.000000
0.579591 1.077516 1.443158 0.000000 0.000000 0.000000
0.609717 0.881854 1.475140 0.000000 0.000000 0.000000
0.650741 0.939170 1.435699 0.000000 0.000000 0.000000
0.659668 0.949437 1.427275 0.000000 0.000000 0.000000
0.654966 0.937564 1.439555 0.000000 0.000000 0.000000
0.671791 0.982521 1.415755 0.000000 0.000000 0.000000
0.557396 0.861349 1.543293 0.000000 0.000000 0.000000
0.655157 0.942474 1.435710 0.000000 0.000000 0.000000
0.574404 1.081565 1.443077 0.000000 0.000000 0.000000
0.572146 1.077381 1.447437 0.000000 0.000000 0.000000
0.603755 0.884329 1.480403 0.000000 0.000000 0.000000
0.652947 0.938902 1.435806 0.000000 0.000000 0.000000
0.660862 0.944903 1.425317 0.000000 0.000000 0.000000
0.473532 0.895362 1.604075 0.000000 0.000000 0.000000
0.656257 0.946006 1.431070 0.000000 0.000000 0.000000
0.616541 1.062315 1.414423 0.000000 0.000000 0.000000
0.661464 0.952041 1.426141 0.000000 0.000000 0.000000
0.562879 0.859080 1.536778 0.000000 0.000000 0.000000
0.675473 1.036694 1.415257 0.000000 0.000000 0.000000
0.545491 1.085132 1.477353 0.000000 0.000000 0.000000
0.665981 0.978635 1.421623 0.000000 0.000000 0.000000
0.611766 1.063251 1.417321 0.000000 0.000000 0.000000
0.453756 0.905076 1.611477 0.000000 0.000000 0.000000
0.655115 0.943834 1.430939 0.000000 0.000000 0.000000
0.507017 1.088171 1.523137 0.000000 0.000000 0.000000
0.487501 0.882138 1.598147 0.000000 0.000000 0.000000
0.436774 0.917630 1.613029 0.000000 0.000000 0.000000
0.496220 1.086238 1.533889 0.000000 0.000000 0.000000
0.594227 1.068798 1.429164 0.000000 0.000000 0.000000
0.648892 0.931837 1.441372 0.000000 0.000000 0.000000
0.657018 0.946275 1.429897 0.000000 0.000000 0.000000
0.400248 1.004128 1.622974 0.000000 0.000000 0.000000
0.661735 0.973340 1.418960 0.000000 0.000000 0.000000
0.653348 0.945629 1.436776 0.000000 0.000000 0.000000
0.674349 1.000067 1.416772 0.000000 0.000000 0.000000
0.598984 1.069080 1.426281 0.000000 0.000000 0.000000
0.600433 1.067553 1.426784 0.000000 0.000000 0.000000
0.461456 1.068592 1.562199 0.000000 0.000000 0.000000
0.649734 0.926441 1.444090 0.000000 0.000000 0.000000
0.405986 1.008663 1.620282 0.000000 0.000000 0.000000
0.644874 0.930941 1.439234 0.000000 0.000000 0.000000
0.648883 0.930103 1.442457 0.000000 0.000000 0.000000
0.607678 1.058541 1.427789 0.000000 0.000000 0.000000
0.594493 1.069648 1.431554 0.000000 0.000000 0.000000
0.486229 1.055193 1.547035 0.000000 0.000000 0.000000
0.552327 0.862397 1.550675 0.000000 0.000000 0.000000
0.652076 0.934962 1.439024 0.000000 0.000000 0.000000
0.393463 0.999745 1.628780 0.000000 0.000000 0.000000
0.644447 0.925448 1.441632 0.000000 0.000000 0.000000
0.541394 0.866047 1.563058 0.000000 0.000000 0.000000
0.656645 0.942422 1.430056 0.000000 0.000000 0.000000
0.564559 0.862191 1.530713 0.000000 0.000000 0.000000
0.435568 1.048601 1.586982 0.000000 0.000000 0.000000
0.410901 0.930073 1.630999 0.000000 0.000000 0.000000
0.463311 1.074355 1.553536 0.000000 0.000000 0.000000
0.425368 0.920887 1.621254 0.000000 0.000000 0.000000
0.436708 0.918070 1.619213 0.000000 0.000000 0.000000
0.439275 0.911110 1.618653 0.000000 0.000000 0.000000
0.441167 0.914161 1.615124 0.000000 0.000000 0.000000
0.439943 0.917887 1.612075 0.000000 0.000000 0.000000
0.654902 0.944473 1.431133 0.000000 0.000000 0.000000
0.445575 0.912911 1.611878 0.000000 0.000000 0.000000
0.429765 0.920435 1.620610 0.000000 0.000000 0.000000
0.443715 0.911149 1.614773 0.000000 0.000000 0.000000
0.440643 0.915299 1.614527 0.000000 0.000000 0.000000
0.656666 0.947283 1.429099 0.000000 0.000000 0.000000
0.467581 1.073137 1.552830 0.000000 0.000000 0.000000
0.590114 1.073190 1.434869 0.000000 0.000000 0.000000
0.391919 0.951612 1.645150 0.000000 0.000000 0.000000
0.453927 1.064928 1.563428 0.000000 0.000000 0.000000
0.623767 1.057357 1.412804 0.000000 0.000000 0.000000
0.398318 1.007215 1.626360 0.000000 0.000000 0.000000
0.389288 0.958759 1.643371 0.000000 0.000000 0.000000
0.584467 1.076826 1.439515 0.000000 0.000000 0.000000
0.423302 0.928225 1.623038 0.000000 0.000000 0.000000
0.467691 1.052239 1.557830 0.000000 0.000000 0.000000
0.644109 0.939300 1.436876 0.000000 0.000000 0.000000
0.640366 0.915555 1.449525 0.000000 0.000000 0.000000
0.602152 1.065830 1.426285 0.000000 0.000000 0.000000
0.618714 1.062801 1.416967 0.000000 0.000000 0.000000
0.628946 0.904319 1.458584 0.000000 0.000000 0.000000
0.642229 0.918335 1.447588 0.000000 0.000000 0.000000
0.647192 0.926833 1.442689 0.000000 0.000000 0.000000
0.584397 1.073950 1.438579 0.000000 0.000000 0.000000
0.615745 1.062562 1.422233 0.000000 0.000000 0.000000
0.622205 0.897619 1.462498 0.000000 0.000000 0.000000
0.532056 1.084801 1.488836 0.000000 0.000000 0.000000
0.512252 1.081369 1.512612 0.000000 0.000000 0.000000
0.389185 0.970225 1.638143 0.000000 0.000000 0.000000
0.393311 0.952554 1.642344 0.000000 0.000000 0.000000
0.582018 1.075276 1.441875 0.000000 0.000000 0.000000
0.435397 0.918407 1.616475 0.000000 0.000000 0.000000
0.384494 0.979018 1.637904 0.000000 0.000000 0.000000
0.404665 0.939392 1.636872 0.000000 0.000000 0.000000
0.389732 0.985381 1.631494 0.000000 0.000000 0.000000
0.389683 0.971019 1.643227 0.000000 0.000000 0.000000
0.397751 0.942515 1.641252 0.000000 0.000000 0.000000
0.389816 0.977823 1.639651 0.000000 0.000000 0.000000
0.509371 1.063204 1.520182 0.000000 0.000000 0.000000
0.391207 0.960177 1.642258 0.000000 0.000000 0.000000
0.380609 0.980064 1.645353 0.000000 0.000000 0.000000
0.380541 0.968553 1.649317 0.000000 0.000000 0.000000
0.581598 0.868398 1.506654 0.000000 0.000000 0.000000
0.387067 0.985228 1.637516 0.000000 0.000000 0.000000
0.579244 0.866963 1.513391 0.000000 0.000000 0.000000
0.570621 0.859932 1.523093 0.000000 0.000000 0.000000
0.577660 0.866112 1.513841 0.000000 0.000000 0.000000
0.572462 0.862198 1.518910 0.000000 0.000000 0.000000
0.398233 0.946983 1.641564 0.000000 0.000000 0.000000
0.582085 0.864668 1.512432 0.000000 0.000000 0.000000
0.589926 0.884637 1.504089 0.000000 0.000000 0.000000
0.575023 0.875553 1.519561 0.000000 0.000000 0.000000
0.589705 0.889283 1.504735 0.000000 0.000000 0.000000
0.594317 0.878281 1.495338 0.000000 0.000000 0.000000
0.584226 0.865939 1.502268 0.000000 0.000000 0.000000
0.385486 0.973921 1.641702 0.000000 0.000000 0.000000
0.392151 0.961127 1.640699 0.000000 0.000000 0.000000
0.594189 0.878613 1.495702 0.000000 0.000000 0.000000
0.587835 0.870842 1.502307 0.000000 0.000000 0.000000
0.585948 0.881636 1.507269 0.000000 0.000000 0.000000
0.577027 0.890793 1.513916 0.000000 0.000000 0.000000
0.589500 0.872625 1.498109 0.000000 0.000000 0.000000
0.597613 0.880924 1.495077 0.000000 0.000000 0.000000
0.589648 0.869116 1.493357 0.000000 0.000000 0.000000
0.586732 0.867123 1.501404 0.000000 0.000000 0.000000
0.579100 0.864124 1.510604 0.000000 0.000000 0.000000
0.395837 0.960489 1.643218 0.000000 0.000000 0.000000
0.405297 0.942689 1.632620 0.000000 0.000000 0.000000
0.403254 0.936981 1.637324 0.000000 0.000000 0.000000
0.396317 0.972091 1.628520 0.000000 0.000000 0.000000
0.406654 0.935813 1.633693 0.000000 0.000000 0.000000
0.410503 0.931293 1.630818 0.000000 0.000000 0.000000
0.416822 0.927479 1.626935 0.000000 0.000000 0.000000
0.392513 0.955807 1.644479 0.000000 0.000000 0.000000
0.415302 0.930110 1.626808 0.000000 0.000000 0.000000
0.411086 0.938662 1.629366 0.000000 0.000000 0.000000
0.609583 0.876468 1.473773 0.000000 0.000000 0.000000
0.413331 0.927866 1.629514 0.000000 0.000000 0.000000
0.414852 0.928946 1.628614 0.000000 0.000000 0.000000
0.404042 0.935023 1.637242 0.000000 0.000000 0.000000
0.602118 0.875722 1.483011 0.000000 0.000000 0.000000
0.416518 0.926438 1.626744 0.000000 0.000000 0.000000
0.579277 0.864352 1.511296 0.000000 0.000000 0.000000
0.423768 0.918502 1.624129 0.000000 0.000000 0.000000
0.402129 0.935889 1.638318 0.000000 0.000000 0.000000
0.613624 0.881023 1.470267 0.000000 0.000000 0.000000
0.406872 0.938015 1.631995 0.000000 0.000000 0.000000
0.604919 0.884456 1.475519 0.000000 0.000000 0.000000
0.423689 0.921458 1.623845 0.000000 0.000000 0.000000
0.606056 0.878611 1.478515 0.000000 0.000000 0.000000
0.409721 0.933942 1.630865 0.000000 0.000000 0.000000
0.420191 0.922658 1.626292 0.000000 0.000000 0.000000
0.602336 0.881344 1.478792 0.000000 0.000000 0.000000
0.481916 0.886745 1.597062 0.000000 0.000000 0.000000
0.484720 0.883785 1.597414 0.000000 0.000000 0.000000
0.595692 0.871681 1.486172 0.000000 0.000000 0.000000
0.575217 0.865139 1.516572 0.000000 0.000000 0.000000
0.453782 0.902813 1.612003 0.000000 0.000000 0.000000
0.593888 0.869585 1.490143 0.000000 0.000000 0.000000
0.597092 0.879703 1.483579 0.000000 0.000000 0.000000
0.585505 0.868363 1.501223 0.000000 0.000000 0.000000
0.462654 0.903122 1.606175 0.000000 0.000000 0.000000
0.600644 0.878027 1.479370 0.000000 0.000000 0.000000
0.591292 0.871108 1.492461 0.000000 0.000000 0.000000
0.598549 0.879495 1.487889 0.000000 0.000000 0.000000
0.464388 0.896460 1.609362 0.000000 0.000000 0.000000
0.526423 0.872244 1.576161 0.000000 0.000000 0.000000
0.523700 0.871769 1.576891 0.000000 0.000000 0.000000
0.402327 0.937765 1.638739 0.000000 0.000000 0.000000
0.389316 0.984368 1.634339 0.000000 0.000000 0.000000
0.455522 0.907235 1.609672 0.000000 0.000000 0.000000
0.449783 0.908531 1.611618 0.000000 0.000000 0.000000
0.524544 0.872096 1.577283 0.000000 0.000000 0.000000
0.590612 0.868094 1.496475 0.000000 0.000000 0.000000
0.648551 0.930730 1.442065 0.000000 0.000000 0.000000
0.592232 0.872694 1.493793 0.000000 0.000000 0.000000
0.476208 0.889808 1.602114 0.000000 0.000000 0.000000
0.453188 0.905348 1.610466 0.000000 0.000000 0.000000
0.509100 0.881031 1.584258 0.000000 0.000000 0.000000
0.595001 0.871106 1.489739 0.000000 0.000000 0.000000
0.643809 0.921646 1.447514 0.000000 0.000000 0.000000
0.593483 0.875644 1.490551 0.000000 0.000000 0.000000
0.466151 0.896308 1.607022 0.000000 0.000000 0.000000
0.451843 0.901549 1.612145 0.000000 0.000000 0.000000
0.542296 0.865742 1.560453 0.000000 0.000000 0.000000
0.547142 1.090652 1.471241 0.000000 0.000000 0.000000
0.415080 1.019916 1.611941 0.000000 0.000000 0.000000
0.541688 0.872467 1.558687 0.000000 0.000000 0.000000
0.406771 1.023453 1.617743 0.000000 0.000000 0.000000
0.551833 0.863677 1.550948 0.000000 0.000000 0.000000
0.411059 1.016883 1.619062 0.000000 0.000000 0.000000
0.460209 0.899984 1.610106 0.000000 0.000000 0.000000
0.663736 1.038855 1.409865 0.000000 0.000000 0.000000
