ply
format ascii 1.0
comment VCGLIB generated
obj_info Generated by SPFormer!
element vertex 868
property float x
property float y
property float z
property float nx
property float ny
property float nz
end_header
0.863692 -0.494479 0.289914 0.000000 0.000000 0.000000
1.001520 -0.425710 0.258352 0.000000 0.000000 0.000000
0.791519 -0.468817 0.282938 0.000000 0.000000 0.000000
0.989925 -0.417055 0.234412 0.000000 0.000000 0.000000
0.765036 -0.448712 0.240587 0.000000 0.000000 0.000000
0.964208 -0.414332 0.218472 0.000000 0.000000 0.000000
0.798877 -0.445844 0.249217 0.000000 0.000000 0.000000
0.915292 -0.414243 0.197959 0.000000 0.000000 0.000000
0.925371 -0.409552 0.190491 0.000000 0.000000 0.000000
0.943277 -0.405745 0.196372 0.000000 0.000000 0.000000
0.887696 -0.465428 0.276957 0.000000 0.000000 0.000000
0.916932 -0.407996 0.184271 0.000000 0.000000 0.000000
0.910017 -0.432393 0.218756 0.000000 0.000000 0.000000
0.884440 -0.477364 0.284835 0.000000 0.000000 0.000000
0.851843 -0.427386 0.178426 0.000000 0.000000 0.000000
0.818092 -0.440999 0.230191 0.000000 0.000000 0.000000
0.881125 -0.506961 0.315289 0.000000 0.000000 0.000000
0.879070 -0.449695 0.263809 0.000000 0.000000 0.000000
1.008980 -0.444979 0.313078 0.000000 0.000000 0.000000
0.879297 -0.438470 0.195865 0.000000 0.000000 0.000000
1.002380 -0.426574 0.266857 0.000000 0.000000 0.000000
0.985314 -0.427843 0.238376 0.000000 0.000000 0.000000
0.974918 -0.438586 0.279797 0.000000 0.000000 0.000000
0.975577 -0.441611 0.277012 0.000000 0.000000 0.000000
0.989944 -0.422820 0.243434 0.000000 0.000000 0.000000
0.790445 -0.443000 0.240875 0.000000 0.000000 0.000000
0.821470 -0.476977 0.271574 0.000000 0.000000 0.000000
0.801309 -0.434227 0.215362 0.000000 0.000000 0.000000
0.935374 -0.508102 0.313084 0.000000 0.000000 0.000000
0.785460 -0.451721 0.251496 0.000000 0.000000 0.000000
0.893876 -0.424708 0.200634 0.000000 0.000000 0.000000
0.878764 -0.424736 0.187368 0.000000 0.000000 0.000000
0.952245 -0.412453 0.211600 0.000000 0.000000 0.000000
0.885711 -0.512777 0.320257 0.000000 0.000000 0.000000
0.752864 -0.461993 0.263690 0.000000 0.000000 0.000000
0.993211 -0.438090 0.286798 0.000000 0.000000 0.000000
0.892890 -0.400680 0.167857 0.000000 0.000000 0.000000
1.024304 -0.436544 0.317540 0.000000 0.000000 0.000000
0.985449 -0.443756 0.290583 0.000000 0.000000 0.000000
0.987245 -0.476900 0.330477 0.000000 0.000000 0.000000
1.018697 -0.429812 0.280867 0.000000 0.000000 0.000000
0.967410 -0.420283 0.239548 0.000000 0.000000 0.000000
0.750478 -0.447316 0.247907 0.000000 0.000000 0.000000
0.980974 -0.424800 0.253310 0.000000 0.000000 0.000000
0.791965 -0.446087 0.233846 0.000000 0.000000 0.000000
0.807347 -0.449224 0.228129 0.000000 0.000000 0.000000
0.916552 -0.417919 0.211179 0.000000 0.000000 0.000000
0.807567 -0.424304 0.199846 0.000000 0.000000 0.000000
0.831712 -0.434020 0.181303 0.000000 0.000000 0.000000
0.860204 -0.414574 0.190517 0.000000 0.000000 0.000000
0.850057 -0.457971 0.250697 0.000000 0.000000 0.000000
0.906175 -0.496305 0.302915 0.000000 0.000000 0.000000
0.878635 -0.453478 0.300869 0.000000 0.000000 0.000000
0.925756 -0.464251 0.290044 0.000000 0.000000 0.000000
0.804098 -0.481425 0.225713 0.000000 0.000000 0.000000
0.949774 -0.428625 0.224017 0.000000 0.000000 0.000000
0.946110 -0.449015 0.280705 0.000000 0.000000 0.000000
0.964470 -0.417635 0.230866 0.000000 0.000000 0.000000
0.822204 -0.417605 0.179660 0.000000 0.000000 0.000000
1.005722 -0.425439 0.259337 0.000000 0.000000 0.000000
0.887488 -0.458239 0.216166 0.000000 0.000000 0.000000
0.846304 -0.499695 0.300946 0.000000 0.000000 0.000000
0.788095 -0.429820 0.192133 0.000000 0.000000 0.000000
1.017697 -0.444072 0.301029 0.000000 0.000000 0.000000
0.974886 -0.415735 0.229757 0.000000 0.000000 0.000000
0.892274 -0.416118 0.179010 0.000000 0.000000 0.000000
0.743699 -0.444067 0.258335 0.000000 0.000000 0.000000
0.981026 -0.435174 0.266993 0.000000 0.000000 0.000000
0.882741 -0.418883 0.177119 0.000000 0.000000 0.000000
0.835808 -0.447428 0.210365 0.000000 0.000000 0.000000
0.873839 -0.425042 0.177955 0.000000 0.000000 0.000000
0.909005 -0.442654 0.237977 0.000000 0.000000 0.000000
0.935426 -0.415156 0.210268 0.000000 0.000000 0.000000
0.979403 -0.453755 0.290443 0.000000 0.000000 0.000000
0.783263 -0.483142 0.283441 0.000000 0.000000 0.000000
0.921955 -0.499380 0.310150 0.000000 0.000000 0.000000
0.905561 -0.497890 0.299087 0.000000 0.000000 0.000000
0.887939 -0.427131 0.250568 0.000000 0.000000 0.000000
0.925705 -0.497772 0.306455 0.000000 0.000000 0.000000
0.979706 -0.428753 0.258152 0.000000 0.000000 0.000000
0.975237 -0.457185 0.306255 0.000000 0.000000 0.000000
0.752316 -0.444363 0.229299 0.000000 0.000000 0.000000
0.970638 -0.428415 0.233343 0.000000 0.000000 0.000000
0.798066 -0.440182 0.190743 0.000000 0.000000 0.000000
0.889505 -0.418737 0.181036 0.000000 0.000000 0.000000
0.740301 -0.468688 0.268158 0.000000 0.000000 0.000000
0.880438 -0.418772 0.195047 0.000000 0.000000 0.000000
0.880302 -0.408684 0.173908 0.000000 0.000000 0.000000
0.899346 -0.497876 0.320324 0.000000 0.000000 0.000000
0.885857 -0.406749 0.175376 0.000000 0.000000 0.000000
0.894536 -0.449827 0.268061 0.000000 0.000000 0.000000
0.986878 -0.423511 0.236676 0.000000 0.000000 0.000000
0.966987 -0.422292 0.218516 0.000000 0.000000 0.000000
0.974472 -0.442040 0.276083 0.000000 0.000000 0.000000
0.733756 -0.454286 0.263432 0.000000 0.000000 0.000000
1.003623 -0.442142 0.302708 0.000000 0.000000 0.000000
0.953135 -0.478295 0.308348 0.000000 0.000000 0.000000
0.972803 -0.418417 0.232857 0.000000 0.000000 0.000000
0.752730 -0.449529 0.263375 0.000000 0.000000 0.000000
0.846035 -0.412148 0.168868 0.000000 0.000000 0.000000
0.857520 -0.420640 0.178187 0.000000 0.000000 0.000000
0.809515 -0.421181 0.190819 0.000000 0.000000 0.000000
0.934854 -0.409974 0.204262 0.000000 0.000000 0.000000
0.963556 -0.423828 0.226885 0.000000 0.000000 0.000000
0.850563 -0.472844 0.268281 0.000000 0.000000 0.000000
0.912476 -0.424250 0.190601 0.000000 0.000000 0.000000
0.931876 -0.422550 0.203824 0.000000 0.000000 0.000000
0.863171 -0.500105 0.296644 0.000000 0.000000 0.000000
0.964143 -0.480416 0.310696 0.000000 0.000000 0.000000
0.986014 -0.421077 0.235545 0.000000 0.000000 0.000000
0.993630 -0.429657 0.263891 0.000000 0.000000 0.000000
0.978869 -0.429925 0.236792 0.000000 0.000000 0.000000
0.854257 -0.411967 0.171697 0.000000 0.000000 0.000000
0.957066 -0.454714 0.301205 0.000000 0.000000 0.000000
0.886802 -0.409157 0.173909 0.000000 0.000000 0.000000
1.020227 -0.457063 0.330885 0.000000 0.000000 0.000000
0.908312 -0.523110 0.308337 0.000000 0.000000 0.000000
0.865547 -0.492804 0.281604 0.000000 0.000000 0.000000
0.952428 -0.471975 0.300647 0.000000 0.000000 0.000000
1.002479 -0.457792 0.313448 0.000000 0.000000 0.000000
0.891709 -0.419135 0.196437 0.000000 0.000000 0.000000
0.780371 -0.441582 0.235556 0.000000 0.000000 0.000000
0.783382 -0.443815 0.211166 0.000000 0.000000 0.000000
0.817698 -0.461886 0.209068 0.000000 0.000000 0.000000
1.028496 -0.427095 0.301379 0.000000 0.000000 0.000000
1.028667 -0.429097 0.304583 0.000000 0.000000 0.000000
0.969479 -0.427164 0.257256 0.000000 0.000000 0.000000
0.997214 -0.422166 0.263187 0.000000 0.000000 0.000000
0.895902 -0.402000 0.171489 0.000000 0.000000 0.000000
0.984680 -0.427491 0.249397 0.000000 0.000000 0.000000
0.993196 -0.463830 0.314042 0.000000 0.000000 0.000000
0.940217 -0.508426 0.314298 0.000000 0.000000 0.000000
0.951629 -0.431348 0.228445 0.000000 0.000000 0.000000
0.822944 -0.429855 0.200172 0.000000 0.000000 0.000000
0.981364 -0.483324 0.326095 0.000000 0.000000 0.000000
0.967375 -0.435955 0.247910 0.000000 0.000000 0.000000
0.899024 -0.509792 0.314036 0.000000 0.000000 0.000000
0.967547 -0.462141 0.303329 0.000000 0.000000 0.000000
0.965471 -0.487351 0.321823 0.000000 0.000000 0.000000
0.760638 -0.491579 0.284223 0.000000 0.000000 0.000000
0.840774 -0.419451 0.193357 0.000000 0.000000 0.000000
0.964736 -0.483596 0.311910 0.000000 0.000000 0.000000
1.021931 -0.452508 0.327897 0.000000 0.000000 0.000000
1.004273 -0.428780 0.276587 0.000000 0.000000 0.000000
0.841308 -0.425305 0.192091 0.000000 0.000000 0.000000
0.850719 -0.505714 0.306746 0.000000 0.000000 0.000000
0.840873 -0.499765 0.299500 0.000000 0.000000 0.000000
0.948370 -0.502414 0.312781 0.000000 0.000000 0.000000
0.863060 -0.507015 0.305877 0.000000 0.000000 0.000000
1.018655 -0.446439 0.323826 0.000000 0.000000 0.000000
1.033994 -0.441608 0.326936 0.000000 0.000000 0.000000
0.949523 -0.437358 0.235874 0.000000 0.000000 0.000000
0.991123 -0.436448 0.285795 0.000000 0.000000 0.000000
0.969175 -0.428284 0.233073 0.000000 0.000000 0.000000
0.838344 -0.419876 0.179175 0.000000 0.000000 0.000000
0.988977 -0.421507 0.249106 0.000000 0.000000 0.000000
0.841461 -0.419241 0.184693 0.000000 0.000000 0.000000
0.772514 -0.448998 0.240857 0.000000 0.000000 0.000000
0.914120 -0.429944 0.249628 0.000000 0.000000 0.000000
0.991392 -0.435365 0.276148 0.000000 0.000000 0.000000
1.012284 -0.456926 0.329167 0.000000 0.000000 0.000000
0.951024 -0.414322 0.207504 0.000000 0.000000 0.000000
0.837170 -0.430980 0.174117 0.000000 0.000000 0.000000
0.961244 -0.419876 0.207280 0.000000 0.000000 0.000000
0.886765 -0.495194 0.305008 0.000000 0.000000 0.000000
0.904204 -0.413726 0.178054 0.000000 0.000000 0.000000
0.894058 -0.510286 0.307059 0.000000 0.000000 0.000000
0.881502 -0.490523 0.320744 0.000000 0.000000 0.000000
0.866886 -0.435035 0.181646 0.000000 0.000000 0.000000
0.835702 -0.421125 0.174629 0.000000 0.000000 0.000000
0.802517 -0.436874 0.192988 0.000000 0.000000 0.000000
0.859732 -0.504765 0.303199 0.000000 0.000000 0.000000
0.977210 -0.490367 0.325679 0.000000 0.000000 0.000000
1.007617 -0.458067 0.328955 0.000000 0.000000 0.000000
0.851807 -0.415285 0.174052 0.000000 0.000000 0.000000
0.920798 -0.511805 0.314157 0.000000 0.000000 0.000000
0.748813 -0.450180 0.251855 0.000000 0.000000 0.000000
0.942654 -0.422375 0.227862 0.000000 0.000000 0.000000
0.838250 -0.430037 0.198243 0.000000 0.000000 0.000000
1.030776 -0.436881 0.309222 0.000000 0.000000 0.000000
0.960591 -0.415001 0.213313 0.000000 0.000000 0.000000
0.992482 -0.474385 0.329329 0.000000 0.000000 0.000000
0.914439 -0.402825 0.175245 0.000000 0.000000 0.000000
0.875546 -0.408173 0.172317 0.000000 0.000000 0.000000
0.857656 -0.422417 0.192637 0.000000 0.000000 0.000000
0.871870 -0.432741 0.194017 0.000000 0.000000 0.000000
1.023665 -0.430384 0.282966 0.000000 0.000000 0.000000
0.958308 -0.490164 0.311854 0.000000 0.000000 0.000000
0.790988 -0.461796 0.268877 0.000000 0.000000 0.000000
0.737879 -0.468415 0.272119 0.000000 0.000000 0.000000
0.860350 -0.509026 0.310892 0.000000 0.000000 0.000000
0.884233 -0.405003 0.167169 0.000000 0.000000 0.000000
0.778843 -0.468330 0.277892 0.000000 0.000000 0.000000
0.901426 -0.517406 0.321684 0.000000 0.000000 0.000000
0.915849 -0.436734 0.247540 0.000000 0.000000 0.000000
0.873766 -0.417424 0.174718 0.000000 0.000000 0.000000
0.880410 -0.418747 0.190692 0.000000 0.000000 0.000000
0.731646 -0.457043 0.261026 0.000000 0.000000 0.000000
0.909154 -0.403548 0.182486 0.000000 0.000000 0.000000
1.024796 -0.444752 0.317127 0.000000 0.000000 0.000000
0.991143 -0.425773 0.249017 0.000000 0.000000 0.000000
0.958434 -0.414355 0.202568 0.000000 0.000000 0.000000
0.890589 -0.414334 0.182096 0.000000 0.000000 0.000000
0.877375 -0.405152 0.174255 0.000000 0.000000 0.000000
0.958705 -0.416380 0.221435 0.000000 0.000000 0.000000
0.853509 -0.498064 0.300018 0.000000 0.000000 0.000000
0.902621 -0.445616 0.256330 0.000000 0.000000 0.000000
0.782156 -0.451941 0.244518 0.000000 0.000000 0.000000
0.731238 -0.472017 0.265991 0.000000 0.000000 0.000000
0.974429 -0.435360 0.255097 0.000000 0.000000 0.000000
0.959436 -0.423448 0.212894 0.000000 0.000000 0.000000
0.943881 -0.412744 0.199964 0.000000 0.000000 0.000000
0.995736 -0.419539 0.245812 0.000000 0.000000 0.000000
0.862719 -0.511708 0.314916 0.000000 0.000000 0.000000
0.846739 -0.509704 0.309611 0.000000 0.000000 0.000000
0.940377 -0.410555 0.200910 0.000000 0.000000 0.000000
0.837555 -0.418471 0.180834 0.000000 0.000000 0.000000
0.988138 -0.423141 0.254560 0.000000 0.000000 0.000000
1.034699 -0.437284 0.317292 0.000000 0.000000 0.000000
0.741253 -0.443061 0.237748 0.000000 0.000000 0.000000
0.956714 -0.428240 0.225134 0.000000 0.000000 0.000000
0.861290 -0.423276 0.194223 0.000000 0.000000 0.000000
0.910449 -0.443138 0.223368 0.000000 0.000000 0.000000
0.925274 -0.511135 0.314596 0.000000 0.000000 0.000000
0.879921 -0.414262 0.179407 0.000000 0.000000 0.000000
1.023333 -0.430233 0.286198 0.000000 0.000000 0.000000
0.969730 -0.453867 0.290737 0.000000 0.000000 0.000000
1.001183 -0.426201 0.274519 0.000000 0.000000 0.000000
0.968483 -0.423853 0.231051 0.000000 0.000000 0.000000
0.934710 -0.497207 0.310436 0.000000 0.000000 0.000000
0.939005 -0.491529 0.309787 0.000000 0.000000 0.000000
0.882940 -0.510717 0.317877 0.000000 0.000000 0.000000
0.964617 -0.487804 0.321791 0.000000 0.000000 0.000000
0.933227 -0.501793 0.310512 0.000000 0.000000 0.000000
0.907079 -0.409839 0.193345 0.000000 0.000000 0.000000
0.995049 -0.428023 0.268832 0.000000 0.000000 0.000000
0.980502 -0.423775 0.244620 0.000000 0.000000 0.000000
0.976678 -0.433773 0.253138 0.000000 0.000000 0.000000
0.953444 -0.417454 0.213788 0.000000 0.000000 0.000000
0.973210 -0.425939 0.232790 0.000000 0.000000 0.000000
0.815130 -0.434538 0.196780 0.000000 0.000000 0.000000
0.901560 -0.502738 0.306130 0.000000 0.000000 0.000000
0.832239 -0.445739 0.242304 0.000000 0.000000 0.000000
0.916806 -0.432699 0.219276 0.000000 0.000000 0.000000
0.860605 -0.443594 0.193939 0.000000 0.000000 0.000000
0.943384 -0.494477 0.308151 0.000000 0.000000 0.000000
1.007403 -0.454559 0.320424 0.000000 0.000000 0.000000
0.964116 -0.433698 0.242531 0.000000 0.000000 0.000000
0.803786 -0.433934 0.181567 0.000000 0.000000 0.000000
0.845007 -0.419616 0.194056 0.000000 0.000000 0.000000
0.792906 -0.453716 0.246335 0.000000 0.000000 0.000000
0.797095 -0.443758 0.208951 0.000000 0.000000 0.000000
0.836892 -0.421129 0.201082 0.000000 0.000000 0.000000
0.995332 -0.421510 0.255987 0.000000 0.000000 0.000000
0.804765 -0.444156 0.191463 0.000000 0.000000 0.000000
0.748560 -0.445191 0.234007 0.000000 0.000000 0.000000
0.996383 -0.428718 0.265070 0.000000 0.000000 0.000000
0.880533 -0.408005 0.172059 0.000000 0.000000 0.000000
0.816356 -0.420203 0.179427 0.000000 0.000000 0.000000
0.802507 -0.515767 0.300760 0.000000 0.000000 0.000000
0.854695 -0.412815 0.178104 0.000000 0.000000 0.000000
0.820521 -0.436482 0.217572 0.000000 0.000000 0.000000
0.731281 -0.446957 0.266670 0.000000 0.000000 0.000000
0.965536 -0.490992 0.327675 0.000000 0.000000 0.000000
0.828769 -0.426245 0.205201 0.000000 0.000000 0.000000
0.961212 -0.491016 0.322882 0.000000 0.000000 0.000000
0.955097 -0.414363 0.211362 0.000000 0.000000 0.000000
0.984007 -0.418591 0.236609 0.000000 0.000000 0.000000
1.033097 -0.430718 0.307141 0.000000 0.000000 0.000000
0.834778 -0.426324 0.202946 0.000000 0.000000 0.000000
0.917774 -0.416284 0.187380 0.000000 0.000000 0.000000
0.974456 -0.477162 0.322434 0.000000 0.000000 0.000000
1.032381 -0.437835 0.311087 0.000000 0.000000 0.000000
1.043903 -0.426289 0.334657 0.000000 0.000000 0.000000
0.905719 -0.413964 0.185882 0.000000 0.000000 0.000000
0.803963 -0.483684 0.309718 0.000000 0.000000 0.000000
1.017178 -0.453018 0.329898 0.000000 0.000000 0.000000
0.826178 -0.418832 0.192895 0.000000 0.000000 0.000000
0.908186 -0.408794 0.185156 0.000000 0.000000 0.000000
0.839314 -0.426787 0.173815 0.000000 0.000000 0.000000
0.932770 -0.510191 0.314859 0.000000 0.000000 0.000000
0.898101 -0.414010 0.192780 0.000000 0.000000 0.000000
0.847896 -0.431878 0.182638 0.000000 0.000000 0.000000
0.776673 -0.428480 0.200018 0.000000 0.000000 0.000000
0.947288 -0.412525 0.204994 0.000000 0.000000 0.000000
1.000151 -0.425190 0.252674 0.000000 0.000000 0.000000
0.841057 -0.409826 0.175256 0.000000 0.000000 0.000000
0.916634 -0.449698 0.273302 0.000000 0.000000 0.000000
0.899839 -0.448190 0.237362 0.000000 0.000000 0.000000
0.951149 -0.481026 0.300222 0.000000 0.000000 0.000000
1.008599 -0.444950 0.300918 0.000000 0.000000 0.000000
0.993881 -0.426758 0.264064 0.000000 0.000000 0.000000
1.014023 -0.432768 0.282769 0.000000 0.000000 0.000000
0.850118 -0.422151 0.194751 0.000000 0.000000 0.000000
0.835569 -0.419268 0.181476 0.000000 0.000000 0.000000
0.984934 -0.417144 0.235071 0.000000 0.000000 0.000000
0.958450 -0.502037 0.323944 0.000000 0.000000 0.000000
0.968227 -0.493813 0.326643 0.000000 0.000000 0.000000
0.771869 -0.465427 0.265697 0.000000 0.000000 0.000000
0.863596 -0.425786 0.205014 0.000000 0.000000 0.000000
1.036422 -0.431893 0.312354 0.000000 0.000000 0.000000
0.905067 -0.407598 0.186641 0.000000 0.000000 0.000000
0.975786 -0.482920 0.319470 0.000000 0.000000 0.000000
0.724650 -0.439451 0.263824 0.000000 0.000000 0.000000
0.912210 -0.415487 0.183542 0.000000 0.000000 0.000000
1.003914 -0.419677 0.254319 0.000000 0.000000 0.000000
1.002606 -0.419834 0.254054 0.000000 0.000000 0.000000
0.962053 -0.413723 0.208394 0.000000 0.000000 0.000000
0.901556 -0.451216 0.215303 0.000000 0.000000 0.000000
0.912065 -0.428713 0.207244 0.000000 0.000000 0.000000
0.966983 -0.496569 0.324566 0.000000 0.000000 0.000000
0.924097 -0.510761 0.319060 0.000000 0.000000 0.000000
0.946747 -0.501509 0.313560 0.000000 0.000000 0.000000
0.891284 -0.412249 0.198242 0.000000 0.000000 0.000000
0.913659 -0.486405 0.305538 0.000000 0.000000 0.000000
0.840752 -0.413734 0.174950 0.000000 0.000000 0.000000
1.028011 -0.431249 0.302686 0.000000 0.000000 0.000000
1.022075 -0.437654 0.303651 0.000000 0.000000 0.000000
1.014964 -0.436020 0.286307 0.000000 0.000000 0.000000
1.009991 -0.426030 0.276182 0.000000 0.000000 0.000000
0.853817 -0.406876 0.172090 0.000000 0.000000 0.000000
0.877064 -0.405146 0.173247 0.000000 0.000000 0.000000
0.895156 -0.421756 0.175723 0.000000 0.000000 0.000000
0.850631 -0.427758 0.183972 0.000000 0.000000 0.000000
0.847500 -0.445229 0.198115 0.000000 0.000000 0.000000
0.956767 -0.444541 0.273638 0.000000 0.000000 0.000000
0.904573 -0.452784 0.218240 0.000000 0.000000 0.000000
0.994086 -0.422486 0.249370 0.000000 0.000000 0.000000
0.941044 -0.431615 0.229405 0.000000 0.000000 0.000000
0.990871 -0.453249 0.318191 0.000000 0.000000 0.000000
0.744001 -0.450843 0.239314 0.000000 0.000000 0.000000
0.956304 -0.473417 0.308872 0.000000 0.000000 0.000000
0.871722 -0.410939 0.174807 0.000000 0.000000 0.000000
0.747419 -0.443789 0.235730 0.000000 0.000000 0.000000
0.998648 -0.429748 0.271211 0.000000 0.000000 0.000000
0.887782 -0.404461 0.173597 0.000000 0.000000 0.000000
0.946073 -0.487324 0.312024 0.000000 0.000000 0.000000
0.963314 -0.429123 0.231912 0.000000 0.000000 0.000000
0.811651 -0.449004 0.182461 0.000000 0.000000 0.000000
0.964624 -0.487619 0.315904 0.000000 0.000000 0.000000
0.816237 -0.488120 0.288996 0.000000 0.000000 0.000000
0.914709 -0.512148 0.312304 0.000000 0.000000 0.000000
0.882520 -0.410909 0.180427 0.000000 0.000000 0.000000
0.952648 -0.452355 0.291382 0.000000 0.000000 0.000000
0.967271 -0.452777 0.294611 0.000000 0.000000 0.000000
0.851909 -0.502238 0.294395 0.000000 0.000000 0.000000
0.982683 -0.447710 0.274706 0.000000 0.000000 0.000000
0.810098 -0.476220 0.269703 0.000000 0.000000 0.000000
1.012986 -0.448066 0.315332 0.000000 0.000000 0.000000
0.902379 -0.509321 0.309966 0.000000 0.000000 0.000000
0.916337 -0.437531 0.215594 0.000000 0.000000 0.000000
0.939747 -0.472701 0.294035 0.000000 0.000000 0.000000
0.966570 -0.439106 0.286937 0.000000 0.000000 0.000000
0.937102 -0.429845 0.247760 0.000000 0.000000 0.000000
0.880660 -0.464235 0.277777 0.000000 0.000000 0.000000
0.980900 -0.452619 0.300032 0.000000 0.000000 0.000000
1.007608 -0.442925 0.304719 0.000000 0.000000 0.000000
0.881056 -0.472474 0.280569 0.000000 0.000000 0.000000
0.965996 -0.457236 0.302346 0.000000 0.000000 0.000000
0.989139 -0.460494 0.314367 0.000000 0.000000 0.000000
1.015605 -0.425483 0.274627 0.000000 0.000000 0.000000
1.009263 -0.441888 0.309937 0.000000 0.000000 0.000000
0.953187 -0.444682 0.298358 0.000000 0.000000 0.000000
0.875089 -0.437480 0.236699 0.000000 0.000000 0.000000
0.854292 -0.450879 0.213332 0.000000 0.000000 0.000000
0.983182 -0.445515 0.293215 0.000000 0.000000 0.000000
1.011343 -0.440068 0.294845 0.000000 0.000000 0.000000
0.891278 -0.409457 0.174329 0.000000 0.000000 0.000000
0.985679 -0.449562 0.291755 0.000000 0.000000 0.000000
1.013768 -0.429452 0.277654 0.000000 0.000000 0.000000
1.011313 -0.438770 0.298603 0.000000 0.000000 0.000000
0.842549 -0.424213 0.180394 0.000000 0.000000 0.000000
0.887174 -0.425031 0.191188 0.000000 0.000000 0.000000
0.964961 -0.488805 0.322369 0.000000 0.000000 0.000000
0.818943 -0.427537 0.188161 0.000000 0.000000 0.000000
0.881150 -0.510218 0.308084 0.000000 0.000000 0.000000
0.955310 -0.453293 0.290725 0.000000 0.000000 0.000000
0.947787 -0.433231 0.247399 0.000000 0.000000 0.000000
0.820821 -0.474403 0.280737 0.000000 0.000000 0.000000
0.881611 -0.417959 0.212310 0.000000 0.000000 0.000000
0.806027 -0.474723 0.277775 0.000000 0.000000 0.000000
1.002606 -0.447713 0.311339 0.000000 0.000000 0.000000
1.001536 -0.428998 0.284362 0.000000 0.000000 0.000000
0.978730 -0.426950 0.235492 0.000000 0.000000 0.000000
0.848227 -0.417028 0.176824 0.000000 0.000000 0.000000
0.762389 -0.475722 0.276079 0.000000 0.000000 0.000000
0.974101 -0.435717 0.259152 0.000000 0.000000 0.000000
0.807675 -0.470965 0.266722 0.000000 0.000000 0.000000
0.813827 -0.454550 0.255827 0.000000 0.000000 0.000000
0.925570 -0.423435 0.207730 0.000000 0.000000 0.000000
0.910966 -0.494677 0.295329 0.000000 0.000000 0.000000
0.987054 -0.466153 0.312528 0.000000 0.000000 0.000000
0.833678 -0.455326 0.245193 0.000000 0.000000 0.000000
0.948776 -0.488990 0.309937 0.000000 0.000000 0.000000
0.921737 -0.425521 0.218793 0.000000 0.000000 0.000000
0.982871 -0.445849 0.302152 0.000000 0.000000 0.000000
0.811362 -0.428506 0.176514 0.000000 0.000000 0.000000
0.915661 -0.489130 0.310406 0.000000 0.000000 0.000000
0.861614 -0.452108 0.259550 0.000000 0.000000 0.000000
0.903579 -0.454601 0.217988 0.000000 0.000000 0.000000
0.783592 -0.440189 0.222469 0.000000 0.000000 0.000000
0.857060 -0.445590 0.229254 0.000000 0.000000 0.000000
0.832205 -0.445577 0.228754 0.000000 0.000000 0.000000
0.920656 -0.453853 0.276826 0.000000 0.000000 0.000000
0.753593 -0.473145 0.274755 0.000000 0.000000 0.000000
0.802397 -0.490162 0.289533 0.000000 0.000000 0.000000
0.957293 -0.452127 0.296721 0.000000 0.000000 0.000000
0.813242 -0.501732 0.298626 0.000000 0.000000 0.000000
0.779358 -0.468201 0.272898 0.000000 0.000000 0.000000
1.001209 -0.456686 0.312080 0.000000 0.000000 0.000000
1.002013 -0.453635 0.316539 0.000000 0.000000 0.000000
0.874353 -0.457781 0.219595 0.000000 0.000000 0.000000
0.753159 -0.458198 0.244360 0.000000 0.000000 0.000000
0.834423 -0.443899 0.251957 0.000000 0.000000 0.000000
0.819958 -0.462252 0.273684 0.000000 0.000000 0.000000
0.989761 -0.454685 0.301675 0.000000 0.000000 0.000000
0.824361 -0.419317 0.191824 0.000000 0.000000 0.000000
0.931044 -0.462074 0.293018 0.000000 0.000000 0.000000
0.888341 -0.432505 0.241978 0.000000 0.000000 0.000000
0.835497 -0.445224 0.220766 0.000000 0.000000 0.000000
0.960686 -0.475102 0.305780 0.000000 0.000000 0.000000
0.814725 -0.446602 0.192175 0.000000 0.000000 0.000000
0.805939 -0.425153 0.208254 0.000000 0.000000 0.000000
1.027645 -0.428919 0.291246 0.000000 0.000000 0.000000
0.900105 -0.440681 0.213071 0.000000 0.000000 0.000000
0.848736 -0.445715 0.221685 0.000000 0.000000 0.000000
0.901913 -0.479127 0.295839 0.000000 0.000000 0.000000
0.843817 -0.452723 0.254751 0.000000 0.000000 0.000000
0.986113 -0.432418 0.278360 0.000000 0.000000 0.000000
0.833787 -0.454037 0.242831 0.000000 0.000000 0.000000
0.827850 -0.500404 0.297783 0.000000 0.000000 0.000000
0.939562 -0.417639 0.197699 0.000000 0.000000 0.000000
0.745405 -0.446664 0.243418 0.000000 0.000000 0.000000
0.862946 -0.471070 0.278465 0.000000 0.000000 0.000000
0.983115 -0.442147 0.286449 0.000000 0.000000 0.000000
0.897022 -0.442297 0.224143 0.000000 0.000000 0.000000
0.844194 -0.424716 0.210881 0.000000 0.000000 0.000000
0.839129 -0.434398 0.212847 0.000000 0.000000 0.000000
0.851813 -0.462630 0.278588 0.000000 0.000000 0.000000
0.803357 -0.500486 0.297140 0.000000 0.000000 0.000000
0.806568 -0.452714 0.237870 0.000000 0.000000 0.000000
0.957757 -0.462090 0.293071 0.000000 0.000000 0.000000
0.843221 -0.454561 0.251985 0.000000 0.000000 0.000000
0.991549 -0.465164 0.322512 0.000000 0.000000 0.000000
0.890678 -0.440250 0.230536 0.000000 0.000000 0.000000
0.941491 -0.502342 0.306736 0.000000 0.000000 0.000000
0.948142 -0.445429 0.265841 0.000000 0.000000 0.000000
0.877616 -0.450614 0.252186 0.000000 0.000000 0.000000
0.915479 -0.501290 0.310425 0.000000 0.000000 0.000000
0.934642 -0.427570 0.219988 0.000000 0.000000 0.000000
0.818734 -0.436197 0.179593 0.000000 0.000000 0.000000
1.001462 -0.450533 0.313063 0.000000 0.000000 0.000000
0.802513 -0.466991 0.273264 0.000000 0.000000 0.000000
0.940993 -0.453978 0.283934 0.000000 0.000000 0.000000
0.920319 -0.456693 0.288091 0.000000 0.000000 0.000000
0.968457 -0.418865 0.241915 0.000000 0.000000 0.000000
0.986821 -0.446737 0.299873 0.000000 0.000000 0.000000
0.979788 -0.447424 0.292085 0.000000 0.000000 0.000000
1.014495 -0.439688 0.302947 0.000000 0.000000 0.000000
0.896309 -0.482835 0.281076 0.000000 0.000000 0.000000
0.891250 -0.473809 0.284706 0.000000 0.000000 0.000000
0.987060 -0.419035 0.254697 0.000000 0.000000 0.000000
1.021729 -0.447919 0.317670 0.000000 0.000000 0.000000
0.897552 -0.413106 0.178506 0.000000 0.000000 0.000000
0.950787 -0.450955 0.279216 0.000000 0.000000 0.000000
0.784209 -0.540167 0.290064 0.000000 0.000000 0.000000
1.008335 -0.429897 0.263702 0.000000 0.000000 0.000000
0.951981 -0.486723 0.308848 0.000000 0.000000 0.000000
0.805820 -0.450435 0.188822 0.000000 0.000000 0.000000
0.908811 -0.474615 0.286895 0.000000 0.000000 0.000000
0.963990 -0.446905 0.293295 0.000000 0.000000 0.000000
0.985099 -0.428020 0.260405 0.000000 0.000000 0.000000
0.783145 -0.484318 0.276161 0.000000 0.000000 0.000000
0.874748 -0.456115 0.256485 0.000000 0.000000 0.000000
1.013627 -0.432362 0.298389 0.000000 0.000000 0.000000
0.824192 -0.490565 0.298992 0.000000 0.000000 0.000000
0.988674 -0.443167 0.296142 0.000000 0.000000 0.000000
0.979166 -0.448563 0.282309 0.000000 0.000000 0.000000
0.981646 -0.441077 0.277413 0.000000 0.000000 0.000000
0.779640 -0.471813 0.269014 0.000000 0.000000 0.000000
0.862970 -0.458478 0.270935 0.000000 0.000000 0.000000
0.907548 -0.430671 0.213634 0.000000 0.000000 0.000000
0.803404 -0.458033 0.261248 0.000000 0.000000 0.000000
0.816190 -0.451061 0.262919 0.000000 0.000000 0.000000
0.878021 -0.452242 0.218586 0.000000 0.000000 0.000000
0.854893 -0.428464 0.185695 0.000000 0.000000 0.000000
0.968276 -0.463575 0.299062 0.000000 0.000000 0.000000
0.992193 -0.445473 0.288836 0.000000 0.000000 0.000000
0.904952 -0.470586 0.282657 0.000000 0.000000 0.000000
0.827127 -0.454451 0.256996 0.000000 0.000000 0.000000
0.850944 -0.432616 0.206460 0.000000 0.000000 0.000000
0.834175 -0.444810 0.195505 0.000000 0.000000 0.000000
0.831444 -0.455153 0.222355 0.000000 0.000000 0.000000
1.017485 -0.445004 0.308115 0.000000 0.000000 0.000000
0.887453 -0.503811 0.317471 0.000000 0.000000 0.000000
0.987564 -0.419957 0.247026 0.000000 0.000000 0.000000
0.982892 -0.470393 0.313704 0.000000 0.000000 0.000000
0.829421 -0.417956 0.181103 0.000000 0.000000 0.000000
0.993758 -0.460492 0.308087 0.000000 0.000000 0.000000
0.995289 -0.452513 0.311435 0.000000 0.000000 0.000000
0.959494 -0.430423 0.263573 0.000000 0.000000 0.000000
0.745570 -0.462246 0.250139 0.000000 0.000000 0.000000
0.790834 -0.474944 0.277779 0.000000 0.000000 0.000000
0.872809 -0.428787 0.214288 0.000000 0.000000 0.000000
0.932888 -0.474539 0.302742 0.000000 0.000000 0.000000
0.876288 -0.442534 0.251836 0.000000 0.000000 0.000000
0.878378 -0.437745 0.230220 0.000000 0.000000 0.000000
0.966308 -0.435659 0.275804 0.000000 0.000000 0.000000
0.980661 -0.472307 0.320304 0.000000 0.000000 0.000000
1.020666 -0.422548 0.276233 0.000000 0.000000 0.000000
0.812053 -0.449812 0.241054 0.000000 0.000000 0.000000
0.969689 -0.479198 0.316904 0.000000 0.000000 0.000000
0.904856 -0.490766 0.305119 0.000000 0.000000 0.000000
0.992150 -0.461059 0.311544 0.000000 0.000000 0.000000
0.887943 -0.449861 0.252136 0.000000 0.000000 0.000000
0.976142 -0.443528 0.277193 0.000000 0.000000 0.000000
0.861544 -0.411223 0.177502 0.000000 0.000000 0.000000
0.881341 -0.407723 0.178471 0.000000 0.000000 0.000000
0.832478 -0.454892 0.265937 0.000000 0.000000 0.000000
1.025415 -0.433897 0.296567 0.000000 0.000000 0.000000
0.842661 -0.433473 0.191400 0.000000 0.000000 0.000000
1.011294 -0.446778 0.314016 0.000000 0.000000 0.000000
0.796809 -0.480016 0.280995 0.000000 0.000000 0.000000
0.809365 -0.429260 0.190822 0.000000 0.000000 0.000000
0.864980 -0.463306 0.267470 0.000000 0.000000 0.000000
0.810388 -0.504020 0.299663 0.000000 0.000000 0.000000
0.823791 -0.434139 0.182623 0.000000 0.000000 0.000000
0.847886 -0.436083 0.222706 0.000000 0.000000 0.000000
0.975451 -0.465957 0.309365 0.000000 0.000000 0.000000
0.876412 -0.459191 0.281182 0.000000 0.000000 0.000000
0.973316 -0.473625 0.310158 0.000000 0.000000 0.000000
0.857127 -0.447298 0.195985 0.000000 0.000000 0.000000
0.795238 -0.514086 0.307606 0.000000 0.000000 0.000000
1.035118 -0.428712 0.308428 0.000000 0.000000 0.000000
0.822746 -0.514938 0.303201 0.000000 0.000000 0.000000
0.837598 -0.433953 0.181528 0.000000 0.000000 0.000000
0.999336 -0.422818 0.252437 0.000000 0.000000 0.000000
0.799652 -0.439606 0.200063 0.000000 0.000000 0.000000
0.931296 -0.409699 0.194466 0.000000 0.000000 0.000000
0.797550 -0.435313 0.214493 0.000000 0.000000 0.000000
0.954427 -0.459866 0.277385 0.000000 0.000000 0.000000
0.782582 -0.472171 0.275131 0.000000 0.000000 0.000000
0.887213 -0.417029 0.185080 0.000000 0.000000 0.000000
0.757050 -0.444163 0.245684 0.000000 0.000000 0.000000
0.738783 -0.462841 0.268047 0.000000 0.000000 0.000000
0.840084 -0.510193 0.313197 0.000000 0.000000 0.000000
0.946530 -0.497436 0.310730 0.000000 0.000000 0.000000
0.930104 -0.431105 0.203236 0.000000 0.000000 0.000000
0.820739 -0.455098 0.243128 0.000000 0.000000 0.000000
0.924140 -0.420933 0.196889 0.000000 0.000000 0.000000
0.770747 -0.476716 0.277922 0.000000 0.000000 0.000000
0.963034 -0.427151 0.241382 0.000000 0.000000 0.000000
0.917010 -0.454362 0.281152 0.000000 0.000000 0.000000
0.947504 -0.452675 0.280275 0.000000 0.000000 0.000000
0.728989 -0.448500 0.263383 0.000000 0.000000 0.000000
0.824834 -0.496233 0.296760 0.000000 0.000000 0.000000
0.963849 -0.441912 0.270304 0.000000 0.000000 0.000000
0.928390 -0.492449 0.307053 0.000000 0.000000 0.000000
0.787608 -0.491175 0.293304 0.000000 0.000000 0.000000
0.996318 -0.438499 0.282958 0.000000 0.000000 0.000000
0.946738 -0.451572 0.275009 0.000000 0.000000 0.000000
0.989182 -0.419365 0.238330 0.000000 0.000000 0.000000
0.857404 -0.478040 0.272030 0.000000 0.000000 0.000000
0.891982 -0.455618 0.276092 0.000000 0.000000 0.000000
0.900642 -0.417446 0.184473 0.000000 0.000000 0.000000
0.864194 -0.416918 0.197277 0.000000 0.000000 0.000000
0.794343 -0.435903 0.222372 0.000000 0.000000 0.000000
0.817257 -0.461880 0.271194 0.000000 0.000000 0.000000
1.008112 -0.429014 0.269520 0.000000 0.000000 0.000000
0.947818 -0.427205 0.209673 0.000000 0.000000 0.000000
0.734721 -0.464164 0.265138 0.000000 0.000000 0.000000
0.958500 -0.430307 0.271958 0.000000 0.000000 0.000000
0.748561 -0.468939 0.265489 0.000000 0.000000 0.000000
0.879944 -0.496144 0.297902 0.000000 0.000000 0.000000
0.840564 -0.506216 0.309453 0.000000 0.000000 0.000000
0.867978 -0.406495 0.173192 0.000000 0.000000 0.000000
0.947029 -0.492301 0.310681 0.000000 0.000000 0.000000
0.955007 -0.489948 0.311756 0.000000 0.000000 0.000000
0.746638 -0.459668 0.265447 0.000000 0.000000 0.000000
0.893422 -0.498477 0.307063 0.000000 0.000000 0.000000
0.982390 -0.458423 0.308226 0.000000 0.000000 0.000000
0.848611 -0.480688 0.285631 0.000000 0.000000 0.000000
0.848952 -0.456732 0.252343 0.000000 0.000000 0.000000
0.837016 -0.454674 0.261665 0.000000 0.000000 0.000000
0.788851 -0.447564 0.228008 0.000000 0.000000 0.000000
1.029266 -0.439739 0.318745 0.000000 0.000000 0.000000
0.836293 -0.494839 0.288131 0.000000 0.000000 0.000000
0.881524 -0.505256 0.301328 0.000000 0.000000 0.000000
0.888604 -0.430072 0.208413 0.000000 0.000000 0.000000
0.954872 -0.487335 0.309097 0.000000 0.000000 0.000000
0.895246 -0.489738 0.308745 0.000000 0.000000 0.000000
0.923578 -0.431446 0.205706 0.000000 0.000000 0.000000
0.754016 -0.479576 0.280136 0.000000 0.000000 0.000000
0.823025 -0.499794 0.298150 0.000000 0.000000 0.000000
0.871279 -0.464395 0.250609 0.000000 0.000000 0.000000
0.827585 -0.465083 0.271241 0.000000 0.000000 0.000000
0.942207 -0.454841 0.290743 0.000000 0.000000 0.000000
0.999457 -0.420416 0.249833 0.000000 0.000000 0.000000
0.729845 -0.471712 0.244059 0.000000 0.000000 0.000000
0.997491 -0.467670 0.327656 0.000000 0.000000 0.000000
0.903308 -0.424635 0.198470 0.000000 0.000000 0.000000
0.873020 -0.410196 0.177883 0.000000 0.000000 0.000000
0.851615 -0.459013 0.269860 0.000000 0.000000 0.000000
0.906772 -0.443120 0.217060 0.000000 0.000000 0.000000
0.902208 -0.466803 0.288372 0.000000 0.000000 0.000000
0.950230 -0.443059 0.259317 0.000000 0.000000 0.000000
0.740245 -0.461066 0.264488 0.000000 0.000000 0.000000
0.885372 -0.490113 0.298655 0.000000 0.000000 0.000000
0.871446 -0.421687 0.195588 0.000000 0.000000 0.000000
0.761059 -0.482038 0.274760 0.000000 0.000000 0.000000
0.941560 -0.499966 0.311475 0.000000 0.000000 0.000000
0.745782 -0.464128 0.264520 0.000000 0.000000 0.000000
0.924247 -0.497388 0.307978 0.000000 0.000000 0.000000
0.884567 -0.471166 0.276439 0.000000 0.000000 0.000000
0.952302 -0.494706 0.310318 0.000000 0.000000 0.000000
0.844057 -0.457017 0.242317 0.000000 0.000000 0.000000
0.869610 -0.424347 0.181690 0.000000 0.000000 0.000000
0.916896 -0.448990 0.259831 0.000000 0.000000 0.000000
0.919727 -0.449198 0.234697 0.000000 0.000000 0.000000
0.849400 -0.470559 0.235246 0.000000 0.000000 0.000000
0.889595 -0.435199 0.220032 0.000000 0.000000 0.000000
1.029828 -0.435781 0.310812 0.000000 0.000000 0.000000
0.733479 -0.471409 0.257952 0.000000 0.000000 0.000000
0.864103 -0.450482 0.251630 0.000000 0.000000 0.000000
0.946822 -0.409773 0.205381 0.000000 0.000000 0.000000
0.985137 -0.454675 0.309030 0.000000 0.000000 0.000000
0.919952 -0.497355 0.315321 0.000000 0.000000 0.000000
0.857224 -0.411339 0.174345 0.000000 0.000000 0.000000
1.017053 -0.444132 0.311725 0.000000 0.000000 0.000000
1.000481 -0.431176 0.277565 0.000000 0.000000 0.000000
0.978502 -0.416105 0.228435 0.000000 0.000000 0.000000
0.912135 -0.411446 0.181450 0.000000 0.000000 0.000000
0.937137 -0.422455 0.239571 0.000000 0.000000 0.000000
0.983634 -0.414544 0.240568 0.000000 0.000000 0.000000
0.967262 -0.434263 0.254124 0.000000 0.000000 0.000000
0.850918 -0.512264 0.314202 0.000000 0.000000 0.000000
0.943587 -0.462002 0.295809 0.000000 0.000000 0.000000
1.002505 -0.462534 0.330068 0.000000 0.000000 0.000000
0.845976 -0.417460 0.186171 0.000000 0.000000 0.000000
0.909934 -0.515432 0.313747 0.000000 0.000000 0.000000
0.895514 -0.409581 0.183003 0.000000 0.000000 0.000000
0.805514 -0.449974 0.194376 0.000000 0.000000 0.000000
0.809631 -0.440822 0.182805 0.000000 0.000000 0.000000
0.808592 -0.429638 0.185106 0.000000 0.000000 0.000000
0.915802 -0.405036 0.186174 0.000000 0.000000 0.000000
0.870298 -0.462976 0.216597 0.000000 0.000000 0.000000
0.983508 -0.423171 0.240584 0.000000 0.000000 0.000000
0.955438 -0.439143 0.252085 0.000000 0.000000 0.000000
0.804013 -0.425037 0.198022 0.000000 0.000000 0.000000
1.004886 -0.434231 0.276155 0.000000 0.000000 0.000000
0.929643 -0.412180 0.194166 0.000000 0.000000 0.000000
0.912038 -0.462592 0.274175 0.000000 0.000000 0.000000
0.955586 -0.426993 0.227881 0.000000 0.000000 0.000000
0.915854 -0.441950 0.240956 0.000000 0.000000 0.000000
0.950293 -0.463781 0.306131 0.000000 0.000000 0.000000
0.804974 -0.437139 0.181727 0.000000 0.000000 0.000000
0.897338 -0.460802 0.203973 0.000000 0.000000 0.000000
0.904616 -0.463348 0.269793 0.000000 0.000000 0.000000
0.894334 -0.463059 0.277713 0.000000 0.000000 0.000000
0.800864 -0.457254 0.254177 0.000000 0.000000 0.000000
0.785448 -0.458674 0.268058 0.000000 0.000000 0.000000
0.876003 -0.421736 0.181098 0.000000 0.000000 0.000000
0.764151 -0.464577 0.267603 0.000000 0.000000 0.000000
0.859093 -0.432785 0.193763 0.000000 0.000000 0.000000
0.914345 -0.451283 0.209151 0.000000 0.000000 0.000000
0.913768 -0.515922 0.317849 0.000000 0.000000 0.000000
0.879853 -0.481920 0.297049 0.000000 0.000000 0.000000
0.782270 -0.491149 0.284694 0.000000 0.000000 0.000000
0.755652 -0.458364 0.263438 0.000000 0.000000 0.000000
0.877103 -0.454101 0.260755 0.000000 0.000000 0.000000
0.875287 -0.488854 0.288163 0.000000 0.000000 0.000000
0.804288 -0.439799 0.199011 0.000000 0.000000 0.000000
1.023780 -0.442101 0.310256 0.000000 0.000000 0.000000
0.995962 -0.442993 0.304405 0.000000 0.000000 0.000000
0.947870 -0.449296 0.288645 0.000000 0.000000 0.000000
0.869247 -0.449969 0.253129 0.000000 0.000000 0.000000
0.943777 -0.438466 0.262945 0.000000 0.000000 0.000000
0.746698 -0.473763 0.272331 0.000000 0.000000 0.000000
0.933963 -0.456854 0.275339 0.000000 0.000000 0.000000
0.868803 -0.460283 0.272408 0.000000 0.000000 0.000000
0.773424 -0.453426 0.252808 0.000000 0.000000 0.000000
0.788522 -0.440050 0.220890 0.000000 0.000000 0.000000
0.869837 -0.458675 0.213844 0.000000 0.000000 0.000000
0.788866 -0.427659 0.193850 0.000000 0.000000 0.000000
0.983320 -0.426454 0.249778 0.000000 0.000000 0.000000
0.956304 -0.462808 0.273702 0.000000 0.000000 0.000000
0.934330 -0.445801 0.252567 0.000000 0.000000 0.000000
0.787485 -0.458657 0.245507 0.000000 0.000000 0.000000
1.017152 -0.434327 0.283662 0.000000 0.000000 0.000000
1.018124 -0.440793 0.296829 0.000000 0.000000 0.000000
0.902232 -0.459993 0.278606 0.000000 0.000000 0.000000
0.965617 -0.419072 0.219594 0.000000 0.000000 0.000000
0.803688 -0.491588 0.287695 0.000000 0.000000 0.000000
0.806967 -0.440811 0.188599 0.000000 0.000000 0.000000
0.901083 -0.459229 0.244607 0.000000 0.000000 0.000000
0.970277 -0.441431 0.276564 0.000000 0.000000 0.000000
0.839715 -0.458781 0.213135 0.000000 0.000000 0.000000
0.894298 -0.455503 0.273820 0.000000 0.000000 0.000000
0.908731 -0.465880 0.287458 0.000000 0.000000 0.000000
0.824490 -0.421713 0.182444 0.000000 0.000000 0.000000
0.914286 -0.439538 0.244339 0.000000 0.000000 0.000000
0.809025 -0.474376 0.285293 0.000000 0.000000 0.000000
0.780793 -0.459607 0.262238 0.000000 0.000000 0.000000
0.867698 -0.426924 0.179737 0.000000 0.000000 0.000000
0.878832 -0.473217 0.257769 0.000000 0.000000 0.000000
0.770585 -0.471834 0.273419 0.000000 0.000000 0.000000
0.801745 -0.444754 0.186670 0.000000 0.000000 0.000000
0.800937 -0.453718 0.181808 0.000000 0.000000 0.000000
0.919569 -0.515370 0.317994 0.000000 0.000000 0.000000
0.884871 -0.487119 0.294595 0.000000 0.000000 0.000000
0.850991 -0.447273 0.227013 0.000000 0.000000 0.000000
0.986216 -0.447436 0.310699 0.000000 0.000000 0.000000
0.756154 -0.465992 0.266663 0.000000 0.000000 0.000000
0.870022 -0.489704 0.289639 0.000000 0.000000 0.000000
0.810272 -0.480418 0.282432 0.000000 0.000000 0.000000
0.771826 -0.440757 0.225974 0.000000 0.000000 0.000000
0.870286 -0.441190 0.199720 0.000000 0.000000 0.000000
0.890370 -0.422811 0.200354 0.000000 0.000000 0.000000
0.764844 -0.474137 0.281535 0.000000 0.000000 0.000000
0.862378 -0.465075 0.273989 0.000000 0.000000 0.000000
0.793528 -0.451423 0.260625 0.000000 0.000000 0.000000
0.875346 -0.422364 0.203089 0.000000 0.000000 0.000000
0.903147 -0.430968 0.196248 0.000000 0.000000 0.000000
0.995513 -0.437131 0.275058 0.000000 0.000000 0.000000
0.970239 -0.419022 0.218005 0.000000 0.000000 0.000000
0.847119 -0.418939 0.204485 0.000000 0.000000 0.000000
1.025499 -0.431065 0.294781 0.000000 0.000000 0.000000
1.027513 -0.436285 0.310014 0.000000 0.000000 0.000000
0.996101 -0.419836 0.246035 0.000000 0.000000 0.000000
0.891118 -0.462462 0.238644 0.000000 0.000000 0.000000
0.998843 -0.430188 0.273071 0.000000 0.000000 0.000000
0.794444 -0.502009 0.304317 0.000000 0.000000 0.000000
1.033906 -0.433370 0.304216 0.000000 0.000000 0.000000
0.958857 -0.417337 0.210858 0.000000 0.000000 0.000000
0.745619 -0.470990 0.269831 0.000000 0.000000 0.000000
0.723083 -0.439506 0.257151 0.000000 0.000000 0.000000
0.821512 -0.413216 0.186923 0.000000 0.000000 0.000000
0.795637 -0.552408 0.251984 0.000000 0.000000 0.000000
0.810184 -0.433935 0.179155 0.000000 0.000000 0.000000
0.893704 -0.430691 0.225350 0.000000 0.000000 0.000000
0.895575 -0.441579 0.196801 0.000000 0.000000 0.000000
0.878477 -0.451999 0.263515 0.000000 0.000000 0.000000
0.856267 -0.487177 0.228053 0.000000 0.000000 0.000000
0.905040 -0.482237 0.268376 0.000000 0.000000 0.000000
0.812571 -0.452108 0.219935 0.000000 0.000000 0.000000
0.804305 -0.465716 0.263760 0.000000 0.000000 0.000000
0.843525 -0.456458 0.207361 0.000000 0.000000 0.000000
0.852752 -0.436987 0.216244 0.000000 0.000000 0.000000
0.864183 -0.411669 0.180080 0.000000 0.000000 0.000000
0.851566 -0.466093 0.220372 0.000000 0.000000 0.000000
0.925274 -0.439598 0.273873 0.000000 0.000000 0.000000
0.953529 -0.413783 0.214524 0.000000 0.000000 0.000000
0.783234 -0.430177 0.206040 0.000000 0.000000 0.000000
0.825416 -0.438049 0.203189 0.000000 0.000000 0.000000
0.731103 -0.448173 0.259331 0.000000 0.000000 0.000000
0.810531 -0.434771 0.204823 0.000000 0.000000 0.000000
0.919692 -0.515985 0.316609 0.000000 0.000000 0.000000
0.811434 -0.428277 0.200351 0.000000 0.000000 0.000000
0.815634 -0.423528 0.183735 0.000000 0.000000 0.000000
1.019565 -0.441683 0.295584 0.000000 0.000000 0.000000
0.765873 -0.444323 0.231155 0.000000 0.000000 0.000000
0.827493 -0.419045 0.198552 0.000000 0.000000 0.000000
0.930407 -0.449677 0.265485 0.000000 0.000000 0.000000
0.845633 -0.497604 0.285539 0.000000 0.000000 0.000000
0.886838 -0.481805 0.304398 0.000000 0.000000 0.000000
0.883071 -0.430594 0.201392 0.000000 0.000000 0.000000
0.855183 -0.481711 0.280890 0.000000 0.000000 0.000000
0.907985 -0.436072 0.228854 0.000000 0.000000 0.000000
0.851528 -0.471278 0.287535 0.000000 0.000000 0.000000
0.889234 -0.448621 0.244302 0.000000 0.000000 0.000000
0.806108 -0.451553 0.239099 0.000000 0.000000 0.000000
0.781713 -0.437185 0.213435 0.000000 0.000000 0.000000
0.850143 -0.452818 0.260060 0.000000 0.000000 0.000000
0.767533 -0.490676 0.293448 0.000000 0.000000 0.000000
0.838672 -0.454138 0.258307 0.000000 0.000000 0.000000
0.864394 -0.419051 0.176917 0.000000 0.000000 0.000000
0.852660 -0.468554 0.270118 0.000000 0.000000 0.000000
0.870336 -0.466135 0.201214 0.000000 0.000000 0.000000
0.826688 -0.449633 0.216544 0.000000 0.000000 0.000000
0.884499 -0.457797 0.205317 0.000000 0.000000 0.000000
0.826666 -0.462311 0.251313 0.000000 0.000000 0.000000
0.881869 -0.449059 0.247763 0.000000 0.000000 0.000000
0.864284 -0.460252 0.215357 0.000000 0.000000 0.000000
0.859853 -0.413983 0.183672 0.000000 0.000000 0.000000
0.896804 -0.447030 0.246282 0.000000 0.000000 0.000000
0.785594 -0.441891 0.228190 0.000000 0.000000 0.000000
0.866464 -0.453644 0.248790 0.000000 0.000000 0.000000
0.887870 -0.486344 0.289130 0.000000 0.000000 0.000000
0.801262 -0.436876 0.206181 0.000000 0.000000 0.000000
0.810380 -0.431550 0.209218 0.000000 0.000000 0.000000
0.729124 -0.445403 0.258698 0.000000 0.000000 0.000000
0.875670 -0.459597 0.256361 0.000000 0.000000 0.000000
0.811194 -0.440609 0.213057 0.000000 0.000000 0.000000
0.750657 -0.477737 0.278957 0.000000 0.000000 0.000000
0.802692 -0.446030 0.194963 0.000000 0.000000 0.000000
0.917377 -0.407097 0.190993 0.000000 0.000000 0.000000
1.026850 -0.433931 0.305558 0.000000 0.000000 0.000000
0.792109 -0.444007 0.225675 0.000000 0.000000 0.000000
0.757010 -0.441341 0.233930 0.000000 0.000000 0.000000
0.858881 -0.441188 0.207002 0.000000 0.000000 0.000000
0.858729 -0.483966 0.279709 0.000000 0.000000 0.000000
0.937924 -0.439098 0.236330 0.000000 0.000000 0.000000
0.911101 -0.466864 0.286915 0.000000 0.000000 0.000000
0.952571 -0.429672 0.258092 0.000000 0.000000 0.000000
0.833026 -0.468746 0.273475 0.000000 0.000000 0.000000
0.870902 -0.456830 0.233287 0.000000 0.000000 0.000000
0.927105 -0.416786 0.218296 0.000000 0.000000 0.000000
0.794972 -0.481892 0.287106 0.000000 0.000000 0.000000
0.973597 -0.427113 0.226330 0.000000 0.000000 0.000000
0.858927 -0.446446 0.249436 0.000000 0.000000 0.000000
0.761829 -0.476469 0.275641 0.000000 0.000000 0.000000
0.851990 -0.463797 0.260835 0.000000 0.000000 0.000000
1.017849 -0.439218 0.295766 0.000000 0.000000 0.000000
0.974792 -0.414405 0.231208 0.000000 0.000000 0.000000
0.979704 -0.429966 0.267134 0.000000 0.000000 0.000000
0.990425 -0.423362 0.247359 0.000000 0.000000 0.000000
0.952539 -0.425921 0.202706 0.000000 0.000000 0.000000
0.951436 -0.496393 0.315798 0.000000 0.000000 0.000000
0.845501 -0.512985 0.310762 0.000000 0.000000 0.000000
0.754101 -0.448506 0.232011 0.000000 0.000000 0.000000
0.825124 -0.414092 0.176767 0.000000 0.000000 0.000000
0.915356 -0.438809 0.232157 0.000000 0.000000 0.000000
0.910030 -0.459884 0.211685 0.000000 0.000000 0.000000
0.796529 -0.433492 0.206311 0.000000 0.000000 0.000000
0.935240 -0.444666 0.239946 0.000000 0.000000 0.000000
0.735057 -0.444256 0.245695 0.000000 0.000000 0.000000
0.913091 -0.412914 0.185942 0.000000 0.000000 0.000000
0.737841 -0.453484 0.254119 0.000000 0.000000 0.000000
0.970494 -0.425350 0.226647 0.000000 0.000000 0.000000
0.879074 -0.497772 0.304607 0.000000 0.000000 0.000000
0.725989 -0.456177 0.259701 0.000000 0.000000 0.000000
0.851459 -0.419066 0.185365 0.000000 0.000000 0.000000
0.857848 -0.407784 0.170217 0.000000 0.000000 0.000000
0.865866 -0.456353 0.243247 0.000000 0.000000 0.000000
0.754947 -0.445305 0.231935 0.000000 0.000000 0.000000
0.912034 -0.421899 0.222671 0.000000 0.000000 0.000000
0.928868 -0.437489 0.256326 0.000000 0.000000 0.000000
0.944786 -0.428412 0.266351 0.000000 0.000000 0.000000
0.897349 -0.452759 0.248050 0.000000 0.000000 0.000000
0.848462 -0.481501 0.279196 0.000000 0.000000 0.000000
0.883155 -0.454340 0.258766 0.000000 0.000000 0.000000
0.817355 -0.433862 0.221340 0.000000 0.000000 0.000000
0.911621 -0.438904 0.215582 0.000000 0.000000 0.000000
0.907823 -0.452429 0.263044 0.000000 0.000000 0.000000
0.918729 -0.460147 0.263151 0.000000 0.000000 0.000000
0.797617 -0.441998 0.232820 0.000000 0.000000 0.000000
0.924180 -0.451454 0.244322 0.000000 0.000000 0.000000
0.891397 -0.406194 0.179954 0.000000 0.000000 0.000000
0.949587 -0.436671 0.254355 0.000000 0.000000 0.000000
0.726005 -0.449184 0.262676 0.000000 0.000000 0.000000
0.984796 -0.470062 0.312461 0.000000 0.000000 0.000000
0.863105 -0.502908 0.317310 0.000000 0.000000 0.000000
0.732164 -0.461894 0.264742 0.000000 0.000000 0.000000
0.815960 -0.432414 0.213696 0.000000 0.000000 0.000000
0.778649 -0.445034 0.232158 0.000000 0.000000 0.000000
0.835546 -0.487179 0.288016 0.000000 0.000000 0.000000
0.960224 -0.439027 0.256646 0.000000 0.000000 0.000000
0.935889 -0.415632 0.200425 0.000000 0.000000 0.000000
0.993009 -0.418695 0.249058 0.000000 0.000000 0.000000
0.990071 -0.430079 0.250940 0.000000 0.000000 0.000000
0.963746 -0.424938 0.224211 0.000000 0.000000 0.000000
0.795994 -0.424781 0.192437 0.000000 0.000000 0.000000
0.905530 -0.517698 0.317306 0.000000 0.000000 0.000000
0.983977 -0.425823 0.237489 0.000000 0.000000 0.000000
0.980932 -0.421905 0.229711 0.000000 0.000000 0.000000
0.851480 -0.410568 0.173410 0.000000 0.000000 0.000000
0.970530 -0.422935 0.222680 0.000000 0.000000 0.000000
0.908266 -0.458224 0.207178 0.000000 0.000000 0.000000
