ply
format ascii 1.0
comment VCGLIB generated
obj_info Generated by SPFormer!
element vertex 884
property float x
property float y
property float z
property float nx
property float ny
property float nz
end_header
1.168558 1.076400 1.052229 0.000000 0.000000 0.000000
1.159696 1.035324 1.082468 0.000000 0.000000 0.000000
1.136032 1.200221 1.015564 0.000000 0.000000 0.000000
1.195001 1.061965 1.070486 0.000000 0.000000 0.000000
1.052527 1.238862 1.028124 0.000000 0.000000 0.000000
1.182102 1.025427 1.078985 0.000000 0.000000 0.000000
1.170404 1.184481 1.012538 0.000000 0.000000 0.000000
1.221658 1.079074 1.028079 0.000000 0.000000 0.000000
1.065124 1.008767 1.108458 0.000000 0.000000 0.000000
1.204500 1.111679 1.016861 0.000000 0.000000 0.000000
1.051661 1.245116 1.027140 0.000000 0.000000 0.000000
1.065828 1.003554 1.113133 0.000000 0.000000 0.000000
1.110152 0.989404 1.108884 0.000000 0.000000 0.000000
1.060606 1.047443 1.107558 0.000000 0.000000 0.000000
1.169980 1.087867 1.060656 0.000000 0.000000 0.000000
1.123988 1.098459 1.069098 0.000000 0.000000 0.000000
1.172131 1.014131 1.092317 0.000000 0.000000 0.000000
1.128340 1.064281 1.080753 0.000000 0.000000 0.000000
1.105252 1.003307 1.109035 0.000000 0.000000 0.000000
1.196190 1.022104 1.076726 0.000000 0.000000 0.000000
1.232488 1.045156 1.051408 0.000000 0.000000 0.000000
1.029624 1.058197 1.099610 0.000000 0.000000 0.000000
1.105379 1.014177 1.112651 0.000000 0.000000 0.000000
1.178220 1.066428 1.055114 0.000000 0.000000 0.000000
1.079380 1.003821 1.106837 0.000000 0.000000 0.000000
1.042045 1.065147 1.099617 0.000000 0.000000 0.000000
1.079819 1.069845 1.076897 0.000000 0.000000 0.000000
1.058760 1.106188 1.088343 0.000000 0.000000 0.000000
1.046242 1.229428 1.032925 0.000000 0.000000 0.000000
1.140230 1.075027 1.062947 0.000000 0.000000 0.000000
1.190980 1.152590 1.019579 0.000000 0.000000 0.000000
1.190454 0.999642 1.097356 0.000000 0.000000 0.000000
1.109686 1.123899 1.055943 0.000000 0.000000 0.000000
1.041660 1.041198 1.102976 0.000000 0.000000 0.000000
1.219367 1.046847 1.051746 0.000000 0.000000 0.000000
1.184972 1.120353 1.055281 0.000000 0.000000 0.000000
1.180494 1.121320 1.029248 0.000000 0.000000 0.000000
1.129751 1.246971 1.007101 0.000000 0.000000 0.000000
1.065266 1.242172 1.021477 0.000000 0.000000 0.000000
1.149455 1.098560 1.066172 0.000000 0.000000 0.000000
1.065251 1.249573 1.020483 0.000000 0.000000 0.000000
1.231990 1.082118 1.034675 0.000000 0.000000 0.000000
1.128714 0.977975 1.111573 0.000000 0.000000 0.000000
1.129693 1.182914 1.020839 0.000000 0.000000 0.000000
1.088665 1.084463 1.081592 0.000000 0.000000 0.000000
1.039670 1.095134 1.093025 0.000000 0.000000 0.000000
1.116346 0.996725 1.107489 0.000000 0.000000 0.000000
1.046143 1.177912 1.064572 0.000000 0.000000 0.000000
1.069452 1.096390 1.087602 0.000000 0.000000 0.000000
1.032478 1.059677 1.097675 0.000000 0.000000 0.000000
1.096898 0.988604 1.110685 0.000000 0.000000 0.000000
1.018366 1.115389 1.078834 0.000000 0.000000 0.000000
1.024722 1.108687 1.075608 0.000000 0.000000 0.000000
1.203400 1.104323 1.052726 0.000000 0.000000 0.000000
1.149107 1.097984 1.045598 0.000000 0.000000 0.000000
1.061032 1.229072 1.025882 0.000000 0.000000 0.000000
1.191609 1.033833 1.066688 0.000000 0.000000 0.000000
1.057981 1.194893 1.045067 0.000000 0.000000 0.000000
1.132387 0.982214 1.109856 0.000000 0.000000 0.000000
1.167854 1.085470 1.048426 0.000000 0.000000 0.000000
1.044924 1.233979 1.030846 0.000000 0.000000 0.000000
1.052574 1.039448 1.101868 0.000000 0.000000 0.000000
1.049288 1.018841 1.107115 0.000000 0.000000 0.000000
1.180268 1.103541 1.059125 0.000000 0.000000 0.000000
1.180221 0.989418 1.099778 0.000000 0.000000 0.000000
1.183526 0.993009 1.099409 0.000000 0.000000 0.000000
1.131506 1.003981 1.110682 0.000000 0.000000 0.000000
1.022585 1.112920 1.075544 0.000000 0.000000 0.000000
1.163561 1.136635 1.037374 0.000000 0.000000 0.000000
1.109681 0.990934 1.110879 0.000000 0.000000 0.000000
1.110433 1.254625 1.009382 0.000000 0.000000 0.000000
1.038954 1.164501 1.053141 0.000000 0.000000 0.000000
1.022520 1.132906 1.077461 0.000000 0.000000 0.000000
1.032879 1.035640 1.102813 0.000000 0.000000 0.000000
1.141446 1.212070 1.013241 0.000000 0.000000 0.000000
1.088162 1.176493 1.040975 0.000000 0.000000 0.000000
1.081316 1.203249 1.030486 0.000000 0.000000 0.000000
1.044272 1.199366 1.042465 0.000000 0.000000 0.000000
1.177010 1.189766 1.010844 0.000000 0.000000 0.000000
1.075233 1.188474 1.045340 0.000000 0.000000 0.000000
1.052290 1.219623 1.034344 0.000000 0.000000 0.000000
1.221039 1.100907 1.017837 0.000000 0.000000 0.000000
1.041110 1.199266 1.045208 0.000000 0.000000 0.000000
1.185345 1.177482 1.012224 0.000000 0.000000 0.000000
1.159617 1.196008 1.013786 0.000000 0.000000 0.000000
1.012809 1.135383 1.073678 0.000000 0.000000 0.000000
1.150561 1.188667 1.016930 0.000000 0.000000 0.000000
1.096581 1.195103 1.031958 0.000000 0.000000 0.000000
1.156717 1.152305 1.027655 0.000000 0.000000 0.000000
1.103018 1.188878 1.034176 0.000000 0.000000 0.000000
1.044156 1.185374 1.040682 0.000000 0.000000 0.000000
1.170753 1.186681 1.013218 0.000000 0.000000 0.000000
1.187371 1.181637 1.012394 0.000000 0.000000 0.000000
1.022938 1.064737 1.096951 0.000000 0.000000 0.000000
1.044351 1.225259 1.034196 0.000000 0.000000 0.000000
1.168271 1.204465 1.010086 0.000000 0.000000 0.000000
1.053876 1.043006 1.108099 0.000000 0.000000 0.000000
1.192217 1.171140 1.011545 0.000000 0.000000 0.000000
1.048042 1.217103 1.042671 0.000000 0.000000 0.000000
1.168964 1.197464 1.012011 0.000000 0.000000 0.000000
1.183792 1.162702 1.015298 0.000000 0.000000 0.000000
1.037754 1.039821 1.105063 0.000000 0.000000 0.000000
1.079873 1.239689 1.017512 0.000000 0.000000 0.000000
1.081550 1.191400 1.036465 0.000000 0.000000 0.000000
1.109308 1.244330 1.009229 0.000000 0.000000 0.000000
1.037738 1.221600 1.030120 0.000000 0.000000 0.000000
1.076756 1.005930 1.115517 0.000000 0.000000 0.000000
1.132841 0.990991 1.103739 0.000000 0.000000 0.000000
1.119516 1.012315 1.110057 0.000000 0.000000 0.000000
1.065014 1.206553 1.038234 0.000000 0.000000 0.000000
1.041683 1.195826 1.050273 0.000000 0.000000 0.000000
1.094055 1.212776 1.031923 0.000000 0.000000 0.000000
1.070657 1.199011 1.030611 0.000000 0.000000 0.000000
1.055797 1.240941 1.024547 0.000000 0.000000 0.000000
1.156190 1.211486 1.011237 0.000000 0.000000 0.000000
1.069184 1.231845 1.024054 0.000000 0.000000 0.000000
1.142183 0.996020 1.103893 0.000000 0.000000 0.000000
1.113053 1.183562 1.032461 0.000000 0.000000 0.000000
1.095028 0.988381 1.112580 0.000000 0.000000 0.000000
1.020721 1.142268 1.077193 0.000000 0.000000 0.000000
1.026869 1.059898 1.100211 0.000000 0.000000 0.000000
1.031632 1.179650 1.056564 0.000000 0.000000 0.000000
1.130289 1.197724 1.024366 0.000000 0.000000 0.000000
1.072882 1.250648 1.017983 0.000000 0.000000 0.000000
1.118636 1.223964 1.023796 0.000000 0.000000 0.000000
1.123339 1.245761 1.007541 0.000000 0.000000 0.000000
1.059469 1.188036 1.052306 0.000000 0.000000 0.000000
1.076253 1.259116 1.015209 0.000000 0.000000 0.000000
1.115486 1.241558 1.010087 0.000000 0.000000 0.000000
1.123875 1.243279 1.006837 0.000000 0.000000 0.000000
1.057225 1.178920 1.040945 0.000000 0.000000 0.000000
1.108604 1.244610 1.010698 0.000000 0.000000 0.000000
1.225798 1.072492 1.029525 0.000000 0.000000 0.000000
1.171607 0.987140 1.102812 0.000000 0.000000 0.000000
1.174867 1.203609 1.012790 0.000000 0.000000 0.000000
1.086304 1.263953 1.006866 0.000000 0.000000 0.000000
1.050717 1.241644 1.026422 0.000000 0.000000 0.000000
1.051074 1.070951 1.098805 0.000000 0.000000 0.000000
1.206154 1.090359 1.033030 0.000000 0.000000 0.000000
1.018228 1.137215 1.070621 0.000000 0.000000 0.000000
1.100827 1.258092 1.009387 0.000000 0.000000 0.000000
1.072496 1.255051 1.014814 0.000000 0.000000 0.000000
1.059716 1.247069 1.022069 0.000000 0.000000 0.000000
1.134677 1.218782 1.013661 0.000000 0.000000 0.000000
1.180831 1.157070 1.017522 0.000000 0.000000 0.000000
1.034223 1.069008 1.099797 0.000000 0.000000 0.000000
1.121651 0.994465 1.106954 0.000000 0.000000 0.000000
1.183743 1.172578 1.013730 0.000000 0.000000 0.000000
1.032513 1.060133 1.098440 0.000000 0.000000 0.000000
1.209190 1.079158 1.044144 0.000000 0.000000 0.000000
1.093498 1.247501 1.015202 0.000000 0.000000 0.000000
1.106956 0.996188 1.116940 0.000000 0.000000 0.000000
1.113447 1.242896 1.011932 0.000000 0.000000 0.000000
1.062748 1.251359 1.019887 0.000000 0.000000 0.000000
1.144547 1.217818 1.013146 0.000000 0.000000 0.000000
1.062214 1.250252 1.013637 0.000000 0.000000 0.000000
1.109454 0.995527 1.110678 0.000000 0.000000 0.000000
1.044109 1.051826 1.100500 0.000000 0.000000 0.000000
1.089123 0.997120 1.115811 0.000000 0.000000 0.000000
1.065405 1.057907 1.104061 0.000000 0.000000 0.000000
1.032956 1.060115 1.094173 0.000000 0.000000 0.000000
1.027027 1.053770 1.099611 0.000000 0.000000 0.000000
1.191944 1.013697 1.082385 0.000000 0.000000 0.000000
1.196012 1.009361 1.079852 0.000000 0.000000 0.000000
1.046214 1.201279 1.042846 0.000000 0.000000 0.000000
1.083691 1.253806 1.014771 0.000000 0.000000 0.000000
1.039336 1.217498 1.040012 0.000000 0.000000 0.000000
1.048932 1.230662 1.032230 0.000000 0.000000 0.000000
1.198158 1.039593 1.065484 0.000000 0.000000 0.000000
1.032207 1.131621 1.065810 0.000000 0.000000 0.000000
1.025209 1.189248 1.051723 0.000000 0.000000 0.000000
1.041754 1.221357 1.040387 0.000000 0.000000 0.000000
1.024114 1.092594 1.084343 0.000000 0.000000 0.000000
1.041996 1.224756 1.036803 0.000000 0.000000 0.000000
1.046132 1.183558 1.049421 0.000000 0.000000 0.000000
1.085898 1.007416 1.111927 0.000000 0.000000 0.000000
1.045080 1.214822 1.039554 0.000000 0.000000 0.000000
1.152238 0.986817 1.102547 0.000000 0.000000 0.000000
1.056894 1.247589 1.023401 0.000000 0.000000 0.000000
1.057650 1.244244 1.023541 0.000000 0.000000 0.000000
1.050927 1.225277 1.033302 0.000000 0.000000 0.000000
1.043405 1.201426 1.037165 0.000000 0.000000 0.000000
1.064620 1.241932 1.027351 0.000000 0.000000 0.000000
1.142593 0.980819 1.107070 0.000000 0.000000 0.000000
1.018809 1.151900 1.066378 0.000000 0.000000 0.000000
1.214100 1.094208 1.030527 0.000000 0.000000 0.000000
1.043482 1.217127 1.039064 0.000000 0.000000 0.000000
1.068373 1.241652 1.019964 0.000000 0.000000 0.000000
1.085473 1.250757 1.013345 0.000000 0.000000 0.000000
1.046635 1.199275 1.039758 0.000000 0.000000 0.000000
1.057616 1.227218 1.028192 0.000000 0.000000 0.000000
1.019401 1.169933 1.062466 0.000000 0.000000 0.000000
1.018683 1.146423 1.068512 0.000000 0.000000 0.000000
1.042596 1.036990 1.102053 0.000000 0.000000 0.000000
1.198882 1.061945 1.059688 0.000000 0.000000 0.000000
1.177138 1.049902 1.065779 0.000000 0.000000 0.000000
1.220567 1.058129 1.042264 0.000000 0.000000 0.000000
1.043245 1.216913 1.039397 0.000000 0.000000 0.000000
1.177785 1.100524 1.040907 0.000000 0.000000 0.000000
1.184077 1.077760 1.046507 0.000000 0.000000 0.000000
1.225439 1.042083 1.038657 0.000000 0.000000 0.000000
1.196138 1.025656 1.065974 0.000000 0.000000 0.000000
1.095688 0.996321 1.111589 0.000000 0.000000 0.000000
1.171157 1.082986 1.049126 0.000000 0.000000 0.000000
1.218507 1.098818 1.024393 0.000000 0.000000 0.000000
1.226629 1.047159 1.059451 0.000000 0.000000 0.000000
1.028978 1.213072 1.044738 0.000000 0.000000 0.000000
1.091035 1.175951 1.037434 0.000000 0.000000 0.000000
1.225911 1.045415 1.042004 0.000000 0.000000 0.000000
1.225983 1.077065 1.028485 0.000000 0.000000 0.000000
1.032262 1.216287 1.042870 0.000000 0.000000 0.000000
1.037253 1.126952 1.085113 0.000000 0.000000 0.000000
1.029204 1.094685 1.094677 0.000000 0.000000 0.000000
1.216035 1.069868 1.048179 0.000000 0.000000 0.000000
1.047168 1.144438 1.070182 0.000000 0.000000 0.000000
1.077741 0.996697 1.112613 0.000000 0.000000 0.000000
1.056401 1.249410 1.017114 0.000000 0.000000 0.000000
1.016062 1.166173 1.065219 0.000000 0.000000 0.000000
1.131224 1.227400 1.010875 0.000000 0.000000 0.000000
1.090449 1.241690 1.014429 0.000000 0.000000 0.000000
1.022006 1.184257 1.053686 0.000000 0.000000 0.000000
1.225281 1.086003 1.031544 0.000000 0.000000 0.000000
1.140016 1.231396 1.013330 0.000000 0.000000 0.000000
1.092752 1.197517 1.020106 0.000000 0.000000 0.000000
1.022496 1.156206 1.072377 0.000000 0.000000 0.000000
1.217436 1.068424 1.035169 0.000000 0.000000 0.000000
1.099103 1.254292 1.009961 0.000000 0.000000 0.000000
1.019014 1.180795 1.052778 0.000000 0.000000 0.000000
1.131017 1.240159 1.008309 0.000000 0.000000 0.000000
1.208525 1.066063 1.035298 0.000000 0.000000 0.000000
1.142580 1.230188 1.008161 0.000000 0.000000 0.000000
1.076644 0.994774 1.113276 0.000000 0.000000 0.000000
1.219849 1.048041 1.056929 0.000000 0.000000 0.000000
1.024138 1.187895 1.054117 0.000000 0.000000 0.000000
1.225075 1.059588 1.035010 0.000000 0.000000 0.000000
1.068447 1.249537 1.013992 0.000000 0.000000 0.000000
1.067534 1.243287 1.028616 0.000000 0.000000 0.000000
1.025962 1.096733 1.089936 0.000000 0.000000 0.000000
1.200740 1.081704 1.030996 0.000000 0.000000 0.000000
1.064390 1.237065 1.028385 0.000000 0.000000 0.000000
1.019908 1.083952 1.094192 0.000000 0.000000 0.000000
1.088156 1.198353 1.037228 0.000000 0.000000 0.000000
1.073340 1.026688 1.101412 0.000000 0.000000 0.000000
1.036032 1.145317 1.061187 0.000000 0.000000 0.000000
1.048774 1.089694 1.090446 0.000000 0.000000 0.000000
1.043217 1.034029 1.105915 0.000000 0.000000 0.000000
1.051177 1.035246 1.097534 0.000000 0.000000 0.000000
1.063111 1.071035 1.080037 0.000000 0.000000 0.000000
1.057221 1.024058 1.099355 0.000000 0.000000 0.000000
1.032466 1.082530 1.092321 0.000000 0.000000 0.000000
1.187759 0.991912 1.099680 0.000000 0.000000 0.000000
1.054010 1.048491 1.094559 0.000000 0.000000 0.000000
1.056398 1.008801 1.110355 0.000000 0.000000 0.000000
1.063263 1.064536 1.086401 0.000000 0.000000 0.000000
1.064334 1.014464 1.107551 0.000000 0.000000 0.000000
1.058986 1.054718 1.095498 0.000000 0.000000 0.000000
1.029769 1.059142 1.098151 0.000000 0.000000 0.000000
1.033573 1.123424 1.068114 0.000000 0.000000 0.000000
1.042019 1.067973 1.098667 0.000000 0.000000 0.000000
1.124472 1.088988 1.057670 0.000000 0.000000 0.000000
1.047635 1.139512 1.053973 0.000000 0.000000 0.000000
1.175759 1.015608 1.090199 0.000000 0.000000 0.000000
1.094542 1.077516 1.070832 0.000000 0.000000 0.000000
1.046231 1.018954 1.107489 0.000000 0.000000 0.000000
1.060149 1.010651 1.110449 0.000000 0.000000 0.000000
1.039110 1.058069 1.103216 0.000000 0.000000 0.000000
1.173844 1.208437 1.009739 0.000000 0.000000 0.000000
1.129651 1.130336 1.043503 0.000000 0.000000 0.000000
1.046184 1.240473 1.029203 0.000000 0.000000 0.000000
1.099585 0.985557 1.112650 0.000000 0.000000 0.000000
1.074137 0.994930 1.114033 0.000000 0.000000 0.000000
1.169969 1.207185 1.000613 0.000000 0.000000 0.000000
1.014942 1.106026 1.081661 0.000000 0.000000 0.000000
1.145675 1.113074 1.041623 0.000000 0.000000 0.000000
1.228186 1.104997 1.032538 0.000000 0.000000 0.000000
1.055204 1.231384 1.027141 0.000000 0.000000 0.000000
1.142484 1.199463 1.014980 0.000000 0.000000 0.000000
1.072233 0.991317 1.116345 0.000000 0.000000 0.000000
1.063463 1.255418 1.016023 0.000000 0.000000 0.000000
1.189759 0.985716 1.101633 0.000000 0.000000 0.000000
1.115856 1.182739 1.027214 0.000000 0.000000 0.000000
1.018383 1.119531 1.075684 0.000000 0.000000 0.000000
1.022181 1.079834 1.098178 0.000000 0.000000 0.000000
1.044878 1.216569 1.037071 0.000000 0.000000 0.000000
1.065483 1.222147 1.030004 0.000000 0.000000 0.000000
1.051858 1.247038 1.024968 0.000000 0.000000 0.000000
1.189441 1.076148 1.038427 0.000000 0.000000 0.000000
1.015443 1.092177 1.085844 0.000000 0.000000 0.000000
1.194116 0.991492 1.098296 0.000000 0.000000 0.000000
1.015139 1.093929 1.093500 0.000000 0.000000 0.000000
1.188056 1.012711 1.089068 0.000000 0.000000 0.000000
1.073930 1.224329 1.026907 0.000000 0.000000 0.000000
1.220993 1.104580 1.016317 0.000000 0.000000 0.000000
1.054155 1.204735 1.036474 0.000000 0.000000 0.000000
1.192266 1.061913 1.046828 0.000000 0.000000 0.000000
1.163356 1.047521 1.076937 0.000000 0.000000 0.000000
1.131412 0.982806 1.106768 0.000000 0.000000 0.000000
1.025703 1.165262 1.059339 0.000000 0.000000 0.000000
1.166014 1.057228 1.071035 0.000000 0.000000 0.000000
1.082253 0.990645 1.113107 0.000000 0.000000 0.000000
1.032158 1.148209 1.061247 0.000000 0.000000 0.000000
1.091340 0.993815 1.110630 0.000000 0.000000 0.000000
1.028805 1.063744 1.096771 0.000000 0.000000 0.000000
1.085144 1.010895 1.111641 0.000000 0.000000 0.000000
1.036962 1.188120 1.051671 0.000000 0.000000 0.000000
1.026947 1.200022 1.049509 0.000000 0.000000 0.000000
1.082604 1.001644 1.115597 0.000000 0.000000 0.000000
1.045170 1.018126 1.107440 0.000000 0.000000 0.000000
1.066650 1.005503 1.109344 0.000000 0.000000 0.000000
1.072883 0.997942 1.113725 0.000000 0.000000 0.000000
1.036444 1.207989 1.044622 0.000000 0.000000 0.000000
1.069679 1.003536 1.112679 0.000000 0.000000 0.000000
1.032885 1.152123 1.073199 0.000000 0.000000 0.000000
1.029100 1.124552 1.085905 0.000000 0.000000 0.000000
1.016322 1.100293 1.086949 0.000000 0.000000 0.000000
1.016553 1.169194 1.067026 0.000000 0.000000 0.000000
1.025444 1.196267 1.052093 0.000000 0.000000 0.000000
1.076578 1.254652 1.014902 0.000000 0.000000 0.000000
1.072155 1.256665 1.016952 0.000000 0.000000 0.000000
1.097870 1.004683 1.110410 0.000000 0.000000 0.000000
1.063310 1.005795 1.111520 0.000000 0.000000 0.000000
1.023164 1.144192 1.073321 0.000000 0.000000 0.000000
1.099939 1.256769 1.007264 0.000000 0.000000 0.000000
1.065289 1.010929 1.108451 0.000000 0.000000 0.000000
1.045478 1.020958 1.107885 0.000000 0.000000 0.000000
1.084088 1.254207 1.009468 0.000000 0.000000 0.000000
1.067334 1.025469 1.111004 0.000000 0.000000 0.000000
1.137468 0.983272 1.111624 0.000000 0.000000 0.000000
1.019590 1.156924 1.063333 0.000000 0.000000 0.000000
1.106015 1.251510 1.009462 0.000000 0.000000 0.000000
1.077603 0.990013 1.112871 0.000000 0.000000 0.000000
1.094933 0.997934 1.109683 0.000000 0.000000 0.000000
1.023811 1.183591 1.058851 0.000000 0.000000 0.000000
1.024825 1.171549 1.060699 0.000000 0.000000 0.000000
1.084549 1.257852 1.013006 0.000000 0.000000 0.000000
1.070872 1.258463 1.016554 0.000000 0.000000 0.000000
1.175583 1.199129 1.008229 0.000000 0.000000 0.000000
1.064768 1.018882 1.111917 0.000000 0.000000 0.000000
1.182626 1.192096 1.011991 0.000000 0.000000 0.000000
1.086571 1.259662 1.011062 0.000000 0.000000 0.000000
1.082493 1.003398 1.114464 0.000000 0.000000 0.000000
1.070793 0.999167 1.110336 0.000000 0.000000 0.000000
1.071167 1.246932 1.014822 0.000000 0.000000 0.000000
1.084742 1.238234 1.016691 0.000000 0.000000 0.000000
1.041455 1.175552 1.055531 0.000000 0.000000 0.000000
1.123582 0.980671 1.110934 0.000000 0.000000 0.000000
1.030083 1.178275 1.058205 0.000000 0.000000 0.000000
1.029928 1.160509 1.071158 0.000000 0.000000 0.000000
1.215905 1.092323 1.025381 0.000000 0.000000 0.000000
1.218814 1.119701 1.016961 0.000000 0.000000 0.000000
1.020239 1.166857 1.060629 0.000000 0.000000 0.000000
1.211410 1.085441 1.026469 0.000000 0.000000 0.000000
1.016598 1.108023 1.080006 0.000000 0.000000 0.000000
1.104548 1.207141 1.024912 0.000000 0.000000 0.000000
1.026131 1.192926 1.052239 0.000000 0.000000 0.000000
1.221853 1.088831 1.022303 0.000000 0.000000 0.000000
1.225573 1.094063 1.018417 0.000000 0.000000 0.000000
1.022391 1.179717 1.054383 0.000000 0.000000 0.000000
1.020092 1.155049 1.061302 0.000000 0.000000 0.000000
1.027549 1.204435 1.046996 0.000000 0.000000 0.000000
1.117075 0.995708 1.109853 0.000000 0.000000 0.000000
1.222264 1.127018 1.048247 0.000000 0.000000 0.000000
1.091282 0.987477 1.113126 0.000000 0.000000 0.000000
1.064852 1.254274 1.022458 0.000000 0.000000 0.000000
1.066101 1.257512 1.017794 0.000000 0.000000 0.000000
1.223219 1.118648 1.022026 0.000000 0.000000 0.000000
1.063570 1.256129 1.020716 0.000000 0.000000 0.000000
1.071204 1.261107 1.015431 0.000000 0.000000 0.000000
1.086450 1.023209 1.098562 0.000000 0.000000 0.000000
1.201774 1.162579 1.008594 0.000000 0.000000 0.000000
1.025937 1.074278 1.096779 0.000000 0.000000 0.000000
1.089937 1.259113 1.011656 0.000000 0.000000 0.000000
1.048875 1.230100 1.036296 0.000000 0.000000 0.000000
1.085537 1.253428 1.015702 0.000000 0.000000 0.000000
1.016814 1.098776 1.084691 0.000000 0.000000 0.000000
1.049497 1.241544 1.028415 0.000000 0.000000 0.000000
1.027397 1.123180 1.072661 0.000000 0.000000 0.000000
1.044871 1.239417 1.028948 0.000000 0.000000 0.000000
1.020082 1.111479 1.078034 0.000000 0.000000 0.000000
1.047098 1.238972 1.028180 0.000000 0.000000 0.000000
1.054797 1.250920 1.022977 0.000000 0.000000 0.000000
1.021151 1.190660 1.056463 0.000000 0.000000 0.000000
1.072094 1.257357 1.015405 0.000000 0.000000 0.000000
1.026025 1.194531 1.050487 0.000000 0.000000 0.000000
1.056645 1.247409 1.022741 0.000000 0.000000 0.000000
1.030376 1.060419 1.098732 0.000000 0.000000 0.000000
1.096812 1.256606 1.009325 0.000000 0.000000 0.000000
1.034863 1.066430 1.090888 0.000000 0.000000 0.000000
1.032040 1.050480 1.101628 0.000000 0.000000 0.000000
1.222216 1.050000 1.046454 0.000000 0.000000 0.000000
1.065991 1.250533 1.019262 0.000000 0.000000 0.000000
1.050224 1.024833 1.107040 0.000000 0.000000 0.000000
1.223513 1.041697 1.043867 0.000000 0.000000 0.000000
1.208221 1.069585 1.053746 0.000000 0.000000 0.000000
1.206200 1.046196 1.050026 0.000000 0.000000 0.000000
1.227365 1.045559 1.043158 0.000000 0.000000 0.000000
1.223919 1.057178 1.065428 0.000000 0.000000 0.000000
1.218305 1.054181 1.042885 0.000000 0.000000 0.000000
1.051233 1.013052 1.109550 0.000000 0.000000 0.000000
1.031263 1.172853 1.056890 0.000000 0.000000 0.000000
1.019612 1.080551 1.092821 0.000000 0.000000 0.000000
1.017930 1.117494 1.076225 0.000000 0.000000 0.000000
1.213898 1.049407 1.060780 0.000000 0.000000 0.000000
1.215890 1.051949 1.042190 0.000000 0.000000 0.000000
1.227630 1.068537 1.035445 0.000000 0.000000 0.000000
1.114609 0.987533 1.111688 0.000000 0.000000 0.000000
1.226187 1.085500 1.039228 0.000000 0.000000 0.000000
1.025581 1.081187 1.093172 0.000000 0.000000 0.000000
1.211715 1.093866 1.027253 0.000000 0.000000 0.000000
1.017387 1.119033 1.077790 0.000000 0.000000 0.000000
1.048231 1.024293 1.104940 0.000000 0.000000 0.000000
1.045675 1.243222 1.030864 0.000000 0.000000 0.000000
1.062928 1.248215 1.020865 0.000000 0.000000 0.000000
1.093045 1.261570 1.009501 0.000000 0.000000 0.000000
1.041930 1.043571 1.108256 0.000000 0.000000 0.000000
1.051851 1.243620 1.025146 0.000000 0.000000 0.000000
1.039312 1.067553 1.102767 0.000000 0.000000 0.000000
1.026683 1.084065 1.087890 0.000000 0.000000 0.000000
1.018305 1.124124 1.073567 0.000000 0.000000 0.000000
1.026467 1.107565 1.088123 0.000000 0.000000 0.000000
1.035013 1.049747 1.099264 0.000000 0.000000 0.000000
1.030976 1.048786 1.101551 0.000000 0.000000 0.000000
1.045823 1.234643 1.030002 0.000000 0.000000 0.000000
1.130570 0.975178 1.114183 0.000000 0.000000 0.000000
1.223190 1.062842 1.039236 0.000000 0.000000 0.000000
1.028557 1.093530 1.079814 0.000000 0.000000 0.000000
1.014962 1.093850 1.085864 0.000000 0.000000 0.000000
1.139360 1.092819 1.081536 0.000000 0.000000 0.000000
1.199237 1.000913 1.083528 0.000000 0.000000 0.000000
1.035049 1.175067 1.049457 0.000000 0.000000 0.000000
1.016773 1.151409 1.068780 0.000000 0.000000 0.000000
1.154791 1.076152 1.074050 0.000000 0.000000 0.000000
1.021301 1.110546 1.077468 0.000000 0.000000 0.000000
1.017211 1.130239 1.071315 0.000000 0.000000 0.000000
1.225200 1.057546 1.035049 0.000000 0.000000 0.000000
1.198492 0.997594 1.087460 0.000000 0.000000 0.000000
1.029548 1.082526 1.091777 0.000000 0.000000 0.000000
1.097166 0.991625 1.110417 0.000000 0.000000 0.000000
1.021195 1.077157 1.095602 0.000000 0.000000 0.000000
1.026595 1.070408 1.092651 0.000000 0.000000 0.000000
1.023800 1.070373 1.098224 0.000000 0.000000 0.000000
1.075590 1.203820 1.029382 0.000000 0.000000 0.000000
1.192575 1.015034 1.074154 0.000000 0.000000 0.000000
1.194307 1.001895 1.089430 0.000000 0.000000 0.000000
1.083202 0.990749 1.113669 0.000000 0.000000 0.000000
1.223164 1.074164 1.028485 0.000000 0.000000 0.000000
1.022711 1.170263 1.058897 0.000000 0.000000 0.000000
1.090799 1.190070 1.032621 0.000000 0.000000 0.000000
1.020210 1.121478 1.081058 0.000000 0.000000 0.000000
1.186736 1.000896 1.096104 0.000000 0.000000 0.000000
1.081809 0.987637 1.116164 0.000000 0.000000 0.000000
1.105461 1.199646 1.028638 0.000000 0.000000 0.000000
1.196115 0.996601 1.090247 0.000000 0.000000 0.000000
1.197921 0.992986 1.088571 0.000000 0.000000 0.000000
1.023476 1.163714 1.062293 0.000000 0.000000 0.000000
1.022556 1.177922 1.056715 0.000000 0.000000 0.000000
1.196629 1.008913 1.083241 0.000000 0.000000 0.000000
1.061172 1.045962 1.104424 0.000000 0.000000 0.000000
1.032791 1.071974 1.092870 0.000000 0.000000 0.000000
1.217777 1.075588 1.032472 0.000000 0.000000 0.000000
1.044621 1.034045 1.107756 0.000000 0.000000 0.000000
1.050264 1.026376 1.107003 0.000000 0.000000 0.000000
1.031770 1.046391 1.102407 0.000000 0.000000 0.000000
1.018427 1.079976 1.089702 0.000000 0.000000 0.000000
1.202151 1.163021 1.008484 0.000000 0.000000 0.000000
1.182438 1.185342 1.011662 0.000000 0.000000 0.000000
1.066972 1.262066 1.015371 0.000000 0.000000 0.000000
1.037998 1.072489 1.091687 0.000000 0.000000 0.000000
1.025076 1.075243 1.094430 0.000000 0.000000 0.000000
1.225732 1.063994 1.031845 0.000000 0.000000 0.000000
1.224253 1.106074 1.027913 0.000000 0.000000 0.000000
1.230928 1.103637 1.026416 0.000000 0.000000 0.000000
1.054293 1.024288 1.103735 0.000000 0.000000 0.000000
1.039133 1.026415 1.105350 0.000000 0.000000 0.000000
1.034865 1.030253 1.104604 0.000000 0.000000 0.000000
1.025320 1.066426 1.100144 0.000000 0.000000 0.000000
1.231811 1.092906 1.027930 0.000000 0.000000 0.000000
1.228099 1.091013 1.031090 0.000000 0.000000 0.000000
1.214776 1.103823 1.020863 0.000000 0.000000 0.000000
1.208021 1.099483 1.027133 0.000000 0.000000 0.000000
1.209083 1.105058 1.031025 0.000000 0.000000 0.000000
1.032919 1.059088 1.100597 0.000000 0.000000 0.000000
1.056729 1.006715 1.111602 0.000000 0.000000 0.000000
1.021228 1.073877 1.098446 0.000000 0.000000 0.000000
1.015707 1.113517 1.084040 0.000000 0.000000 0.000000
1.230520 1.109542 1.021840 0.000000 0.000000 0.000000
1.215056 1.110035 1.018302 0.000000 0.000000 0.000000
1.213710 1.100941 1.049180 0.000000 0.000000 0.000000
1.221272 1.116856 1.019051 0.000000 0.000000 0.000000
1.231325 1.099400 1.038724 0.000000 0.000000 0.000000
1.052596 1.010992 1.110216 0.000000 0.000000 0.000000
1.051288 1.033679 1.102908 0.000000 0.000000 0.000000
1.015092 1.108005 1.083619 0.000000 0.000000 0.000000
1.027521 1.057029 1.097722 0.000000 0.000000 0.000000
1.043164 1.027277 1.105260 0.000000 0.000000 0.000000
1.154886 1.224987 1.007996 0.000000 0.000000 0.000000
1.044071 1.194860 1.047000 0.000000 0.000000 0.000000
1.205249 1.073664 1.057251 0.000000 0.000000 0.000000
1.216007 1.060761 1.047597 0.000000 0.000000 0.000000
1.152224 1.226055 1.011512 0.000000 0.000000 0.000000
1.218583 1.064644 1.037143 0.000000 0.000000 0.000000
1.229091 1.063967 1.047177 0.000000 0.000000 0.000000
1.019467 1.089022 1.093170 0.000000 0.000000 0.000000
1.037128 1.031940 1.104617 0.000000 0.000000 0.000000
1.041325 1.027977 1.106575 0.000000 0.000000 0.000000
1.197364 0.996007 1.091029 0.000000 0.000000 0.000000
1.064919 1.257026 1.018532 0.000000 0.000000 0.000000
1.045342 1.230238 1.032436 0.000000 0.000000 0.000000
1.065400 1.259204 1.018079 0.000000 0.000000 0.000000
1.060791 1.256789 1.020172 0.000000 0.000000 0.000000
1.058729 1.253771 1.020719 0.000000 0.000000 0.000000
1.108850 0.993310 1.115855 0.000000 0.000000 0.000000
1.099976 0.987901 1.113872 0.000000 0.000000 0.000000
1.217432 1.072370 1.033787 0.000000 0.000000 0.000000
1.222096 1.045195 1.042822 0.000000 0.000000 0.000000
1.232265 1.113268 1.035425 0.000000 0.000000 0.000000
1.088096 0.990422 1.114327 0.000000 0.000000 0.000000
1.213396 1.087170 1.028315 0.000000 0.000000 0.000000
1.231943 1.097196 1.042229 0.000000 0.000000 0.000000
1.103937 1.213224 1.023321 0.000000 0.000000 0.000000
1.030312 1.074072 1.098241 0.000000 0.000000 0.000000
1.027385 1.184727 1.053023 0.000000 0.000000 0.000000
1.019555 1.100858 1.080262 0.000000 0.000000 0.000000
1.177028 0.988188 1.109575 0.000000 0.000000 0.000000
1.138426 1.001104 1.113142 0.000000 0.000000 0.000000
1.040746 1.218794 1.042002 0.000000 0.000000 0.000000
1.158774 1.003183 1.106872 0.000000 0.000000 0.000000
1.127731 0.989597 1.107101 0.000000 0.000000 0.000000
1.041591 1.231210 1.033286 0.000000 0.000000 0.000000
1.111978 1.248874 1.008619 0.000000 0.000000 0.000000
1.020030 1.173195 1.061876 0.000000 0.000000 0.000000
1.066914 1.017103 1.111998 0.000000 0.000000 0.000000
1.024562 1.187599 1.052231 0.000000 0.000000 0.000000
1.029872 1.055804 1.093700 0.000000 0.000000 0.000000
1.028137 1.197615 1.050695 0.000000 0.000000 0.000000
1.099843 0.984830 1.112911 0.000000 0.000000 0.000000
1.029031 1.209614 1.046670 0.000000 0.000000 0.000000
1.024411 1.188156 1.044820 0.000000 0.000000 0.000000
1.189111 0.988432 1.102518 0.000000 0.000000 0.000000
1.083015 1.000381 1.106322 0.000000 0.000000 0.000000
1.113808 0.975682 1.110440 0.000000 0.000000 0.000000
1.224622 1.054274 1.035876 0.000000 0.000000 0.000000
1.064131 1.257688 1.018058 0.000000 0.000000 0.000000
1.024661 1.079319 1.092701 0.000000 0.000000 0.000000
1.025538 1.064778 1.095406 0.000000 0.000000 0.000000
1.034286 1.037702 1.102061 0.000000 0.000000 0.000000
1.017800 1.077887 1.097712 0.000000 0.000000 0.000000
1.064729 1.003654 1.110548 0.000000 0.000000 0.000000
1.037846 1.040428 1.106229 0.000000 0.000000 0.000000
1.065813 0.998341 1.110005 0.000000 0.000000 0.000000
1.091543 1.241655 1.014715 0.000000 0.000000 0.000000
1.025440 1.059874 1.098365 0.000000 0.000000 0.000000
1.026964 1.072026 1.096343 0.000000 0.000000 0.000000
1.029863 1.048876 1.101411 0.000000 0.000000 0.000000
1.031678 1.213969 1.043968 0.000000 0.000000 0.000000
1.041561 1.220215 1.040286 0.000000 0.000000 0.000000
1.057503 1.010575 1.110251 0.000000 0.000000 0.000000
1.035780 1.223756 1.039503 0.000000 0.000000 0.000000
1.032540 1.212431 1.048602 0.000000 0.000000 0.000000
1.057875 1.008203 1.111153 0.000000 0.000000 0.000000
1.016175 1.096373 1.088080 0.000000 0.000000 0.000000
1.031651 1.212327 1.048466 0.000000 0.000000 0.000000
1.019268 1.081767 1.092518 0.000000 0.000000 0.000000
1.105067 0.989409 1.112755 0.000000 0.000000 0.000000
1.027668 1.208654 1.053250 0.000000 0.000000 0.000000
1.105909 0.989475 1.110747 0.000000 0.000000 0.000000
1.103812 0.986504 1.113082 0.000000 0.000000 0.000000
1.099095 0.990518 1.113561 0.000000 0.000000 0.000000
1.118364 0.981291 1.111321 0.000000 0.000000 0.000000
1.102387 0.985037 1.112029 0.000000 0.000000 0.000000
1.057600 1.005970 1.109328 0.000000 0.000000 0.000000
1.123905 0.986463 1.108668 0.000000 0.000000 0.000000
1.034203 1.208805 1.046283 0.000000 0.000000 0.000000
1.099775 0.987464 1.113408 0.000000 0.000000 0.000000
1.069495 1.001020 1.112636 0.000000 0.000000 0.000000
1.178497 0.989235 1.105369 0.000000 0.000000 0.000000
1.113215 0.984620 1.111965 0.000000 0.000000 0.000000
1.119850 0.981458 1.110778 0.000000 0.000000 0.000000
1.065003 1.003468 1.112857 0.000000 0.000000 0.000000
1.018444 1.100894 1.082558 0.000000 0.000000 0.000000
1.023249 1.098619 1.081226 0.000000 0.000000 0.000000
1.018246 1.128211 1.075563 0.000000 0.000000 0.000000
1.015853 1.099739 1.086832 0.000000 0.000000 0.000000
1.015010 1.098739 1.088336 0.000000 0.000000 0.000000
1.069078 1.221304 1.022929 0.000000 0.000000 0.000000
1.079824 1.201017 1.030817 0.000000 0.000000 0.000000
1.223124 1.095826 1.017591 0.000000 0.000000 0.000000
1.021574 1.138963 1.064420 0.000000 0.000000 0.000000
1.086555 1.216146 1.026790 0.000000 0.000000 0.000000
1.076640 1.202488 1.031688 0.000000 0.000000 0.000000
1.074478 1.260850 1.015180 0.000000 0.000000 0.000000
1.223307 1.103713 1.014606 0.000000 0.000000 0.000000
1.023334 1.070005 1.100147 0.000000 0.000000 0.000000
1.138987 1.136289 1.039667 0.000000 0.000000 0.000000
1.173264 1.048097 1.062282 0.000000 0.000000 0.000000
1.034275 1.149206 1.059580 0.000000 0.000000 0.000000
1.173992 1.021155 1.087824 0.000000 0.000000 0.000000
1.089011 1.073389 1.074444 0.000000 0.000000 0.000000
1.032789 1.144782 1.069564 0.000000 0.000000 0.000000
1.032036 1.032246 1.109351 0.000000 0.000000 0.000000
1.232407 1.061508 1.035191 0.000000 0.000000 0.000000
1.080440 1.173508 1.027303 0.000000 0.000000 0.000000
1.142600 1.000418 1.092626 0.000000 0.000000 0.000000
1.182950 1.046859 1.063593 0.000000 0.000000 0.000000
1.069017 1.264881 1.012210 0.000000 0.000000 0.000000
1.095133 1.141851 1.050933 0.000000 0.000000 0.000000
1.141263 1.092995 1.051794 0.000000 0.000000 0.000000
1.012248 1.111904 1.085721 0.000000 0.000000 0.000000
1.172617 0.975492 1.104995 0.000000 0.000000 0.000000
1.027048 1.053371 1.098524 0.000000 0.000000 0.000000
1.229365 1.063894 1.032605 0.000000 0.000000 0.000000
1.029936 1.054885 1.097914 0.000000 0.000000 0.000000
1.032377 1.218204 1.047760 0.000000 0.000000 0.000000
1.202005 1.067737 1.052198 0.000000 0.000000 0.000000
1.024786 1.150811 1.065152 0.000000 0.000000 0.000000
1.021865 1.162421 1.061568 0.000000 0.000000 0.000000
1.019412 1.082029 1.092741 0.000000 0.000000 0.000000
1.090349 1.205397 1.023853 0.000000 0.000000 0.000000
1.037410 1.203483 1.046920 0.000000 0.000000 0.000000
1.186382 1.045503 1.062262 0.000000 0.000000 0.000000
1.029735 1.158675 1.057929 0.000000 0.000000 0.000000
1.018156 1.094623 1.085478 0.000000 0.000000 0.000000
1.139409 1.054627 1.077742 0.000000 0.000000 0.000000
1.018253 1.156861 1.066543 0.000000 0.000000 0.000000
1.125465 1.240093 1.006705 0.000000 0.000000 0.000000
1.018433 1.174025 1.061406 0.000000 0.000000 0.000000
1.077010 1.256420 1.014115 0.000000 0.000000 0.000000
1.062529 1.249015 1.020911 0.000000 0.000000 0.000000
1.151600 1.223325 1.006999 0.000000 0.000000 0.000000
1.078127 1.260368 1.013221 0.000000 0.000000 0.000000
1.070118 1.260201 1.017032 0.000000 0.000000 0.000000
1.065915 1.257845 1.017704 0.000000 0.000000 0.000000
1.044118 1.236151 1.030916 0.000000 0.000000 0.000000
1.141994 1.227975 1.008624 0.000000 0.000000 0.000000
1.038407 1.229066 1.035680 0.000000 0.000000 0.000000
1.138062 1.240974 1.008154 0.000000 0.000000 0.000000
1.126381 1.247596 1.006723 0.000000 0.000000 0.000000
1.090436 1.260912 1.012552 0.000000 0.000000 0.000000
1.090416 1.261597 1.011364 0.000000 0.000000 0.000000
1.069929 1.257901 1.013894 0.000000 0.000000 0.000000
1.043615 1.228079 1.032101 0.000000 0.000000 0.000000
1.062538 1.252331 1.019974 0.000000 0.000000 0.000000
1.189861 0.992472 1.095083 0.000000 0.000000 0.000000
1.217995 1.099930 1.019363 0.000000 0.000000 0.000000
1.033286 1.035115 1.103585 0.000000 0.000000 0.000000
1.187283 0.991096 1.097517 0.000000 0.000000 0.000000
1.139321 1.012959 1.104417 0.000000 0.000000 0.000000
1.182598 0.996224 1.094738 0.000000 0.000000 0.000000
1.148740 1.062734 1.076596 0.000000 0.000000 0.000000
1.066477 1.001646 1.111447 0.000000 0.000000 0.000000
1.082046 0.993267 1.112803 0.000000 0.000000 0.000000
1.062537 1.257941 1.018502 0.000000 0.000000 0.000000
1.080068 1.261812 1.017143 0.000000 0.000000 0.000000
1.073066 0.997534 1.112119 0.000000 0.000000 0.000000
1.080174 0.996753 1.113928 0.000000 0.000000 0.000000
1.127592 0.989925 1.117068 0.000000 0.000000 0.000000
1.155782 0.993862 1.111436 0.000000 0.000000 0.000000
1.081872 0.996343 1.110969 0.000000 0.000000 0.000000
1.065922 1.003377 1.111336 0.000000 0.000000 0.000000
1.079477 0.993522 1.114296 0.000000 0.000000 0.000000
1.138588 0.981847 1.115255 0.000000 0.000000 0.000000
1.057683 1.010566 1.110641 0.000000 0.000000 0.000000
1.110158 1.260700 1.004645 0.000000 0.000000 0.000000
1.035983 1.219943 1.039314 0.000000 0.000000 0.000000
1.022565 1.179739 1.059198 0.000000 0.000000 0.000000
1.034883 1.187591 1.053920 0.000000 0.000000 0.000000
1.025615 1.087183 1.088639 0.000000 0.000000 0.000000
1.023028 1.065488 1.098694 0.000000 0.000000 0.000000
1.077689 1.254193 1.010386 0.000000 0.000000 0.000000
1.027386 1.067153 1.101395 0.000000 0.000000 0.000000
1.039258 1.198513 1.049283 0.000000 0.000000 0.000000
1.030769 1.211984 1.044199 0.000000 0.000000 0.000000
1.098216 1.258398 1.009589 0.000000 0.000000 0.000000
1.082079 1.262023 1.012558 0.000000 0.000000 0.000000
1.029238 1.053680 1.098976 0.000000 0.000000 0.000000
1.129597 1.250955 1.002517 0.000000 0.000000 0.000000
1.035807 1.221656 1.038291 0.000000 0.000000 0.000000
1.074611 1.261093 1.015113 0.000000 0.000000 0.000000
1.020287 1.187283 1.054704 0.000000 0.000000 0.000000
1.029274 1.208359 1.046296 0.000000 0.000000 0.000000
1.030238 1.215294 1.045150 0.000000 0.000000 0.000000
1.034864 1.216351 1.042247 0.000000 0.000000 0.000000
1.038033 1.199863 1.050276 0.000000 0.000000 0.000000
1.045095 1.200858 1.041083 0.000000 0.000000 0.000000
1.035436 1.211658 1.042426 0.000000 0.000000 0.000000
1.032501 1.205117 1.049491 0.000000 0.000000 0.000000
1.024426 1.201987 1.043422 0.000000 0.000000 0.000000
1.045323 1.198557 1.052100 0.000000 0.000000 0.000000
1.015873 1.138277 1.066476 0.000000 0.000000 0.000000
1.024292 1.203238 1.049403 0.000000 0.000000 0.000000
1.180089 0.982151 1.103630 0.000000 0.000000 0.000000
1.033306 1.211556 1.043402 0.000000 0.000000 0.000000
1.033243 1.203967 1.047484 0.000000 0.000000 0.000000
1.087000 0.984179 1.114255 0.000000 0.000000 0.000000
1.034564 1.197239 1.056993 0.000000 0.000000 0.000000
1.111409 1.251020 1.005871 0.000000 0.000000 0.000000
1.026396 1.045305 1.100147 0.000000 0.000000 0.000000
1.018177 1.086810 1.093364 0.000000 0.000000 0.000000
1.027281 1.204784 1.049134 0.000000 0.000000 0.000000
1.028537 1.204025 1.048921 0.000000 0.000000 0.000000
1.098441 1.250827 1.011656 0.000000 0.000000 0.000000
1.136894 1.239471 1.006960 0.000000 0.000000 0.000000
1.219947 1.103914 1.022685 0.000000 0.000000 0.000000
1.134352 1.242613 1.008894 0.000000 0.000000 0.000000
1.225287 1.073841 1.028318 0.000000 0.000000 0.000000
1.130664 1.219704 1.011163 0.000000 0.000000 0.000000
1.069521 1.257745 1.016623 0.000000 0.000000 0.000000
1.224617 1.091253 1.019483 0.000000 0.000000 0.000000
1.021267 1.130028 1.072759 0.000000 0.000000 0.000000
1.110113 1.242436 1.011014 0.000000 0.000000 0.000000
1.139158 1.238137 1.009583 0.000000 0.000000 0.000000
1.123513 1.244467 1.010989 0.000000 0.000000 0.000000
1.229794 1.073399 1.031781 0.000000 0.000000 0.000000
1.022881 1.074608 1.091998 0.000000 0.000000 0.000000
1.226339 1.064892 1.036425 0.000000 0.000000 0.000000
1.226915 1.077992 1.025262 0.000000 0.000000 0.000000
1.098004 1.243220 1.012059 0.000000 0.000000 0.000000
1.017646 1.079568 1.091810 0.000000 0.000000 0.000000
1.088732 1.132836 1.051896 0.000000 0.000000 0.000000
1.106814 1.250590 1.009770 0.000000 0.000000 0.000000
1.118911 1.239048 1.004282 0.000000 0.000000 0.000000
1.228000 1.074303 1.028317 0.000000 0.000000 0.000000
1.108963 1.242721 1.006183 0.000000 0.000000 0.000000
1.226730 1.085303 1.022011 0.000000 0.000000 0.000000
1.147164 1.229264 1.008966 0.000000 0.000000 0.000000
1.014561 1.130164 1.071499 0.000000 0.000000 0.000000
1.230478 1.054436 1.043055 0.000000 0.000000 0.000000
1.020378 1.089832 1.084193 0.000000 0.000000 0.000000
1.229785 1.055670 1.033685 0.000000 0.000000 0.000000
1.109700 1.253972 1.005563 0.000000 0.000000 0.000000
1.102850 1.134894 1.050984 0.000000 0.000000 0.000000
1.020711 1.080391 1.093687 0.000000 0.000000 0.000000
1.162652 0.998837 1.112889 0.000000 0.000000 0.000000
1.031879 1.204620 1.046543 0.000000 0.000000 0.000000
1.178235 0.993784 1.113329 0.000000 0.000000 0.000000
1.168200 1.001474 1.119197 0.000000 0.000000 0.000000
1.026038 1.196705 1.047675 0.000000 0.000000 0.000000
1.141273 0.990705 1.112142 0.000000 0.000000 0.000000
1.024661 1.064412 1.096073 0.000000 0.000000 0.000000
1.159357 1.217868 1.009698 0.000000 0.000000 0.000000
1.015379 1.116572 1.083743 0.000000 0.000000 0.000000
1.019168 1.116853 1.087139 0.000000 0.000000 0.000000
1.031398 1.064969 1.098038 0.000000 0.000000 0.000000
1.018325 1.147739 1.067067 0.000000 0.000000 0.000000
1.029941 1.051607 1.098827 0.000000 0.000000 0.000000
1.019011 1.132085 1.081573 0.000000 0.000000 0.000000
1.156810 0.977710 1.108349 0.000000 0.000000 0.000000
1.042865 1.018406 1.107390 0.000000 0.000000 0.000000
1.027973 1.058016 1.095940 0.000000 0.000000 0.000000
1.141703 0.986207 1.105810 0.000000 0.000000 0.000000
1.160000 0.981563 1.103207 0.000000 0.000000 0.000000
1.149800 0.983456 1.106059 0.000000 0.000000 0.000000
1.168415 0.980474 1.105517 0.000000 0.000000 0.000000
1.164014 0.980434 1.107582 0.000000 0.000000 0.000000
1.158790 0.978168 1.109325 0.000000 0.000000 0.000000
1.152518 0.988342 1.108858 0.000000 0.000000 0.000000
1.149616 0.993121 1.101929 0.000000 0.000000 0.000000
1.122415 0.982917 1.110374 0.000000 0.000000 0.000000
1.144304 0.979011 1.106692 0.000000 0.000000 0.000000
1.153483 0.980522 1.106982 0.000000 0.000000 0.000000
1.138756 0.972400 1.111677 0.000000 0.000000 0.000000
1.174699 0.982681 1.102775 0.000000 0.000000 0.000000
1.162647 0.987111 1.106702 0.000000 0.000000 0.000000
1.127886 0.991487 1.105362 0.000000 0.000000 0.000000
1.148515 0.980871 1.106185 0.000000 0.000000 0.000000
1.151479 0.977010 1.108324 0.000000 0.000000 0.000000
1.171445 0.980871 1.105348 0.000000 0.000000 0.000000
1.144165 0.979937 1.109194 0.000000 0.000000 0.000000
1.158751 0.979112 1.106782 0.000000 0.000000 0.000000
1.163133 0.982637 1.108064 0.000000 0.000000 0.000000
1.176602 0.985860 1.105611 0.000000 0.000000 0.000000
1.135387 0.977494 1.109939 0.000000 0.000000 0.000000
1.144020 0.977109 1.110898 0.000000 0.000000 0.000000
1.152826 0.972682 1.106922 0.000000 0.000000 0.000000
1.167153 0.982560 1.101452 0.000000 0.000000 0.000000
1.067143 1.254637 1.018724 0.000000 0.000000 0.000000
1.218730 1.100248 1.032335 0.000000 0.000000 0.000000
1.135507 1.228683 1.009543 0.000000 0.000000 0.000000
1.224300 1.115362 1.013772 0.000000 0.000000 0.000000
1.230787 1.109830 1.032758 0.000000 0.000000 0.000000
1.222899 1.119389 1.015658 0.000000 0.000000 0.000000
1.227346 1.048506 1.044150 0.000000 0.000000 0.000000
1.027803 1.056678 1.097758 0.000000 0.000000 0.000000
1.017876 1.088851 1.092170 0.000000 0.000000 0.000000
1.023263 1.072754 1.097411 0.000000 0.000000 0.000000
1.025890 1.078230 1.091833 0.000000 0.000000 0.000000
1.026540 1.066609 1.093032 0.000000 0.000000 0.000000
1.023623 1.068212 1.100796 0.000000 0.000000 0.000000
1.025001 1.063063 1.096721 0.000000 0.000000 0.000000
1.028630 1.165221 1.065776 0.000000 0.000000 0.000000
1.028100 1.056295 1.098242 0.000000 0.000000 0.000000
1.034080 1.199878 1.049624 0.000000 0.000000 0.000000
1.025033 1.192003 1.051776 0.000000 0.000000 0.000000
1.024227 1.077706 1.092541 0.000000 0.000000 0.000000
1.025148 1.074980 1.094932 0.000000 0.000000 0.000000
1.022640 1.066833 1.097369 0.000000 0.000000 0.000000
1.020879 1.081493 1.095441 0.000000 0.000000 0.000000
1.023385 1.191994 1.049641 0.000000 0.000000 0.000000
1.025436 1.073176 1.093459 0.000000 0.000000 0.000000
1.226185 1.047499 1.040865 0.000000 0.000000 0.000000
1.026330 1.193784 1.054784 0.000000 0.000000 0.000000
1.024958 1.139056 1.068243 0.000000 0.000000 0.000000
1.026174 1.196390 1.051027 0.000000 0.000000 0.000000
1.023398 1.081836 1.091513 0.000000 0.000000 0.000000
1.224316 1.052546 1.038396 0.000000 0.000000 0.000000
1.025879 1.189224 1.055552 0.000000 0.000000 0.000000
1.201386 1.141702 1.042265 0.000000 0.000000 0.000000
1.147015 1.221953 1.018042 0.000000 0.000000 0.000000
1.023877 1.193888 1.050715 0.000000 0.000000 0.000000
1.019077 1.087288 1.086998 0.000000 0.000000 0.000000
1.043377 1.224862 1.036096 0.000000 0.000000 0.000000
1.144699 1.231436 1.012962 0.000000 0.000000 0.000000
1.045082 1.229308 1.033055 0.000000 0.000000 0.000000
1.157473 1.224055 1.013817 0.000000 0.000000 0.000000
1.134966 1.235312 1.009861 0.000000 0.000000 0.000000
1.021178 1.176528 1.058346 0.000000 0.000000 0.000000
1.070294 1.206519 1.030732 0.000000 0.000000 0.000000
1.016620 1.095545 1.088324 0.000000 0.000000 0.000000
1.200309 1.152419 1.042795 0.000000 0.000000 0.000000
1.146048 1.232837 1.007233 0.000000 0.000000 0.000000
1.140001 1.230202 1.010336 0.000000 0.000000 0.000000
1.061945 1.200075 1.026130 0.000000 0.000000 0.000000
1.135933 1.236644 1.010784 0.000000 0.000000 0.000000
1.044073 1.190494 1.050905 0.000000 0.000000 0.000000
1.077282 1.206518 1.023779 0.000000 0.000000 0.000000
1.016921 1.103855 1.088842 0.000000 0.000000 0.000000
1.194041 1.167079 1.044896 0.000000 0.000000 0.000000
1.133045 1.239506 1.008685 0.000000 0.000000 0.000000
1.134381 1.235362 1.007501 0.000000 0.000000 0.000000
1.032778 1.043000 1.101262 0.000000 0.000000 0.000000
1.026983 1.072576 1.093351 0.000000 0.000000 0.000000
1.017415 1.125693 1.076905 0.000000 0.000000 0.000000
1.199070 1.170667 1.011130 0.000000 0.000000 0.000000
1.036512 1.229023 1.032834 0.000000 0.000000 0.000000
1.200944 1.172921 1.011987 0.000000 0.000000 0.000000
1.036953 1.231788 1.038503 0.000000 0.000000 0.000000
1.059007 1.190742 1.036658 0.000000 0.000000 0.000000
1.026463 1.054351 1.099983 0.000000 0.000000 0.000000
1.023898 1.093791 1.091599 0.000000 0.000000 0.000000
1.132278 1.170359 1.024230 0.000000 0.000000 0.000000
1.068069 1.183968 1.032495 0.000000 0.000000 0.000000
1.089071 1.262173 1.011071 0.000000 0.000000 0.000000
1.108811 0.983469 1.112599 0.000000 0.000000 0.000000
1.118889 1.167086 1.028332 0.000000 0.000000 0.000000
1.069217 1.166204 1.038302 0.000000 0.000000 0.000000
1.123458 1.101393 1.051927 0.000000 0.000000 0.000000
1.169987 1.179493 1.017194 0.000000 0.000000 0.000000
1.067765 1.193452 1.028814 0.000000 0.000000 0.000000
1.199272 1.170919 1.009365 0.000000 0.000000 0.000000
1.078682 1.147155 1.043095 0.000000 0.000000 0.000000
1.083504 1.261944 1.011702 0.000000 0.000000 0.000000
1.081115 1.130277 1.049382 0.000000 0.000000 0.000000
1.111261 0.983175 1.112331 0.000000 0.000000 0.000000
1.132690 1.139866 1.034204 0.000000 0.000000 0.000000
1.054037 1.178986 1.040124 0.000000 0.000000 0.000000
1.021543 1.076411 1.094704 0.000000 0.000000 0.000000
1.024387 1.072899 1.097896 0.000000 0.000000 0.000000
1.050815 1.228757 1.030537 0.000000 0.000000 0.000000
1.022502 1.073280 1.096562 0.000000 0.000000 0.000000
1.045694 1.226357 1.033140 0.000000 0.000000 0.000000
1.032092 1.048488 1.102246 0.000000 0.000000 0.000000
1.101048 1.142165 1.049177 0.000000 0.000000 0.000000
1.033778 1.039400 1.102696 0.000000 0.000000 0.000000
1.030637 1.213282 1.046688 0.000000 0.000000 0.000000
1.024014 1.058286 1.098251 0.000000 0.000000 0.000000
1.036457 1.222407 1.038132 0.000000 0.000000 0.000000
1.031600 1.052850 1.100510 0.000000 0.000000 0.000000
1.033070 1.041807 1.102212 0.000000 0.000000 0.000000
1.039446 1.215148 1.043173 0.000000 0.000000 0.000000
1.226961 1.061784 1.028555 0.000000 0.000000 0.000000
1.020490 1.064093 1.093873 0.000000 0.000000 0.000000
1.198002 1.150938 1.012462 0.000000 0.000000 0.000000
1.018301 1.084668 1.093522 0.000000 0.000000 0.000000
1.035816 1.221365 1.038741 0.000000 0.000000 0.000000
1.192670 1.162490 1.011243 0.000000 0.000000 0.000000
1.190622 1.184450 1.012349 0.000000 0.000000 0.000000
1.179215 1.195218 1.018177 0.000000 0.000000 0.000000
1.160806 1.218361 1.009806 0.000000 0.000000 0.000000
1.163890 1.218772 1.009348 0.000000 0.000000 0.000000
1.194441 1.158900 1.019590 0.000000 0.000000 0.000000
1.201621 1.171089 1.011514 0.000000 0.000000 0.000000
1.213654 1.093189 1.023874 0.000000 0.000000 0.000000
1.201897 1.167278 1.014118 0.000000 0.000000 0.000000
1.070073 0.997205 1.112323 0.000000 0.000000 0.000000
