ply
format ascii 1.0
comment VCGLIB generated
obj_info Generated by SPFormer!
element vertex 884
property float x
property float y
property float z
property float nx
property float ny
property float nz
end_header
0.895519 0.467931 1.548387 0.000000 0.000000 0.000000
0.899753 0.477694 1.591329 0.000000 0.000000 0.000000
0.892172 0.468424 1.552423 0.000000 0.000000 0.000000
1.051268 0.563928 1.478082 0.000000 0.000000 0.000000
0.954214 0.534364 1.283282 0.000000 0.000000 0.000000
0.878113 0.467325 1.447890 0.000000 0.000000 0.000000
0.891549 0.470426 1.526409 0.000000 0.000000 0.000000
0.893918 0.473448 1.376339 0.000000 0.000000 0.000000
1.041052 0.551639 1.364747 0.000000 0.000000 0.000000
0.869498 0.463171 1.413119 0.000000 0.000000 0.000000
1.059619 0.560288 1.406004 0.000000 0.000000 0.000000
0.893816 0.472209 1.564704 0.000000 0.000000 0.000000
1.055295 0.566748 1.459744 0.000000 0.000000 0.000000
0.896144 0.473908 1.571353 0.000000 0.000000 0.000000
1.054500 0.563076 1.376410 0.000000 0.000000 0.000000
1.015906 0.562940 1.599541 0.000000 0.000000 0.000000
0.983141 0.540031 1.624170 0.000000 0.000000 0.000000
0.963596 0.533152 1.650539 0.000000 0.000000 0.000000
0.882851 0.465799 1.462792 0.000000 0.000000 0.000000
0.952370 0.517986 1.625685 0.000000 0.000000 0.000000
0.876118 0.465103 1.467603 0.000000 0.000000 0.000000
0.876792 0.479562 1.354090 0.000000 0.000000 0.000000
0.928684 0.493252 1.584420 0.000000 0.000000 0.000000
0.874646 0.463823 1.459760 0.000000 0.000000 0.000000
0.883254 0.487453 1.336260 0.000000 0.000000 0.000000
1.039912 0.571202 1.545857 0.000000 0.000000 0.000000
0.967347 0.521004 1.485894 0.000000 0.000000 0.000000
0.898262 0.474096 1.576317 0.000000 0.000000 0.000000
0.893389 0.472243 1.564735 0.000000 0.000000 0.000000
0.863928 0.451812 1.499502 0.000000 0.000000 0.000000
0.886126 0.490351 1.328845 0.000000 0.000000 0.000000
0.891175 0.492924 1.327399 0.000000 0.000000 0.000000
1.022899 0.569747 1.577930 0.000000 0.000000 0.000000
1.040256 0.568762 1.540437 0.000000 0.000000 0.000000
0.879493 0.486842 1.331556 0.000000 0.000000 0.000000
0.870349 0.457327 1.511263 0.000000 0.000000 0.000000
0.872871 0.474420 1.364595 0.000000 0.000000 0.000000
0.881419 0.467783 1.475978 0.000000 0.000000 0.000000
0.869800 0.457190 1.485603 0.000000 0.000000 0.000000
0.860388 0.466109 1.384598 0.000000 0.000000 0.000000
1.063601 0.572415 1.476695 0.000000 0.000000 0.000000
0.992461 0.547826 1.615104 0.000000 0.000000 0.000000
0.992447 0.551950 1.637683 0.000000 0.000000 0.000000
0.983403 0.539552 1.599121 0.000000 0.000000 0.000000
0.919076 0.491012 1.609147 0.000000 0.000000 0.000000
0.869663 0.460930 1.455005 0.000000 0.000000 0.000000
1.064877 0.576087 1.496651 0.000000 0.000000 0.000000
0.943889 0.509645 1.585289 0.000000 0.000000 0.000000
0.905069 0.480832 1.584162 0.000000 0.000000 0.000000
0.875200 0.480957 1.345396 0.000000 0.000000 0.000000
0.902550 0.477572 1.451782 0.000000 0.000000 0.000000
1.015614 0.551433 1.514913 0.000000 0.000000 0.000000
0.879095 0.477458 1.360554 0.000000 0.000000 0.000000
0.942204 0.512334 1.331105 0.000000 0.000000 0.000000
1.028166 0.568328 1.577354 0.000000 0.000000 0.000000
1.064355 0.569060 1.448902 0.000000 0.000000 0.000000
0.864278 0.457997 1.448446 0.000000 0.000000 0.000000
0.944998 0.519587 1.320826 0.000000 0.000000 0.000000
1.044719 0.549999 1.404011 0.000000 0.000000 0.000000
1.039178 0.557404 1.496107 0.000000 0.000000 0.000000
0.880278 0.464349 1.485174 0.000000 0.000000 0.000000
0.910112 0.486031 1.594311 0.000000 0.000000 0.000000
1.014122 0.562543 1.600943 0.000000 0.000000 0.000000
0.999300 0.555281 1.609027 0.000000 0.000000 0.000000
0.937701 0.505335 1.614354 0.000000 0.000000 0.000000
0.980484 0.544123 1.646529 0.000000 0.000000 0.000000
0.931364 0.499871 1.608934 0.000000 0.000000 0.000000
0.972834 0.535488 1.637729 0.000000 0.000000 0.000000
0.876860 0.459944 1.523329 0.000000 0.000000 0.000000
0.868570 0.459749 1.433595 0.000000 0.000000 0.000000
0.894450 0.472552 1.561414 0.000000 0.000000 0.000000
0.930691 0.494998 1.551821 0.000000 0.000000 0.000000
0.892345 0.486443 1.347836 0.000000 0.000000 0.000000
0.961472 0.529436 1.639993 0.000000 0.000000 0.000000
0.861033 0.462000 1.400482 0.000000 0.000000 0.000000
1.034491 0.558137 1.518773 0.000000 0.000000 0.000000
0.911677 0.487918 1.362525 0.000000 0.000000 0.000000
1.024612 0.554764 1.525128 0.000000 0.000000 0.000000
1.052767 0.566471 1.521896 0.000000 0.000000 0.000000
1.059506 0.568175 1.478242 0.000000 0.000000 0.000000
0.945731 0.505716 1.410683 0.000000 0.000000 0.000000
1.026298 0.562605 1.543060 0.000000 0.000000 0.000000
0.993798 0.551411 1.609888 0.000000 0.000000 0.000000
0.996739 0.550051 1.611892 0.000000 0.000000 0.000000
0.981673 0.543065 1.640683 0.000000 0.000000 0.000000
0.983855 0.547018 1.646496 0.000000 0.000000 0.000000
0.885774 0.465980 1.519535 0.000000 0.000000 0.000000
0.969997 0.529466 1.616898 0.000000 0.000000 0.000000
0.939760 0.507489 1.620153 0.000000 0.000000 0.000000
1.064189 0.574926 1.457852 0.000000 0.000000 0.000000
0.922556 0.494473 1.599147 0.000000 0.000000 0.000000
0.894360 0.494905 1.323549 0.000000 0.000000 0.000000
0.908581 0.499760 1.320806 0.000000 0.000000 0.000000
1.048290 0.577180 1.544544 0.000000 0.000000 0.000000
0.886617 0.486232 1.345641 0.000000 0.000000 0.000000
1.001747 0.553359 1.606074 0.000000 0.000000 0.000000
0.903618 0.502184 1.309724 0.000000 0.000000 0.000000
0.876943 0.466406 1.449436 0.000000 0.000000 0.000000
1.012735 0.559265 1.529134 0.000000 0.000000 0.000000
0.862904 0.465475 1.388997 0.000000 0.000000 0.000000
0.859110 0.455350 1.451255 0.000000 0.000000 0.000000
0.874460 0.480134 1.350713 0.000000 0.000000 0.000000
0.969352 0.533153 1.635419 0.000000 0.000000 0.000000
0.933063 0.501303 1.619274 0.000000 0.000000 0.000000
0.901507 0.479372 1.578834 0.000000 0.000000 0.000000
1.060697 0.573604 1.516057 0.000000 0.000000 0.000000
0.887895 0.466997 1.558409 0.000000 0.000000 0.000000
1.058003 0.556922 1.415171 0.000000 0.000000 0.000000
0.955763 0.524907 1.643040 0.000000 0.000000 0.000000
0.879822 0.459445 1.513609 0.000000 0.000000 0.000000
0.975051 0.540205 1.647171 0.000000 0.000000 0.000000
0.867682 0.475233 1.352272 0.000000 0.000000 0.000000
1.060742 0.571560 1.499483 0.000000 0.000000 0.000000
0.914397 0.488101 1.604629 0.000000 0.000000 0.000000
0.968104 0.535221 1.644387 0.000000 0.000000 0.000000
0.975302 0.530400 1.311712 0.000000 0.000000 0.000000
0.983691 0.532365 1.312839 0.000000 0.000000 0.000000
0.871429 0.474956 1.360340 0.000000 0.000000 0.000000
0.997151 0.553605 1.632277 0.000000 0.000000 0.000000
0.918589 0.490877 1.606118 0.000000 0.000000 0.000000
0.992471 0.554405 1.639746 0.000000 0.000000 0.000000
0.954843 0.519304 1.623287 0.000000 0.000000 0.000000
1.005510 0.558370 1.604675 0.000000 0.000000 0.000000
0.887713 0.485577 1.342028 0.000000 0.000000 0.000000
0.929994 0.502946 1.635141 0.000000 0.000000 0.000000
1.063700 0.570554 1.459450 0.000000 0.000000 0.000000
0.898541 0.476741 1.587716 0.000000 0.000000 0.000000
0.970299 0.538971 1.648631 0.000000 0.000000 0.000000
1.030021 0.569780 1.567296 0.000000 0.000000 0.000000
0.882671 0.462685 1.499672 0.000000 0.000000 0.000000
1.056350 0.565214 1.476056 0.000000 0.000000 0.000000
0.889975 0.467086 1.510222 0.000000 0.000000 0.000000
1.023998 0.540518 1.391159 0.000000 0.000000 0.000000
1.029103 0.545272 1.379936 0.000000 0.000000 0.000000
0.981424 0.538165 1.619497 0.000000 0.000000 0.000000
0.871512 0.456794 1.497955 0.000000 0.000000 0.000000
0.961078 0.525612 1.626007 0.000000 0.000000 0.000000
1.064909 0.570611 1.454069 0.000000 0.000000 0.000000
0.913912 0.487040 1.594828 0.000000 0.000000 0.000000
0.903443 0.482384 1.602252 0.000000 0.000000 0.000000
0.920972 0.491431 1.600459 0.000000 0.000000 0.000000
0.916953 0.507128 1.302382 0.000000 0.000000 0.000000
0.891843 0.468840 1.558691 0.000000 0.000000 0.000000
1.052320 0.557212 1.387326 0.000000 0.000000 0.000000
0.887523 0.467601 1.545658 0.000000 0.000000 0.000000
1.047925 0.568537 1.494860 0.000000 0.000000 0.000000
0.861358 0.469360 1.367816 0.000000 0.000000 0.000000
1.051500 0.566390 1.510318 0.000000 0.000000 0.000000
0.994508 0.555818 1.605444 0.000000 0.000000 0.000000
0.985327 0.546287 1.633893 0.000000 0.000000 0.000000
0.965160 0.526049 1.607037 0.000000 0.000000 0.000000
1.059515 0.571935 1.521388 0.000000 0.000000 0.000000
1.045920 0.552303 1.373275 0.000000 0.000000 0.000000
1.035812 0.555579 1.503341 0.000000 0.000000 0.000000
1.036121 0.545784 1.386235 0.000000 0.000000 0.000000
0.885348 0.472744 1.376991 0.000000 0.000000 0.000000
0.942162 0.513413 1.644181 0.000000 0.000000 0.000000
0.955490 0.522956 1.643566 0.000000 0.000000 0.000000
1.022739 0.571065 1.598136 0.000000 0.000000 0.000000
0.873446 0.478624 1.357368 0.000000 0.000000 0.000000
0.893301 0.466612 1.486158 0.000000 0.000000 0.000000
1.065057 0.575411 1.485195 0.000000 0.000000 0.000000
0.921225 0.496037 1.587700 0.000000 0.000000 0.000000
0.914768 0.486755 1.586053 0.000000 0.000000 0.000000
0.957111 0.526302 1.645611 0.000000 0.000000 0.000000
0.885186 0.463410 1.524206 0.000000 0.000000 0.000000
0.878368 0.461841 1.481714 0.000000 0.000000 0.000000
0.868747 0.459334 1.468120 0.000000 0.000000 0.000000
0.871164 0.457238 1.508598 0.000000 0.000000 0.000000
1.014437 0.544910 1.325146 0.000000 0.000000 0.000000
0.994262 0.549395 1.634846 0.000000 0.000000 0.000000
0.960110 0.527651 1.649526 0.000000 0.000000 0.000000
0.995903 0.548666 1.618857 0.000000 0.000000 0.000000
0.936427 0.506318 1.631977 0.000000 0.000000 0.000000
0.973730 0.536592 1.635320 0.000000 0.000000 0.000000
1.034605 0.576285 1.572728 0.000000 0.000000 0.000000
0.867604 0.455167 1.483422 0.000000 0.000000 0.000000
0.967138 0.532970 1.642466 0.000000 0.000000 0.000000
0.941648 0.511467 1.632433 0.000000 0.000000 0.000000
1.060360 0.567120 1.474052 0.000000 0.000000 0.000000
0.919014 0.492732 1.607148 0.000000 0.000000 0.000000
0.893813 0.482081 1.366534 0.000000 0.000000 0.000000
0.894942 0.473779 1.548776 0.000000 0.000000 0.000000
0.986024 0.532652 1.308887 0.000000 0.000000 0.000000
0.869471 0.472968 1.365021 0.000000 0.000000 0.000000
0.942288 0.498490 1.488424 0.000000 0.000000 0.000000
0.987221 0.543731 1.625086 0.000000 0.000000 0.000000
0.934032 0.503767 1.616768 0.000000 0.000000 0.000000
0.960388 0.527686 1.642839 0.000000 0.000000 0.000000
0.915938 0.491292 1.591035 0.000000 0.000000 0.000000
0.872557 0.459887 1.441864 0.000000 0.000000 0.000000
1.013201 0.564475 1.606864 0.000000 0.000000 0.000000
0.872840 0.473540 1.366793 0.000000 0.000000 0.000000
1.025536 0.549178 1.333330 0.000000 0.000000 0.000000
0.859890 0.458294 1.431220 0.000000 0.000000 0.000000
0.921660 0.498643 1.578658 0.000000 0.000000 0.000000
0.896398 0.473431 1.575401 0.000000 0.000000 0.000000
0.973617 0.541104 1.641030 0.000000 0.000000 0.000000
0.972342 0.539506 1.648014 0.000000 0.000000 0.000000
1.024183 0.571732 1.588253 0.000000 0.000000 0.000000
0.872846 0.459671 1.487222 0.000000 0.000000 0.000000
1.064098 0.576725 1.487784 0.000000 0.000000 0.000000
0.947547 0.514968 1.639075 0.000000 0.000000 0.000000
0.877218 0.465046 1.457458 0.000000 0.000000 0.000000
0.891652 0.469731 1.542904 0.000000 0.000000 0.000000
1.052968 0.572514 1.530794 0.000000 0.000000 0.000000
0.876495 0.460852 1.507446 0.000000 0.000000 0.000000
1.050133 0.555702 1.423309 0.000000 0.000000 0.000000
1.006829 0.562831 1.615859 0.000000 0.000000 0.000000
0.944411 0.513347 1.640317 0.000000 0.000000 0.000000
0.964506 0.533394 1.649905 0.000000 0.000000 0.000000
1.037465 0.577568 1.565249 0.000000 0.000000 0.000000
0.967018 0.531166 1.639329 0.000000 0.000000 0.000000
0.947630 0.515639 1.628880 0.000000 0.000000 0.000000
0.909134 0.483054 1.592942 0.000000 0.000000 0.000000
0.956179 0.522671 1.645152 0.000000 0.000000 0.000000
0.911372 0.508487 1.307117 0.000000 0.000000 0.000000
0.854105 0.454233 1.428256 0.000000 0.000000 0.000000
0.969494 0.534228 1.639092 0.000000 0.000000 0.000000
0.967813 0.530572 1.622544 0.000000 0.000000 0.000000
0.952245 0.515759 1.596102 0.000000 0.000000 0.000000
0.967983 0.528337 1.292184 0.000000 0.000000 0.000000
0.942015 0.507188 1.614635 0.000000 0.000000 0.000000
0.877075 0.463046 1.490886 0.000000 0.000000 0.000000
0.935092 0.505122 1.636353 0.000000 0.000000 0.000000
1.031635 0.576827 1.574289 0.000000 0.000000 0.000000
0.875169 0.457859 1.503636 0.000000 0.000000 0.000000
0.916464 0.489850 1.602602 0.000000 0.000000 0.000000
0.920760 0.508792 1.310256 0.000000 0.000000 0.000000
0.909867 0.484999 1.498744 0.000000 0.000000 0.000000
0.910756 0.503285 1.308019 0.000000 0.000000 0.000000
0.978668 0.540006 1.609953 0.000000 0.000000 0.000000
0.973385 0.530318 1.280258 0.000000 0.000000 0.000000
0.979797 0.540911 1.637644 0.000000 0.000000 0.000000
0.955524 0.522566 1.641147 0.000000 0.000000 0.000000
0.869815 0.454595 1.509802 0.000000 0.000000 0.000000
0.887374 0.486404 1.347586 0.000000 0.000000 0.000000
0.953241 0.521276 1.642692 0.000000 0.000000 0.000000
0.925558 0.495449 1.597598 0.000000 0.000000 0.000000
0.974099 0.539041 1.647259 0.000000 0.000000 0.000000
0.926243 0.513050 1.311445 0.000000 0.000000 0.000000
0.879158 0.482086 1.345995 0.000000 0.000000 0.000000
0.879122 0.477507 1.363745 0.000000 0.000000 0.000000
0.888687 0.466930 1.537959 0.000000 0.000000 0.000000
1.004558 0.561374 1.624872 0.000000 0.000000 0.000000
0.971566 0.538468 1.645285 0.000000 0.000000 0.000000
0.875066 0.458664 1.511254 0.000000 0.000000 0.000000
0.890299 0.482485 1.362841 0.000000 0.000000 0.000000
0.943039 0.511193 1.628377 0.000000 0.000000 0.000000
0.898392 0.475850 1.588976 0.000000 0.000000 0.000000
0.918641 0.489105 1.579725 0.000000 0.000000 0.000000
0.954944 0.524383 1.641656 0.000000 0.000000 0.000000
0.900987 0.479368 1.558977 0.000000 0.000000 0.000000
0.868442 0.460405 1.423997 0.000000 0.000000 0.000000
0.902706 0.479044 1.371893 0.000000 0.000000 0.000000
0.879510 0.476509 1.374978 0.000000 0.000000 0.000000
0.972367 0.527942 1.328469 0.000000 0.000000 0.000000
0.888447 0.467342 1.540996 0.000000 0.000000 0.000000
0.987907 0.548434 1.640159 0.000000 0.000000 0.000000
0.949844 0.515071 1.624329 0.000000 0.000000 0.000000
0.944756 0.512075 1.635608 0.000000 0.000000 0.000000
1.064574 0.575707 1.471446 0.000000 0.000000 0.000000
0.905489 0.481147 1.599932 0.000000 0.000000 0.000000
0.955815 0.523057 1.646297 0.000000 0.000000 0.000000
0.897968 0.494241 1.326365 0.000000 0.000000 0.000000
0.876703 0.458439 1.517944 0.000000 0.000000 0.000000
0.870328 0.462718 1.443610 0.000000 0.000000 0.000000
0.881844 0.463283 1.549684 0.000000 0.000000 0.000000
0.974428 0.542912 1.653164 0.000000 0.000000 0.000000
0.935713 0.498505 1.609860 0.000000 0.000000 0.000000
0.926781 0.499977 1.628572 0.000000 0.000000 0.000000
1.064546 0.572317 1.487776 0.000000 0.000000 0.000000
0.905026 0.479625 1.589182 0.000000 0.000000 0.000000
1.032491 0.575042 1.550036 0.000000 0.000000 0.000000
0.914267 0.506626 1.301277 0.000000 0.000000 0.000000
0.895033 0.473306 1.543653 0.000000 0.000000 0.000000
0.865743 0.453425 1.503755 0.000000 0.000000 0.000000
0.873790 0.471985 1.376598 0.000000 0.000000 0.000000
0.916630 0.488433 1.609217 0.000000 0.000000 0.000000
1.018236 0.548935 1.316684 0.000000 0.000000 0.000000
0.940960 0.513644 1.640272 0.000000 0.000000 0.000000
0.967791 0.539124 1.649948 0.000000 0.000000 0.000000
0.937406 0.508816 1.627288 0.000000 0.000000 0.000000
1.012815 0.563685 1.598356 0.000000 0.000000 0.000000
0.939605 0.511970 1.642205 0.000000 0.000000 0.000000
0.952407 0.520453 1.636758 0.000000 0.000000 0.000000
0.867598 0.459303 1.463799 0.000000 0.000000 0.000000
0.896113 0.474861 1.545222 0.000000 0.000000 0.000000
1.035505 0.570196 1.538790 0.000000 0.000000 0.000000
1.043230 0.556684 1.385728 0.000000 0.000000 0.000000
0.872638 0.461658 1.478533 0.000000 0.000000 0.000000
0.994356 0.536791 1.326238 0.000000 0.000000 0.000000
0.993419 0.549477 1.630656 0.000000 0.000000 0.000000
0.957064 0.522001 1.631995 0.000000 0.000000 0.000000
0.985622 0.542694 1.626754 0.000000 0.000000 0.000000
0.978886 0.540255 1.637789 0.000000 0.000000 0.000000
0.970020 0.534339 1.630939 0.000000 0.000000 0.000000
0.960038 0.526893 1.642675 0.000000 0.000000 0.000000
0.877205 0.459400 1.516308 0.000000 0.000000 0.000000
0.954310 0.519747 1.629551 0.000000 0.000000 0.000000
0.952187 0.520288 1.641586 0.000000 0.000000 0.000000
0.908616 0.503978 1.308733 0.000000 0.000000 0.000000
0.916411 0.506892 1.302866 0.000000 0.000000 0.000000
0.867686 0.470350 1.378300 0.000000 0.000000 0.000000
0.874518 0.457096 1.524767 0.000000 0.000000 0.000000
0.904783 0.500443 1.315263 0.000000 0.000000 0.000000
0.956703 0.511930 1.528247 0.000000 0.000000 0.000000
0.949453 0.512145 1.581716 0.000000 0.000000 0.000000
0.954238 0.506084 1.465688 0.000000 0.000000 0.000000
0.958792 0.510926 1.457907 0.000000 0.000000 0.000000
0.980054 0.520680 1.459472 0.000000 0.000000 0.000000
0.961218 0.527435 1.642334 0.000000 0.000000 0.000000
0.956240 0.505045 1.443564 0.000000 0.000000 0.000000
0.889700 0.469380 1.474613 0.000000 0.000000 0.000000
0.927626 0.488914 1.481804 0.000000 0.000000 0.000000
0.984360 0.524854 1.427622 0.000000 0.000000 0.000000
0.933965 0.510150 1.317797 0.000000 0.000000 0.000000
0.948568 0.525174 1.293856 0.000000 0.000000 0.000000
0.966173 0.514346 1.430643 0.000000 0.000000 0.000000
0.920688 0.480377 1.478888 0.000000 0.000000 0.000000
0.966651 0.527199 1.612245 0.000000 0.000000 0.000000
0.932379 0.496038 1.497073 0.000000 0.000000 0.000000
1.006868 0.538949 1.482176 0.000000 0.000000 0.000000
1.001120 0.531607 1.418433 0.000000 0.000000 0.000000
0.942596 0.510113 1.340897 0.000000 0.000000 0.000000
0.938496 0.500600 1.507331 0.000000 0.000000 0.000000
0.986860 0.544869 1.631977 0.000000 0.000000 0.000000
0.923832 0.508446 1.373893 0.000000 0.000000 0.000000
0.906381 0.497635 1.330130 0.000000 0.000000 0.000000
0.880766 0.469347 1.436776 0.000000 0.000000 0.000000
0.983745 0.528491 1.346262 0.000000 0.000000 0.000000
0.917128 0.486501 1.531826 0.000000 0.000000 0.000000
0.960852 0.512211 1.516371 0.000000 0.000000 0.000000
0.882182 0.464200 1.531227 0.000000 0.000000 0.000000
0.947469 0.516374 1.636973 0.000000 0.000000 0.000000
0.877161 0.463509 1.472469 0.000000 0.000000 0.000000
0.956988 0.513826 1.387116 0.000000 0.000000 0.000000
0.951088 0.514176 1.365670 0.000000 0.000000 0.000000
0.869288 0.454912 1.501731 0.000000 0.000000 0.000000
0.883944 0.484137 1.349047 0.000000 0.000000 0.000000
0.945922 0.499583 1.434328 0.000000 0.000000 0.000000
0.970585 0.535294 1.648641 0.000000 0.000000 0.000000
0.983976 0.525268 1.436463 0.000000 0.000000 0.000000
0.886966 0.489426 1.335978 0.000000 0.000000 0.000000
0.920619 0.485005 1.494179 0.000000 0.000000 0.000000
0.916258 0.486402 1.511557 0.000000 0.000000 0.000000
0.951717 0.505961 1.503796 0.000000 0.000000 0.000000
0.951425 0.502805 1.444114 0.000000 0.000000 0.000000
0.916936 0.482861 1.496829 0.000000 0.000000 0.000000
0.959746 0.516102 1.397312 0.000000 0.000000 0.000000
0.941831 0.499841 1.505643 0.000000 0.000000 0.000000
0.955552 0.523397 1.301388 0.000000 0.000000 0.000000
0.943331 0.501534 1.457968 0.000000 0.000000 0.000000
0.872351 0.460104 1.480783 0.000000 0.000000 0.000000
0.970520 0.523500 1.541921 0.000000 0.000000 0.000000
1.029494 0.552119 1.335678 0.000000 0.000000 0.000000
0.924398 0.512353 1.300537 0.000000 0.000000 0.000000
0.875642 0.459973 1.530694 0.000000 0.000000 0.000000
0.923592 0.497456 1.623146 0.000000 0.000000 0.000000
1.045071 0.551092 1.391843 0.000000 0.000000 0.000000
0.964718 0.517504 1.522900 0.000000 0.000000 0.000000
0.867769 0.457894 1.464788 0.000000 0.000000 0.000000
0.977493 0.534683 1.310750 0.000000 0.000000 0.000000
1.048136 0.559789 1.369060 0.000000 0.000000 0.000000
0.952872 0.506970 1.492993 0.000000 0.000000 0.000000
0.990072 0.536510 1.538731 0.000000 0.000000 0.000000
0.896983 0.474199 1.451452 0.000000 0.000000 0.000000
0.959197 0.507285 1.474415 0.000000 0.000000 0.000000
0.948530 0.505870 1.459819 0.000000 0.000000 0.000000
0.956493 0.507595 1.474981 0.000000 0.000000 0.000000
0.977403 0.536028 1.603557 0.000000 0.000000 0.000000
0.961710 0.523119 1.612341 0.000000 0.000000 0.000000
0.981856 0.532142 1.310964 0.000000 0.000000 0.000000
0.926660 0.485287 1.457984 0.000000 0.000000 0.000000
0.887383 0.468398 1.477675 0.000000 0.000000 0.000000
0.947136 0.503889 1.498755 0.000000 0.000000 0.000000
0.997172 0.529873 1.450074 0.000000 0.000000 0.000000
0.929586 0.497794 1.394760 0.000000 0.000000 0.000000
0.946167 0.529963 1.291197 0.000000 0.000000 0.000000
0.928954 0.488064 1.477366 0.000000 0.000000 0.000000
0.950634 0.504196 1.468458 0.000000 0.000000 0.000000
0.965060 0.523081 1.577948 0.000000 0.000000 0.000000
0.960977 0.521938 1.596693 0.000000 0.000000 0.000000
0.925701 0.491062 1.503697 0.000000 0.000000 0.000000
0.979205 0.539497 1.634545 0.000000 0.000000 0.000000
1.006051 0.538211 1.479587 0.000000 0.000000 0.000000
0.971217 0.525745 1.370389 0.000000 0.000000 0.000000
0.942144 0.511281 1.326852 0.000000 0.000000 0.000000
0.943532 0.509060 1.346730 0.000000 0.000000 0.000000
0.902547 0.476221 1.524626 0.000000 0.000000 0.000000
0.965611 0.521803 1.360928 0.000000 0.000000 0.000000
0.987538 0.526109 1.421856 0.000000 0.000000 0.000000
0.983201 0.536657 1.569373 0.000000 0.000000 0.000000
0.916202 0.506997 1.315879 0.000000 0.000000 0.000000
0.889574 0.468715 1.479051 0.000000 0.000000 0.000000
0.879845 0.466490 1.463316 0.000000 0.000000 0.000000
0.904403 0.498774 1.318877 0.000000 0.000000 0.000000
0.951376 0.507328 1.509410 0.000000 0.000000 0.000000
0.892542 0.469474 1.524909 0.000000 0.000000 0.000000
0.932373 0.504298 1.634012 0.000000 0.000000 0.000000
0.896908 0.480535 1.400847 0.000000 0.000000 0.000000
0.893745 0.471542 1.459538 0.000000 0.000000 0.000000
0.946653 0.506629 1.385164 0.000000 0.000000 0.000000
0.978487 0.532012 1.552409 0.000000 0.000000 0.000000
0.862373 0.451760 1.499822 0.000000 0.000000 0.000000
0.898266 0.493749 1.334512 0.000000 0.000000 0.000000
0.976836 0.520124 1.443523 0.000000 0.000000 0.000000
0.912706 0.493993 1.345279 0.000000 0.000000 0.000000
0.885123 0.467234 1.534004 0.000000 0.000000 0.000000
0.951569 0.506881 1.527237 0.000000 0.000000 0.000000
0.946166 0.507885 1.469634 0.000000 0.000000 0.000000
0.918927 0.495940 1.380794 0.000000 0.000000 0.000000
0.955189 0.519276 1.346850 0.000000 0.000000 0.000000
0.925589 0.489443 1.497017 0.000000 0.000000 0.000000
0.990690 0.529080 1.473213 0.000000 0.000000 0.000000
0.956075 0.509901 1.448115 0.000000 0.000000 0.000000
0.951334 0.503843 1.437265 0.000000 0.000000 0.000000
0.962280 0.521287 1.561707 0.000000 0.000000 0.000000
1.035734 0.557425 1.343740 0.000000 0.000000 0.000000
1.014045 0.541895 1.326264 0.000000 0.000000 0.000000
0.977284 0.530056 1.547614 0.000000 0.000000 0.000000
0.954725 0.525974 1.297408 0.000000 0.000000 0.000000
0.992004 0.534670 1.305703 0.000000 0.000000 0.000000
0.933486 0.502610 1.600917 0.000000 0.000000 0.000000
0.883626 0.467640 1.458585 0.000000 0.000000 0.000000
0.947012 0.516474 1.643246 0.000000 0.000000 0.000000
1.045239 0.571145 1.537075 0.000000 0.000000 0.000000
0.881272 0.478654 1.357774 0.000000 0.000000 0.000000
0.992809 0.534273 1.504632 0.000000 0.000000 0.000000
0.928862 0.500943 1.366256 0.000000 0.000000 0.000000
0.962783 0.514596 1.507328 0.000000 0.000000 0.000000
0.955320 0.518746 1.605631 0.000000 0.000000 0.000000
0.897848 0.476989 1.437070 0.000000 0.000000 0.000000
0.940971 0.501786 1.510555 0.000000 0.000000 0.000000
0.933130 0.499189 1.390082 0.000000 0.000000 0.000000
0.948308 0.507398 1.550628 0.000000 0.000000 0.000000
1.021212 0.568589 1.595920 0.000000 0.000000 0.000000
0.871132 0.462198 1.458730 0.000000 0.000000 0.000000
0.958256 0.511294 1.419937 0.000000 0.000000 0.000000
1.018276 0.562945 1.565754 0.000000 0.000000 0.000000
0.941917 0.523703 1.280376 0.000000 0.000000 0.000000
0.945628 0.503716 1.405005 0.000000 0.000000 0.000000
0.951638 0.522735 1.647220 0.000000 0.000000 0.000000
0.936001 0.498175 1.402218 0.000000 0.000000 0.000000
1.058846 0.570168 1.467792 0.000000 0.000000 0.000000
0.934314 0.514033 1.309353 0.000000 0.000000 0.000000
0.922293 0.491615 1.587848 0.000000 0.000000 0.000000
0.872094 0.476592 1.365167 0.000000 0.000000 0.000000
0.892904 0.470604 1.548432 0.000000 0.000000 0.000000
0.939552 0.497955 1.489460 0.000000 0.000000 0.000000
0.942537 0.500156 1.492981 0.000000 0.000000 0.000000
0.981922 0.526056 1.389281 0.000000 0.000000 0.000000
0.925978 0.494677 1.414313 0.000000 0.000000 0.000000
0.955473 0.518638 1.427421 0.000000 0.000000 0.000000
0.990904 0.541835 1.567498 0.000000 0.000000 0.000000
0.902974 0.481515 1.404180 0.000000 0.000000 0.000000
0.939694 0.507733 1.347255 0.000000 0.000000 0.000000
0.961830 0.515442 1.533210 0.000000 0.000000 0.000000
0.919820 0.488773 1.393721 0.000000 0.000000 0.000000
0.939751 0.503104 1.565165 0.000000 0.000000 0.000000
0.862864 0.454902 1.474551 0.000000 0.000000 0.000000
0.970814 0.516889 1.424429 0.000000 0.000000 0.000000
0.906698 0.503735 1.306819 0.000000 0.000000 0.000000
0.939914 0.522697 1.289949 0.000000 0.000000 0.000000
0.997468 0.530995 1.451803 0.000000 0.000000 0.000000
1.063998 0.575776 1.487671 0.000000 0.000000 0.000000
0.957976 0.515297 1.348941 0.000000 0.000000 0.000000
1.019329 0.566671 1.602768 0.000000 0.000000 0.000000
0.935890 0.505476 1.630531 0.000000 0.000000 0.000000
1.064108 0.571489 1.476572 0.000000 0.000000 0.000000
0.948951 0.522198 1.297704 0.000000 0.000000 0.000000
0.898025 0.477191 1.561088 0.000000 0.000000 0.000000
0.929687 0.491743 1.432506 0.000000 0.000000 0.000000
1.025889 0.561160 1.433548 0.000000 0.000000 0.000000
1.012873 0.570279 1.585277 0.000000 0.000000 0.000000
0.909688 0.482171 1.562432 0.000000 0.000000 0.000000
0.895430 0.472860 1.552421 0.000000 0.000000 0.000000
0.898467 0.498234 1.315664 0.000000 0.000000 0.000000
0.908579 0.504444 1.316576 0.000000 0.000000 0.000000
0.943720 0.503494 1.543392 0.000000 0.000000 0.000000
0.945487 0.502674 1.492700 0.000000 0.000000 0.000000
0.873484 0.454770 1.530347 0.000000 0.000000 0.000000
0.959402 0.530235 1.293028 0.000000 0.000000 0.000000
0.977108 0.537718 1.633436 0.000000 0.000000 0.000000
0.859513 0.450224 1.505104 0.000000 0.000000 0.000000
0.969613 0.535980 1.650783 0.000000 0.000000 0.000000
0.949773 0.517031 1.638937 0.000000 0.000000 0.000000
0.881777 0.484210 1.343935 0.000000 0.000000 0.000000
0.901293 0.476929 1.565290 0.000000 0.000000 0.000000
0.915019 0.508597 1.312559 0.000000 0.000000 0.000000
1.063663 0.578683 1.480055 0.000000 0.000000 0.000000
0.906302 0.485661 1.421702 0.000000 0.000000 0.000000
0.931880 0.490418 1.472891 0.000000 0.000000 0.000000
0.969816 0.530483 1.572195 0.000000 0.000000 0.000000
0.908406 0.484144 1.602745 0.000000 0.000000 0.000000
0.890560 0.468917 1.554703 0.000000 0.000000 0.000000
0.987025 0.535604 1.534690 0.000000 0.000000 0.000000
0.861597 0.468147 1.372116 0.000000 0.000000 0.000000
0.963014 0.528737 1.301913 0.000000 0.000000 0.000000
0.976174 0.528419 1.554773 0.000000 0.000000 0.000000
0.891263 0.479558 1.439189 0.000000 0.000000 0.000000
0.949964 0.521194 1.305467 0.000000 0.000000 0.000000
1.057268 0.560982 1.395968 0.000000 0.000000 0.000000
0.934888 0.490011 1.467311 0.000000 0.000000 0.000000
0.969503 0.525218 1.531470 0.000000 0.000000 0.000000
0.883539 0.464416 1.546838 0.000000 0.000000 0.000000
1.067271 0.570865 1.439760 0.000000 0.000000 0.000000
1.064610 0.565490 1.432025 0.000000 0.000000 0.000000
1.055075 0.572619 1.517199 0.000000 0.000000 0.000000
1.042182 0.557666 1.350363 0.000000 0.000000 0.000000
0.987807 0.533796 1.528068 0.000000 0.000000 0.000000
0.968873 0.517161 1.476371 0.000000 0.000000 0.000000
0.892032 0.494176 1.322702 0.000000 0.000000 0.000000
0.955090 0.516339 1.578661 0.000000 0.000000 0.000000
0.944190 0.514140 1.633309 0.000000 0.000000 0.000000
0.966726 0.529160 1.631923 0.000000 0.000000 0.000000
1.019917 0.569458 1.603486 0.000000 0.000000 0.000000
0.938889 0.523516 1.281532 0.000000 0.000000 0.000000
0.956314 0.531295 1.274227 0.000000 0.000000 0.000000
0.934860 0.506214 1.636933 0.000000 0.000000 0.000000
1.024154 0.551761 1.330405 0.000000 0.000000 0.000000
0.901799 0.499885 1.315559 0.000000 0.000000 0.000000
0.903311 0.475198 1.458532 0.000000 0.000000 0.000000
1.020428 0.545803 1.334348 0.000000 0.000000 0.000000
0.934772 0.496510 1.506725 0.000000 0.000000 0.000000
0.933400 0.503575 1.633464 0.000000 0.000000 0.000000
0.944591 0.498993 1.515607 0.000000 0.000000 0.000000
0.859620 0.460671 1.410146 0.000000 0.000000 0.000000
1.023730 0.549813 1.335157 0.000000 0.000000 0.000000
0.890202 0.492224 1.329202 0.000000 0.000000 0.000000
1.024081 0.559451 1.368362 0.000000 0.000000 0.000000
1.032452 0.553079 1.333011 0.000000 0.000000 0.000000
0.980067 0.542806 1.641696 0.000000 0.000000 0.000000
0.972084 0.537940 1.640951 0.000000 0.000000 0.000000
0.955537 0.521939 1.638169 0.000000 0.000000 0.000000
0.870175 0.455059 1.519421 0.000000 0.000000 0.000000
1.003563 0.553809 1.599226 0.000000 0.000000 0.000000
0.935701 0.505342 1.628355 0.000000 0.000000 0.000000
0.950741 0.526220 1.274324 0.000000 0.000000 0.000000
0.909796 0.485219 1.582620 0.000000 0.000000 0.000000
0.911815 0.486142 1.605891 0.000000 0.000000 0.000000
0.931374 0.516808 1.288752 0.000000 0.000000 0.000000
0.869975 0.478671 1.343488 0.000000 0.000000 0.000000
0.923230 0.494376 1.607103 0.000000 0.000000 0.000000
1.009781 0.561334 1.611688 0.000000 0.000000 0.000000
0.872941 0.462208 1.476985 0.000000 0.000000 0.000000
0.894679 0.472174 1.579532 0.000000 0.000000 0.000000
0.975790 0.536807 1.626327 0.000000 0.000000 0.000000
1.002168 0.560113 1.606842 0.000000 0.000000 0.000000
1.017733 0.564139 1.598807 0.000000 0.000000 0.000000
1.003168 0.555552 1.617185 0.000000 0.000000 0.000000
0.889791 0.473217 1.425193 0.000000 0.000000 0.000000
0.878237 0.461116 1.527308 0.000000 0.000000 0.000000
1.001487 0.546555 1.325915 0.000000 0.000000 0.000000
0.915113 0.490721 1.614359 0.000000 0.000000 0.000000
0.881256 0.463954 1.507521 0.000000 0.000000 0.000000
0.927524 0.496971 1.610252 0.000000 0.000000 0.000000
0.866270 0.472805 1.356346 0.000000 0.000000 0.000000
0.981021 0.541265 1.636834 0.000000 0.000000 0.000000
0.966911 0.533739 1.647724 0.000000 0.000000 0.000000
0.889114 0.493444 1.325483 0.000000 0.000000 0.000000
0.947598 0.518118 1.635082 0.000000 0.000000 0.000000
0.970613 0.526119 1.565891 0.000000 0.000000 0.000000
0.869143 0.471372 1.371720 0.000000 0.000000 0.000000
1.048751 0.572537 1.535451 0.000000 0.000000 0.000000
1.056968 0.569115 1.501790 0.000000 0.000000 0.000000
0.930694 0.502073 1.628253 0.000000 0.000000 0.000000
1.049029 0.563610 1.497092 0.000000 0.000000 0.000000
1.046923 0.552663 1.424030 0.000000 0.000000 0.000000
0.927891 0.501584 1.630203 0.000000 0.000000 0.000000
0.910918 0.503449 1.314355 0.000000 0.000000 0.000000
0.921397 0.488001 1.430429 0.000000 0.000000 0.000000
1.063456 0.572570 1.491530 0.000000 0.000000 0.000000
0.968305 0.526438 1.578747 0.000000 0.000000 0.000000
0.864848 0.461472 1.425513 0.000000 0.000000 0.000000
1.056832 0.570139 1.522259 0.000000 0.000000 0.000000
1.049376 0.565502 1.511232 0.000000 0.000000 0.000000
1.056051 0.559307 1.397750 0.000000 0.000000 0.000000
0.920875 0.511487 1.292846 0.000000 0.000000 0.000000
0.930233 0.502398 1.633299 0.000000 0.000000 0.000000
0.888716 0.467723 1.550811 0.000000 0.000000 0.000000
0.911178 0.484007 1.529345 0.000000 0.000000 0.000000
0.970526 0.532687 1.636470 0.000000 0.000000 0.000000
0.866351 0.453612 1.491139 0.000000 0.000000 0.000000
0.908960 0.483232 1.590661 0.000000 0.000000 0.000000
0.939316 0.512625 1.644071 0.000000 0.000000 0.000000
0.877688 0.461185 1.543069 0.000000 0.000000 0.000000
0.992833 0.547082 1.620673 0.000000 0.000000 0.000000
0.895756 0.471745 1.530340 0.000000 0.000000 0.000000
0.905737 0.480384 1.549410 0.000000 0.000000 0.000000
0.917124 0.489607 1.584632 0.000000 0.000000 0.000000
0.888178 0.467739 1.566263 0.000000 0.000000 0.000000
0.925866 0.514117 1.290348 0.000000 0.000000 0.000000
0.899733 0.492544 1.331688 0.000000 0.000000 0.000000
0.856810 0.451080 1.455209 0.000000 0.000000 0.000000
0.954311 0.519198 1.610253 0.000000 0.000000 0.000000
0.896801 0.474895 1.558811 0.000000 0.000000 0.000000
0.900658 0.472273 1.552971 0.000000 0.000000 0.000000
0.915727 0.483310 1.564565 0.000000 0.000000 0.000000
0.884579 0.463141 1.549324 0.000000 0.000000 0.000000
0.899620 0.477469 1.554285 0.000000 0.000000 0.000000
0.913294 0.485931 1.524790 0.000000 0.000000 0.000000
0.907677 0.505305 1.304759 0.000000 0.000000 0.000000
0.943603 0.502885 1.405230 0.000000 0.000000 0.000000
0.876477 0.458972 1.525801 0.000000 0.000000 0.000000
0.925360 0.490595 1.418251 0.000000 0.000000 0.000000
0.945341 0.511625 1.620834 0.000000 0.000000 0.000000
0.902493 0.481299 1.545107 0.000000 0.000000 0.000000
0.898904 0.478020 1.556251 0.000000 0.000000 0.000000
0.929964 0.494451 1.535515 0.000000 0.000000 0.000000
0.907179 0.481317 1.568635 0.000000 0.000000 0.000000
0.923373 0.511135 1.296162 0.000000 0.000000 0.000000
0.876479 0.460313 1.529034 0.000000 0.000000 0.000000
0.929614 0.498646 1.627294 0.000000 0.000000 0.000000
0.946267 0.516604 1.642886 0.000000 0.000000 0.000000
0.874529 0.461790 1.481252 0.000000 0.000000 0.000000
0.881000 0.488842 1.325014 0.000000 0.000000 0.000000
0.920359 0.489326 1.578517 0.000000 0.000000 0.000000
0.952053 0.516900 1.634308 0.000000 0.000000 0.000000
0.936447 0.506985 1.631555 0.000000 0.000000 0.000000
1.033996 0.561107 1.485531 0.000000 0.000000 0.000000
0.901980 0.478803 1.536176 0.000000 0.000000 0.000000
0.925560 0.493104 1.409723 0.000000 0.000000 0.000000
1.061437 0.562980 1.427640 0.000000 0.000000 0.000000
0.960681 0.528332 1.644478 0.000000 0.000000 0.000000
0.910532 0.484922 1.526943 0.000000 0.000000 0.000000
0.883648 0.462854 1.548051 0.000000 0.000000 0.000000
1.058858 0.564108 1.444639 0.000000 0.000000 0.000000
0.892223 0.471369 1.576817 0.000000 0.000000 0.000000
0.899235 0.477460 1.546484 0.000000 0.000000 0.000000
1.065240 0.571885 1.457309 0.000000 0.000000 0.000000
1.015843 0.563908 1.550196 0.000000 0.000000 0.000000
0.895694 0.474063 1.556210 0.000000 0.000000 0.000000
0.928743 0.495219 1.593796 0.000000 0.000000 0.000000
0.905676 0.504573 1.297781 0.000000 0.000000 0.000000
0.951687 0.507981 1.407536 0.000000 0.000000 0.000000
1.036496 0.576085 1.569548 0.000000 0.000000 0.000000
0.897879 0.475499 1.581019 0.000000 0.000000 0.000000
1.044496 0.575493 1.547405 0.000000 0.000000 0.000000
0.888252 0.465734 1.554561 0.000000 0.000000 0.000000
1.059886 0.565314 1.397045 0.000000 0.000000 0.000000
0.891152 0.468606 1.551334 0.000000 0.000000 0.000000
0.896446 0.475381 1.569253 0.000000 0.000000 0.000000
1.065800 0.567266 1.421993 0.000000 0.000000 0.000000
0.921033 0.513255 1.296686 0.000000 0.000000 0.000000
0.932044 0.503196 1.626824 0.000000 0.000000 0.000000
0.949236 0.514301 1.605171 0.000000 0.000000 0.000000
0.960421 0.528879 1.651357 0.000000 0.000000 0.000000
0.940735 0.503528 1.374771 0.000000 0.000000 0.000000
0.901047 0.479451 1.597477 0.000000 0.000000 0.000000
0.856093 0.451062 1.463615 0.000000 0.000000 0.000000
0.942994 0.512289 1.639313 0.000000 0.000000 0.000000
0.956820 0.524206 1.316112 0.000000 0.000000 0.000000
0.949566 0.509491 1.378825 0.000000 0.000000 0.000000
0.947514 0.519411 1.647011 0.000000 0.000000 0.000000
0.977381 0.535097 1.289052 0.000000 0.000000 0.000000
1.015517 0.541353 1.331563 0.000000 0.000000 0.000000
0.994481 0.536343 1.311374 0.000000 0.000000 0.000000
0.913884 0.486272 1.578650 0.000000 0.000000 0.000000
0.924773 0.498258 1.617469 0.000000 0.000000 0.000000
0.853204 0.451837 1.449464 0.000000 0.000000 0.000000
0.963160 0.532655 1.650277 0.000000 0.000000 0.000000
1.010333 0.562345 1.612547 0.000000 0.000000 0.000000
0.911118 0.483839 1.598611 0.000000 0.000000 0.000000
0.911599 0.487048 1.602092 0.000000 0.000000 0.000000
0.925281 0.496869 1.617235 0.000000 0.000000 0.000000
0.962141 0.531849 1.284781 0.000000 0.000000 0.000000
0.856743 0.456298 1.430119 0.000000 0.000000 0.000000
0.911835 0.484674 1.607190 0.000000 0.000000 0.000000
0.951776 0.523343 1.307416 0.000000 0.000000 0.000000
0.861319 0.453389 1.473459 0.000000 0.000000 0.000000
0.901331 0.479958 1.552051 0.000000 0.000000 0.000000
0.903070 0.479400 1.572832 0.000000 0.000000 0.000000
1.035311 0.556648 1.337525 0.000000 0.000000 0.000000
0.860603 0.453484 1.465890 0.000000 0.000000 0.000000
0.925026 0.495770 1.625493 0.000000 0.000000 0.000000
0.943695 0.523098 1.285102 0.000000 0.000000 0.000000
0.956346 0.518003 1.638596 0.000000 0.000000 0.000000
0.908199 0.483501 1.598225 0.000000 0.000000 0.000000
0.954744 0.529458 1.283369 0.000000 0.000000 0.000000
0.895023 0.472718 1.563404 0.000000 0.000000 0.000000
0.863218 0.469842 1.365201 0.000000 0.000000 0.000000
1.026504 0.565731 1.563674 0.000000 0.000000 0.000000
0.859205 0.450345 1.472738 0.000000 0.000000 0.000000
0.857758 0.455683 1.433036 0.000000 0.000000 0.000000
0.854331 0.448200 1.473848 0.000000 0.000000 0.000000
0.974768 0.525778 1.535532 0.000000 0.000000 0.000000
0.854030 0.451929 1.449639 0.000000 0.000000 0.000000
1.039119 0.556894 1.355458 0.000000 0.000000 0.000000
0.937551 0.506156 1.626747 0.000000 0.000000 0.000000
0.943018 0.510391 1.633148 0.000000 0.000000 0.000000
0.875196 0.458172 1.502667 0.000000 0.000000 0.000000
0.905081 0.480372 1.574768 0.000000 0.000000 0.000000
0.901511 0.477378 1.583751 0.000000 0.000000 0.000000
0.941334 0.512698 1.639461 0.000000 0.000000 0.000000
0.891992 0.463933 1.549772 0.000000 0.000000 0.000000
0.995651 0.553532 1.629556 0.000000 0.000000 0.000000
0.944347 0.518689 1.311169 0.000000 0.000000 0.000000
0.897917 0.475436 1.582212 0.000000 0.000000 0.000000
0.915255 0.510266 1.295830 0.000000 0.000000 0.000000
0.929348 0.501387 1.624478 0.000000 0.000000 0.000000
0.915051 0.486164 1.539570 0.000000 0.000000 0.000000
0.918744 0.504941 1.322211 0.000000 0.000000 0.000000
1.057839 0.565252 1.402439 0.000000 0.000000 0.000000
0.912994 0.489713 1.614979 0.000000 0.000000 0.000000
0.947138 0.513675 1.616424 0.000000 0.000000 0.000000
1.010291 0.538027 1.324581 0.000000 0.000000 0.000000
1.014044 0.540628 1.335525 0.000000 0.000000 0.000000
1.003680 0.561580 1.624525 0.000000 0.000000 0.000000
0.876639 0.485264 1.326311 0.000000 0.000000 0.000000
0.893291 0.471826 1.565794 0.000000 0.000000 0.000000
0.923960 0.496876 1.627017 0.000000 0.000000 0.000000
0.939485 0.509046 1.640646 0.000000 0.000000 0.000000
0.939076 0.509213 1.634837 0.000000 0.000000 0.000000
0.901737 0.479426 1.581539 0.000000 0.000000 0.000000
1.049425 0.555285 1.377209 0.000000 0.000000 0.000000
0.859119 0.461038 1.412824 0.000000 0.000000 0.000000
0.922687 0.512739 1.291885 0.000000 0.000000 0.000000
1.043804 0.572492 1.542297 0.000000 0.000000 0.000000
0.853320 0.450582 1.454387 0.000000 0.000000 0.000000
0.919044 0.510862 1.294183 0.000000 0.000000 0.000000
0.973522 0.539115 1.645381 0.000000 0.000000 0.000000
0.867880 0.453583 1.509205 0.000000 0.000000 0.000000
0.950493 0.516219 1.622511 0.000000 0.000000 0.000000
0.882246 0.487174 1.320663 0.000000 0.000000 0.000000
0.889023 0.492335 1.335949 0.000000 0.000000 0.000000
1.031108 0.574144 1.562252 0.000000 0.000000 0.000000
0.967143 0.537032 1.650962 0.000000 0.000000 0.000000
0.925112 0.497203 1.618329 0.000000 0.000000 0.000000
1.048116 0.569350 1.529294 0.000000 0.000000 0.000000
0.895622 0.474970 1.556110 0.000000 0.000000 0.000000
0.862489 0.452562 1.452595 0.000000 0.000000 0.000000
0.934566 0.503452 1.614711 0.000000 0.000000 0.000000
0.949643 0.517874 1.621827 0.000000 0.000000 0.000000
0.944466 0.517523 1.645473 0.000000 0.000000 0.000000
0.947473 0.516146 1.632041 0.000000 0.000000 0.000000
0.851709 0.451553 1.438415 0.000000 0.000000 0.000000
1.016323 0.553112 1.320086 0.000000 0.000000 0.000000
0.873243 0.481174 1.342430 0.000000 0.000000 0.000000
1.013659 0.570347 1.604195 0.000000 0.000000 0.000000
0.982990 0.531829 1.301668 0.000000 0.000000 0.000000
0.948286 0.517974 1.640087 0.000000 0.000000 0.000000
0.953536 0.520254 1.635183 0.000000 0.000000 0.000000
0.900373 0.490609 1.342470 0.000000 0.000000 0.000000
0.889392 0.489064 1.339147 0.000000 0.000000 0.000000
0.908921 0.504670 1.304213 0.000000 0.000000 0.000000
0.852999 0.455197 1.427441 0.000000 0.000000 0.000000
0.860126 0.467660 1.369315 0.000000 0.000000 0.000000
1.010718 0.562322 1.612040 0.000000 0.000000 0.000000
1.004787 0.557112 1.623171 0.000000 0.000000 0.000000
0.872002 0.457150 1.508636 0.000000 0.000000 0.000000
0.970230 0.534641 1.642047 0.000000 0.000000 0.000000
0.894247 0.472112 1.576037 0.000000 0.000000 0.000000
1.068213 0.575443 1.503305 0.000000 0.000000 0.000000
0.925369 0.499034 1.626212 0.000000 0.000000 0.000000
0.939236 0.521565 1.283571 0.000000 0.000000 0.000000
0.951199 0.523154 1.648901 0.000000 0.000000 0.000000
0.889376 0.494359 1.318876 0.000000 0.000000 0.000000
0.916927 0.509474 1.300079 0.000000 0.000000 0.000000
1.027495 0.551709 1.327292 0.000000 0.000000 0.000000
0.968049 0.536476 1.645722 0.000000 0.000000 0.000000
0.875429 0.459077 1.528878 0.000000 0.000000 0.000000
0.898960 0.500009 1.312073 0.000000 0.000000 0.000000
0.988652 0.547619 1.625738 0.000000 0.000000 0.000000
1.022159 0.551792 1.345105 0.000000 0.000000 0.000000
0.987682 0.550631 1.643549 0.000000 0.000000 0.000000
0.870901 0.456002 1.502724 0.000000 0.000000 0.000000
0.880095 0.482638 1.346667 0.000000 0.000000 0.000000
0.969382 0.537278 1.647079 0.000000 0.000000 0.000000
0.993356 0.553095 1.639700 0.000000 0.000000 0.000000
1.027639 0.571125 1.553304 0.000000 0.000000 0.000000
0.885036 0.465127 1.558694 0.000000 0.000000 0.000000
0.876557 0.483605 1.336533 0.000000 0.000000 0.000000
1.031900 0.554634 1.338986 0.000000 0.000000 0.000000
0.917401 0.510791 1.303145 0.000000 0.000000 0.000000
0.884421 0.489945 1.329755 0.000000 0.000000 0.000000
0.893864 0.493687 1.327408 0.000000 0.000000 0.000000
0.865618 0.453896 1.513567 0.000000 0.000000 0.000000
0.891511 0.492729 1.328516 0.000000 0.000000 0.000000
0.880806 0.480810 1.352327 0.000000 0.000000 0.000000
1.025087 0.553853 1.331643 0.000000 0.000000 0.000000
0.900053 0.496202 1.326466 0.000000 0.000000 0.000000
0.881327 0.485686 1.340343 0.000000 0.000000 0.000000
0.876252 0.483370 1.337901 0.000000 0.000000 0.000000
0.889119 0.487627 1.343866 0.000000 0.000000 0.000000
1.020777 0.547645 1.361935 0.000000 0.000000 0.000000
0.929390 0.514048 1.301660 0.000000 0.000000 0.000000
0.882437 0.485258 1.341316 0.000000 0.000000 0.000000
0.971700 0.534766 1.638126 0.000000 0.000000 0.000000
0.877834 0.458855 1.543894 0.000000 0.000000 0.000000
0.991559 0.549661 1.638763 0.000000 0.000000 0.000000
0.912156 0.483911 1.572017 0.000000 0.000000 0.000000
1.060124 0.562893 1.414374 0.000000 0.000000 0.000000
1.038120 0.576941 1.564864 0.000000 0.000000 0.000000
0.928042 0.498061 1.605983 0.000000 0.000000 0.000000
0.966655 0.534262 1.645836 0.000000 0.000000 0.000000
0.956369 0.525811 1.647626 0.000000 0.000000 0.000000
0.859185 0.450973 1.475106 0.000000 0.000000 0.000000
0.967907 0.533661 1.634490 0.000000 0.000000 0.000000
0.993418 0.533485 1.487657 0.000000 0.000000 0.000000
1.005764 0.559513 1.623295 0.000000 0.000000 0.000000
1.016411 0.541850 1.341215 0.000000 0.000000 0.000000
1.021134 0.548534 1.320904 0.000000 0.000000 0.000000
0.985110 0.527797 1.482107 0.000000 0.000000 0.000000
0.870575 0.466459 1.396062 0.000000 0.000000 0.000000
1.057518 0.562998 1.448851 0.000000 0.000000 0.000000
0.983085 0.545827 1.645539 0.000000 0.000000 0.000000
0.982179 0.545029 1.645085 0.000000 0.000000 0.000000
0.959339 0.525839 1.314217 0.000000 0.000000 0.000000
0.865392 0.470828 1.367690 0.000000 0.000000 0.000000
0.894582 0.470631 1.542515 0.000000 0.000000 0.000000
0.850671 0.449831 1.472188 0.000000 0.000000 0.000000
0.919945 0.510710 1.294056 0.000000 0.000000 0.000000
0.943973 0.528159 1.278262 0.000000 0.000000 0.000000
0.968553 0.542938 1.654544 0.000000 0.000000 0.000000
0.935005 0.515206 1.308440 0.000000 0.000000 0.000000
0.975062 0.530744 1.295181 0.000000 0.000000 0.000000
0.916341 0.510024 1.298247 0.000000 0.000000 0.000000
0.863284 0.456054 1.475168 0.000000 0.000000 0.000000
0.960594 0.526970 1.304488 0.000000 0.000000 0.000000
0.858537 0.452630 1.456895 0.000000 0.000000 0.000000
0.999064 0.555009 1.628469 0.000000 0.000000 0.000000
1.014118 0.568459 1.602412 0.000000 0.000000 0.000000
0.958200 0.531184 1.287182 0.000000 0.000000 0.000000
0.884033 0.463386 1.545036 0.000000 0.000000 0.000000
0.996407 0.552605 1.596072 0.000000 0.000000 0.000000
0.854699 0.451636 1.443009 0.000000 0.000000 0.000000
0.900623 0.478485 1.565463 0.000000 0.000000 0.000000
0.925879 0.497971 1.626967 0.000000 0.000000 0.000000
0.851717 0.452766 1.429906 0.000000 0.000000 0.000000
0.859915 0.452138 1.457127 0.000000 0.000000 0.000000
0.852759 0.455862 1.423093 0.000000 0.000000 0.000000
0.855861 0.457803 1.423269 0.000000 0.000000 0.000000
1.004859 0.556387 1.617297 0.000000 0.000000 0.000000
0.858369 0.455916 1.438127 0.000000 0.000000 0.000000
0.881328 0.462363 1.524636 0.000000 0.000000 0.000000
0.861602 0.456472 1.454852 0.000000 0.000000 0.000000
1.050964 0.560281 1.369671 0.000000 0.000000 0.000000
0.859480 0.456344 1.436970 0.000000 0.000000 0.000000
0.865417 0.459105 1.441923 0.000000 0.000000 0.000000
0.858930 0.458139 1.430711 0.000000 0.000000 0.000000
0.869485 0.463026 1.444856 0.000000 0.000000 0.000000
0.859118 0.457922 1.433721 0.000000 0.000000 0.000000
1.045107 0.567359 1.522461 0.000000 0.000000 0.000000
1.052025 0.571306 1.527163 0.000000 0.000000 0.000000
0.853001 0.454298 1.434101 0.000000 0.000000 0.000000
0.989507 0.528053 1.383769 0.000000 0.000000 0.000000
0.869888 0.454413 1.509091 0.000000 0.000000 0.000000
0.862266 0.453113 1.487261 0.000000 0.000000 0.000000
0.863207 0.453017 1.481246 0.000000 0.000000 0.000000
0.852549 0.451333 1.448941 0.000000 0.000000 0.000000
0.861295 0.458998 1.427637 0.000000 0.000000 0.000000
0.875139 0.462088 1.471186 0.000000 0.000000 0.000000
0.860373 0.450163 1.506980 0.000000 0.000000 0.000000
0.860177 0.467485 1.376771 0.000000 0.000000 0.000000
0.878533 0.462128 1.532618 0.000000 0.000000 0.000000
0.862232 0.464223 1.395505 0.000000 0.000000 0.000000
0.892017 0.496060 1.312727 0.000000 0.000000 0.000000
0.853424 0.450683 1.486535 0.000000 0.000000 0.000000
0.860007 0.455282 1.451504 0.000000 0.000000 0.000000
0.859904 0.463671 1.394204 0.000000 0.000000 0.000000
0.973410 0.532051 1.284892 0.000000 0.000000 0.000000
1.034329 0.574706 1.568591 0.000000 0.000000 0.000000
0.916739 0.509358 1.292312 0.000000 0.000000 0.000000
0.850922 0.446239 1.467497 0.000000 0.000000 0.000000
1.053244 0.574651 1.533382 0.000000 0.000000 0.000000
1.033829 0.573774 1.568629 0.000000 0.000000 0.000000
0.869382 0.457357 1.495583 0.000000 0.000000 0.000000
0.886175 0.465828 1.565214 0.000000 0.000000 0.000000
1.022564 0.571904 1.592320 0.000000 0.000000 0.000000
0.869856 0.456814 1.517403 0.000000 0.000000 0.000000
0.891832 0.470156 1.560824 0.000000 0.000000 0.000000
0.979332 0.541374 1.634486 0.000000 0.000000 0.000000
0.954308 0.532981 1.274891 0.000000 0.000000 0.000000
0.858731 0.468077 1.366844 0.000000 0.000000 0.000000
0.878176 0.480532 1.350600 0.000000 0.000000 0.000000
0.950589 0.520448 1.644926 0.000000 0.000000 0.000000
1.029022 0.553468 1.332944 0.000000 0.000000 0.000000
1.052773 0.574387 1.535940 0.000000 0.000000 0.000000
0.941513 0.519265 1.294540 0.000000 0.000000 0.000000
0.860853 0.456815 1.437878 0.000000 0.000000 0.000000
1.000939 0.544965 1.302886 0.000000 0.000000 0.000000
1.029658 0.555657 1.333176 0.000000 0.000000 0.000000
0.936709 0.514488 1.309146 0.000000 0.000000 0.000000
