ply
format ascii 1.0
comment VCGLIB generated
obj_info Generated by SPFormer!
element vertex 884
property float x
property float y
property float z
property float nx
property float ny
property float nz
end_header
0.924257 1.912742 2.122803 0.000000 0.000000 0.000000
0.782140 1.445016 1.636697 0.000000 0.000000 0.000000
0.870554 1.650167 1.839352 0.000000 0.000000 0.000000
0.945954 0.920097 1.220026 0.000000 0.000000 0.000000
0.763692 1.368931 1.566730 0.000000 0.000000 0.000000
0.733258 1.184069 1.416428 0.000000 0.000000 0.000000
0.717731 1.121387 1.375838 0.000000 0.000000 0.000000
0.858500 1.413605 1.604347 0.000000 0.000000 0.000000
0.958203 0.643723 1.056174 0.000000 0.000000 0.000000
0.892081 1.820743 2.031874 0.000000 0.000000 0.000000
0.796979 1.549717 1.668653 0.000000 0.000000 0.000000
0.873089 1.971748 2.065757 0.000000 0.000000 0.000000
0.945964 0.640947 1.235348 0.000000 0.000000 0.000000
0.927816 1.105196 1.365126 0.000000 0.000000 0.000000
0.931968 1.122929 1.369150 0.000000 0.000000 0.000000
0.926908 0.777247 1.102583 0.000000 0.000000 0.000000
0.937509 0.987552 1.278451 0.000000 0.000000 0.000000
0.862265 1.562443 1.681139 0.000000 0.000000 0.000000
0.861277 1.854152 1.965891 0.000000 0.000000 0.000000
0.936571 1.098256 1.350737 0.000000 0.000000 0.000000
0.933744 1.104115 1.353816 0.000000 0.000000 0.000000
0.770461 1.371388 1.568622 0.000000 0.000000 0.000000
0.922139 1.140734 1.393935 0.000000 0.000000 0.000000
0.862880 1.656726 1.846514 0.000000 0.000000 0.000000
0.637737 0.663648 1.005287 0.000000 0.000000 0.000000
0.668115 0.799996 1.107492 0.000000 0.000000 0.000000
0.773128 1.384791 1.594718 0.000000 0.000000 0.000000
0.843175 1.487524 1.663580 0.000000 0.000000 0.000000
0.956465 1.101696 1.327569 0.000000 0.000000 0.000000
0.682783 0.921248 1.211876 0.000000 0.000000 0.000000
0.865973 1.647592 1.845036 0.000000 0.000000 0.000000
0.874456 1.676349 1.862034 0.000000 0.000000 0.000000
0.772978 1.389825 1.599084 0.000000 0.000000 0.000000
0.858920 1.479942 1.658916 0.000000 0.000000 0.000000
0.936147 0.657552 1.038999 0.000000 0.000000 0.000000
0.945804 0.956363 1.263722 0.000000 0.000000 0.000000
0.691641 0.907788 1.209547 0.000000 0.000000 0.000000
0.860651 1.885506 1.991573 0.000000 0.000000 0.000000
0.942457 0.915279 1.215502 0.000000 0.000000 0.000000
0.632834 0.650204 0.989736 0.000000 0.000000 0.000000
0.867872 1.647074 1.835528 0.000000 0.000000 0.000000
0.862185 1.539978 1.668474 0.000000 0.000000 0.000000
0.871836 1.679963 1.861453 0.000000 0.000000 0.000000
0.690481 0.982349 1.260828 0.000000 0.000000 0.000000
0.877217 1.727569 1.919053 0.000000 0.000000 0.000000
0.735429 1.175851 1.422261 0.000000 0.000000 0.000000
0.862836 1.658839 1.846150 0.000000 0.000000 0.000000
0.916041 1.892388 2.097804 0.000000 0.000000 0.000000
0.882016 1.715504 1.906550 0.000000 0.000000 0.000000
0.958694 0.645878 1.014829 0.000000 0.000000 0.000000
0.745732 1.245988 1.460046 0.000000 0.000000 0.000000
0.881198 1.723406 1.914408 0.000000 0.000000 0.000000
0.871905 1.661450 1.846318 0.000000 0.000000 0.000000
0.732035 1.223614 1.454888 0.000000 0.000000 0.000000
0.942899 0.917589 1.215867 0.000000 0.000000 0.000000
0.873755 1.719233 1.910746 0.000000 0.000000 0.000000
0.848083 1.629411 1.796436 0.000000 0.000000 0.000000
0.844532 1.488066 1.663983 0.000000 0.000000 0.000000
0.937277 0.912706 1.208097 0.000000 0.000000 0.000000
0.789576 1.550549 1.679387 0.000000 0.000000 0.000000
0.938397 0.647231 1.036590 0.000000 0.000000 0.000000
0.857966 1.519331 1.713816 0.000000 0.000000 0.000000
0.890780 1.822079 2.030346 0.000000 0.000000 0.000000
0.733067 1.192423 1.434023 0.000000 0.000000 0.000000
0.738210 1.188789 1.424902 0.000000 0.000000 0.000000
0.907429 1.883450 2.093511 0.000000 0.000000 0.000000
0.870907 1.551324 1.672004 0.000000 0.000000 0.000000
1.038851 0.753228 1.057708 0.000000 0.000000 0.000000
0.783336 1.410022 1.608892 0.000000 0.000000 0.000000
0.849526 1.555480 1.744147 0.000000 0.000000 0.000000
0.763418 1.577306 1.730195 0.000000 0.000000 0.000000
0.907805 1.891139 2.098897 0.000000 0.000000 0.000000
0.889130 1.813202 2.019223 0.000000 0.000000 0.000000
0.860525 1.465894 1.646830 0.000000 0.000000 0.000000
0.955929 0.639104 1.010671 0.000000 0.000000 0.000000
0.957384 0.642513 1.011673 0.000000 0.000000 0.000000
0.720075 1.080413 1.345297 0.000000 0.000000 0.000000
0.837756 1.572331 1.763114 0.000000 0.000000 0.000000
0.785401 1.437932 1.625805 0.000000 0.000000 0.000000
0.960445 0.647901 1.017494 0.000000 0.000000 0.000000
0.800744 1.546602 1.674758 0.000000 0.000000 0.000000
0.842722 1.552336 1.735778 0.000000 0.000000 0.000000
0.983384 0.790291 1.099492 0.000000 0.000000 0.000000
0.841653 1.502659 1.691049 0.000000 0.000000 0.000000
0.868375 1.655488 1.842787 0.000000 0.000000 0.000000
0.743600 1.242614 1.461581 0.000000 0.000000 0.000000
0.915690 1.889139 2.097877 0.000000 0.000000 0.000000
0.651812 0.704485 1.041213 0.000000 0.000000 0.000000
0.760325 1.298963 1.519673 0.000000 0.000000 0.000000
0.761534 1.297182 1.510968 0.000000 0.000000 0.000000
0.911137 1.873679 2.091298 0.000000 0.000000 0.000000
0.691231 0.946004 1.222784 0.000000 0.000000 0.000000
0.787518 1.443786 1.640328 0.000000 0.000000 0.000000
0.836320 1.573556 1.756149 0.000000 0.000000 0.000000
0.777772 1.541874 1.685968 0.000000 0.000000 0.000000
0.779502 1.543758 1.673998 0.000000 0.000000 0.000000
0.935594 0.650593 1.035657 0.000000 0.000000 0.000000
0.792093 1.542342 1.679961 0.000000 0.000000 0.000000
0.887751 1.750680 1.943975 0.000000 0.000000 0.000000
0.780930 1.438847 1.630006 0.000000 0.000000 0.000000
0.946159 0.995285 1.279168 0.000000 0.000000 0.000000
0.849973 1.627878 1.797519 0.000000 0.000000 0.000000
0.942482 0.860764 1.260165 0.000000 0.000000 0.000000
0.845163 1.631946 1.795291 0.000000 0.000000 0.000000
0.928377 0.707267 1.053316 0.000000 0.000000 0.000000
0.701788 0.977981 1.265784 0.000000 0.000000 0.000000
0.946568 1.037716 1.312114 0.000000 0.000000 0.000000
0.740852 1.178601 1.419171 0.000000 0.000000 0.000000
0.843335 1.567284 1.747832 0.000000 0.000000 0.000000
0.841372 1.579275 1.672966 0.000000 0.000000 0.000000
0.734006 1.165837 1.418412 0.000000 0.000000 0.000000
0.734765 1.165998 1.417464 0.000000 0.000000 0.000000
0.913676 1.890945 2.103338 0.000000 0.000000 0.000000
0.844779 1.627079 1.790628 0.000000 0.000000 0.000000
0.899315 1.826944 2.027459 0.000000 0.000000 0.000000
0.934393 1.034165 1.323717 0.000000 0.000000 0.000000
0.878272 1.723529 1.912048 0.000000 0.000000 0.000000
0.870095 1.656025 1.844560 0.000000 0.000000 0.000000
0.945913 0.695323 1.230616 0.000000 0.000000 0.000000
0.865861 1.652980 1.840465 0.000000 0.000000 0.000000
0.866864 1.646785 1.835257 0.000000 0.000000 0.000000
0.946332 0.919491 1.219827 0.000000 0.000000 0.000000
0.930373 0.663609 1.039658 0.000000 0.000000 0.000000
0.774640 1.380152 1.588004 0.000000 0.000000 0.000000
0.780382 1.433317 1.620162 0.000000 0.000000 0.000000
0.639225 0.664240 1.008671 0.000000 0.000000 0.000000
0.937364 0.661280 1.039093 0.000000 0.000000 0.000000
0.779314 1.416731 1.604448 0.000000 0.000000 0.000000
0.850068 1.446178 1.629824 0.000000 0.000000 0.000000
0.947701 1.009452 1.305380 0.000000 0.000000 0.000000
0.790251 1.446305 1.641616 0.000000 0.000000 0.000000
0.869040 1.650629 1.837759 0.000000 0.000000 0.000000
0.727820 1.150905 1.393766 0.000000 0.000000 0.000000
0.809540 1.610762 1.769381 0.000000 0.000000 0.000000
0.737235 1.180428 1.428692 0.000000 0.000000 0.000000
0.832573 1.781676 1.909966 0.000000 0.000000 0.000000
0.682689 0.914196 1.209798 0.000000 0.000000 0.000000
0.780306 1.440013 1.633600 0.000000 0.000000 0.000000
0.719635 1.068948 1.334382 0.000000 0.000000 0.000000
0.876183 1.960309 2.049251 0.000000 0.000000 0.000000
0.661578 0.773972 1.084135 0.000000 0.000000 0.000000
0.715439 1.068900 1.336225 0.000000 0.000000 0.000000
0.847084 1.815354 1.928128 0.000000 0.000000 0.000000
0.715109 1.069828 1.327160 0.000000 0.000000 0.000000
0.945514 0.613050 1.231027 0.000000 0.000000 0.000000
0.676461 0.825602 1.134281 0.000000 0.000000 0.000000
0.894650 1.844051 2.058376 0.000000 0.000000 0.000000
0.850966 1.625718 1.796838 0.000000 0.000000 0.000000
0.861587 1.657012 1.835458 0.000000 0.000000 0.000000
0.781537 1.452310 1.640079 0.000000 0.000000 0.000000
0.869997 1.677426 1.861769 0.000000 0.000000 0.000000
0.863609 1.380826 1.588371 0.000000 0.000000 0.000000
0.883331 1.724596 1.912351 0.000000 0.000000 0.000000
0.855491 1.474424 1.653766 0.000000 0.000000 0.000000
0.939543 0.889451 1.274499 0.000000 0.000000 0.000000
0.814651 1.659538 1.805467 0.000000 0.000000 0.000000
0.645953 0.722727 1.048648 0.000000 0.000000 0.000000
0.896403 1.808300 2.015154 0.000000 0.000000 0.000000
0.881930 1.730283 1.919097 0.000000 0.000000 0.000000
0.692778 0.930003 1.225047 0.000000 0.000000 0.000000
0.777713 1.437538 1.632717 0.000000 0.000000 0.000000
0.787676 1.436594 1.633126 0.000000 0.000000 0.000000
0.879631 1.739568 1.929061 0.000000 0.000000 0.000000
0.842032 1.602034 1.787754 0.000000 0.000000 0.000000
0.878084 1.737528 1.920407 0.000000 0.000000 0.000000
0.938357 0.860665 1.264915 0.000000 0.000000 0.000000
0.658547 0.718394 1.055377 0.000000 0.000000 0.000000
0.867406 1.555287 1.713397 0.000000 0.000000 0.000000
0.838514 1.806191 1.933131 0.000000 0.000000 0.000000
0.945395 0.931733 1.234208 0.000000 0.000000 0.000000
0.931162 0.661831 1.041044 0.000000 0.000000 0.000000
0.721709 1.085343 1.348546 0.000000 0.000000 0.000000
0.688248 0.932878 1.220967 0.000000 0.000000 0.000000
0.909341 1.862965 2.070850 0.000000 0.000000 0.000000
0.779646 1.429014 1.626388 0.000000 0.000000 0.000000
0.880318 1.733168 1.919264 0.000000 0.000000 0.000000
0.944854 0.885108 1.188172 0.000000 0.000000 0.000000
0.853220 1.816589 1.945425 0.000000 0.000000 0.000000
0.926904 0.693453 1.059620 0.000000 0.000000 0.000000
0.692122 0.908146 1.206381 0.000000 0.000000 0.000000
0.850473 1.819422 1.936381 0.000000 0.000000 0.000000
0.662972 0.824468 1.135144 0.000000 0.000000 0.000000
0.764753 1.358332 1.557561 0.000000 0.000000 0.000000
0.728106 1.166676 1.404270 0.000000 0.000000 0.000000
0.862698 1.648225 1.835530 0.000000 0.000000 0.000000
0.934683 0.648362 1.032342 0.000000 0.000000 0.000000
0.810683 1.638006 1.782786 0.000000 0.000000 0.000000
0.950902 0.758998 1.251790 0.000000 0.000000 0.000000
0.885570 1.747076 1.942680 0.000000 0.000000 0.000000
0.907865 1.882855 2.094244 0.000000 0.000000 0.000000
0.686865 0.922575 1.201946 0.000000 0.000000 0.000000
0.843029 1.511829 1.686166 0.000000 0.000000 0.000000
0.653660 0.703110 1.026192 0.000000 0.000000 0.000000
0.876470 1.719058 1.910107 0.000000 0.000000 0.000000
0.720383 1.074550 1.341692 0.000000 0.000000 0.000000
0.730378 1.130720 1.373508 0.000000 0.000000 0.000000
0.849232 1.444810 1.629759 0.000000 0.000000 0.000000
0.914847 1.892132 2.097548 0.000000 0.000000 0.000000
0.865327 1.656058 1.843385 0.000000 0.000000 0.000000
0.933226 0.880275 1.198683 0.000000 0.000000 0.000000
0.952463 0.600761 1.223965 0.000000 0.000000 0.000000
0.804229 1.613487 1.768953 0.000000 0.000000 0.000000
0.880129 1.717108 1.907146 0.000000 0.000000 0.000000
0.675870 0.847565 1.140364 0.000000 0.000000 0.000000
0.697253 0.996348 1.269965 0.000000 0.000000 0.000000
0.745570 1.235025 1.454587 0.000000 0.000000 0.000000
0.702482 1.028832 1.299870 0.000000 0.000000 0.000000
0.851179 1.809667 1.928586 0.000000 0.000000 0.000000
0.697786 0.975718 1.250258 0.000000 0.000000 0.000000
0.894197 1.806217 2.003153 0.000000 0.000000 0.000000
1.079768 1.043500 1.219054 0.000000 0.000000 0.000000
0.941965 1.116021 1.356311 0.000000 0.000000 0.000000
0.955590 0.658765 1.019596 0.000000 0.000000 0.000000
0.946518 0.603879 1.223345 0.000000 0.000000 0.000000
0.710021 1.080636 1.339627 0.000000 0.000000 0.000000
0.782275 1.462085 1.653804 0.000000 0.000000 0.000000
0.844967 1.562236 1.744670 0.000000 0.000000 0.000000
0.933565 0.801750 1.133186 0.000000 0.000000 0.000000
0.934407 1.141574 1.385028 0.000000 0.000000 0.000000
0.668482 0.802910 1.107706 0.000000 0.000000 0.000000
0.661148 0.808249 1.119075 0.000000 0.000000 0.000000
0.945292 0.676124 1.231159 0.000000 0.000000 0.000000
0.734813 1.165590 1.418250 0.000000 0.000000 0.000000
0.777759 1.437328 1.616940 0.000000 0.000000 0.000000
0.911102 1.877872 2.086323 0.000000 0.000000 0.000000
0.778293 1.442890 1.621587 0.000000 0.000000 0.000000
0.664255 0.777761 1.092370 0.000000 0.000000 0.000000
0.906540 1.860353 2.072750 0.000000 0.000000 0.000000
0.899487 1.848648 2.054907 0.000000 0.000000 0.000000
0.665861 0.795594 1.096787 0.000000 0.000000 0.000000
0.666160 0.798852 1.098984 0.000000 0.000000 0.000000
0.885403 1.760888 1.953220 0.000000 0.000000 0.000000
0.717037 1.056051 1.328313 0.000000 0.000000 0.000000
0.774647 1.433358 1.618811 0.000000 0.000000 0.000000
0.940794 0.917730 1.272302 0.000000 0.000000 0.000000
0.951506 0.998187 1.288148 0.000000 0.000000 0.000000
0.798099 1.542902 1.675145 0.000000 0.000000 0.000000
0.671570 0.833119 1.146809 0.000000 0.000000 0.000000
0.771909 1.426226 1.619792 0.000000 0.000000 0.000000
0.712529 1.069219 1.337132 0.000000 0.000000 0.000000
0.685312 0.948005 1.230326 0.000000 0.000000 0.000000
0.943777 0.648630 1.221344 0.000000 0.000000 0.000000
0.928829 0.706279 1.055251 0.000000 0.000000 0.000000
0.777301 1.391293 1.597054 0.000000 0.000000 0.000000
0.934819 0.901056 1.210876 0.000000 0.000000 0.000000
0.845293 1.514874 1.721213 0.000000 0.000000 0.000000
0.773861 1.390233 1.585135 0.000000 0.000000 0.000000
0.695345 0.982016 1.252744 0.000000 0.000000 0.000000
0.943647 1.110689 1.370540 0.000000 0.000000 0.000000
0.692295 0.953810 1.225844 0.000000 0.000000 0.000000
0.932383 0.897628 1.209388 0.000000 0.000000 0.000000
0.935640 1.129467 1.372758 0.000000 0.000000 0.000000
0.862660 1.670340 1.856368 0.000000 0.000000 0.000000
0.689856 0.916012 1.215488 0.000000 0.000000 0.000000
0.690535 0.912816 1.192863 0.000000 0.000000 0.000000
0.837929 1.806967 1.927685 0.000000 0.000000 0.000000
0.701086 1.023799 1.293444 0.000000 0.000000 0.000000
0.839948 1.502611 1.689208 0.000000 0.000000 0.000000
0.942323 0.828467 1.256562 0.000000 0.000000 0.000000
1.031778 1.068660 1.261979 0.000000 0.000000 0.000000
0.919943 1.906113 2.114965 0.000000 0.000000 0.000000
0.700840 0.972572 1.251249 0.000000 0.000000 0.000000
0.788065 1.445452 1.635069 0.000000 0.000000 0.000000
0.845691 1.595810 1.782819 0.000000 0.000000 0.000000
0.764624 1.391836 1.590509 0.000000 0.000000 0.000000
0.725621 1.166037 1.403512 0.000000 0.000000 0.000000
0.737793 1.168184 1.411377 0.000000 0.000000 0.000000
0.938923 1.061269 1.344527 0.000000 0.000000 0.000000
0.869994 1.653678 1.840844 0.000000 0.000000 0.000000
0.768599 1.435559 1.626057 0.000000 0.000000 0.000000
0.965219 0.706746 1.059812 0.000000 0.000000 0.000000
0.942645 1.038873 1.314246 0.000000 0.000000 0.000000
0.814491 1.642464 1.787482 0.000000 0.000000 0.000000
0.716125 1.079129 1.343807 0.000000 0.000000 0.000000
0.863405 1.866817 1.971982 0.000000 0.000000 0.000000
0.688873 0.936192 1.213914 0.000000 0.000000 0.000000
0.720218 1.069355 1.337597 0.000000 0.000000 0.000000
0.937416 0.645252 1.032302 0.000000 0.000000 0.000000
0.931433 0.668551 1.040807 0.000000 0.000000 0.000000
0.774277 1.391057 1.587184 0.000000 0.000000 0.000000
0.781616 1.446100 1.633906 0.000000 0.000000 0.000000
0.641304 0.666986 1.011411 0.000000 0.000000 0.000000
0.665794 0.766278 1.084078 0.000000 0.000000 0.000000
0.942468 0.643540 1.032734 0.000000 0.000000 0.000000
0.775588 1.387434 1.592056 0.000000 0.000000 0.000000
0.858501 1.438765 1.621912 0.000000 0.000000 0.000000
0.946774 1.020430 1.312206 0.000000 0.000000 0.000000
0.787174 1.440741 1.634792 0.000000 0.000000 0.000000
0.862395 1.648054 1.825612 0.000000 0.000000 0.000000
0.818137 1.605788 1.763598 0.000000 0.000000 0.000000
0.740795 1.180714 1.425095 0.000000 0.000000 0.000000
0.939819 1.121145 1.378172 0.000000 0.000000 0.000000
0.830575 1.770921 1.901746 0.000000 0.000000 0.000000
0.690253 0.904407 1.202594 0.000000 0.000000 0.000000
0.783496 1.437835 1.634577 0.000000 0.000000 0.000000
0.880668 1.980112 2.071635 0.000000 0.000000 0.000000
0.721261 1.079803 1.344803 0.000000 0.000000 0.000000
0.840807 1.527624 1.731487 0.000000 0.000000 0.000000
0.656595 0.770575 1.085441 0.000000 0.000000 0.000000
0.716406 1.076690 1.337035 0.000000 0.000000 0.000000
0.717713 1.075191 1.326961 0.000000 0.000000 0.000000
0.946545 0.618344 1.226139 0.000000 0.000000 0.000000
0.943340 0.921981 1.219024 0.000000 0.000000 0.000000
0.674449 0.812919 1.129140 0.000000 0.000000 0.000000
0.847984 1.629726 1.801508 0.000000 0.000000 0.000000
0.869195 1.649658 1.838646 0.000000 0.000000 0.000000
0.780873 1.439202 1.623712 0.000000 0.000000 0.000000
0.872195 1.684726 1.870896 0.000000 0.000000 0.000000
0.843339 1.586142 1.763894 0.000000 0.000000 0.000000
0.860658 1.652846 1.840374 0.000000 0.000000 0.000000
0.863429 1.372878 1.577463 0.000000 0.000000 0.000000
0.936992 0.884657 1.268364 0.000000 0.000000 0.000000
0.646282 0.718443 1.048349 0.000000 0.000000 0.000000
0.887771 1.814890 2.011293 0.000000 0.000000 0.000000
0.726571 1.140806 1.381224 0.000000 0.000000 0.000000
0.878815 1.719826 1.908354 0.000000 0.000000 0.000000
0.785684 1.441714 1.633065 0.000000 0.000000 0.000000
0.789399 1.450411 1.645659 0.000000 0.000000 0.000000
0.879977 1.735136 1.920527 0.000000 0.000000 0.000000
0.846630 1.597459 1.776044 0.000000 0.000000 0.000000
0.881347 1.732663 1.924431 0.000000 0.000000 0.000000
0.939987 0.865900 1.266392 0.000000 0.000000 0.000000
0.777516 1.395314 1.594618 0.000000 0.000000 0.000000
0.660248 0.733433 1.064587 0.000000 0.000000 0.000000
0.870582 1.556433 1.709342 0.000000 0.000000 0.000000
0.847540 1.804417 1.933135 0.000000 0.000000 0.000000
0.947622 0.923978 1.230492 0.000000 0.000000 0.000000
0.772076 1.438743 1.628134 0.000000 0.000000 0.000000
0.927198 0.684771 1.053019 0.000000 0.000000 0.000000
0.719621 1.083162 1.342881 0.000000 0.000000 0.000000
0.717031 1.093808 1.347107 0.000000 0.000000 0.000000
0.758169 1.350494 1.554179 0.000000 0.000000 0.000000
0.907023 1.872245 2.075177 0.000000 0.000000 0.000000
0.780645 1.434424 1.633367 0.000000 0.000000 0.000000
0.945151 0.891855 1.197760 0.000000 0.000000 0.000000
0.703326 0.984305 1.269628 0.000000 0.000000 0.000000
0.846449 1.804206 1.922679 0.000000 0.000000 0.000000
0.928123 0.680073 1.050620 0.000000 0.000000 0.000000
0.692705 0.915933 1.216145 0.000000 0.000000 0.000000
0.665223 0.823765 1.137614 0.000000 0.000000 0.000000
0.760900 1.350741 1.548731 0.000000 0.000000 0.000000
0.729499 1.163306 1.399686 0.000000 0.000000 0.000000
0.939903 0.636082 1.031230 0.000000 0.000000 0.000000
0.885157 1.749290 1.946953 0.000000 0.000000 0.000000
0.908907 1.880306 2.091359 0.000000 0.000000 0.000000
0.687051 0.931034 1.217538 0.000000 0.000000 0.000000
0.776366 1.439965 1.635263 0.000000 0.000000 0.000000
0.676935 0.893839 1.188312 0.000000 0.000000 0.000000
0.903292 1.847295 2.058764 0.000000 0.000000 0.000000
0.653886 0.711653 1.032677 0.000000 0.000000 0.000000
0.720742 1.079829 1.342884 0.000000 0.000000 0.000000
0.848743 1.441650 1.627818 0.000000 0.000000 0.000000
0.913047 1.888991 2.099214 0.000000 0.000000 0.000000
0.862592 1.648711 1.838148 0.000000 0.000000 0.000000
0.934797 0.873851 1.194352 0.000000 0.000000 0.000000
0.957230 0.604675 1.222811 0.000000 0.000000 0.000000
0.824430 1.662042 1.812418 0.000000 0.000000 0.000000
0.870822 1.957292 2.050336 0.000000 0.000000 0.000000
0.670231 0.843480 1.146916 0.000000 0.000000 0.000000
0.693779 0.995501 1.272462 0.000000 0.000000 0.000000
0.745682 1.239802 1.459048 0.000000 0.000000 0.000000
0.697190 1.014621 1.289486 0.000000 0.000000 0.000000
0.838414 1.816497 1.948032 0.000000 0.000000 0.000000
0.697194 0.986158 1.264374 0.000000 0.000000 0.000000
1.082162 1.040380 1.218150 0.000000 0.000000 0.000000
0.943548 1.118345 1.369023 0.000000 0.000000 0.000000
0.958104 0.651195 1.016790 0.000000 0.000000 0.000000
0.944272 0.597308 1.226298 0.000000 0.000000 0.000000
0.711579 1.090852 1.346469 0.000000 0.000000 0.000000
0.792585 1.492814 1.667826 0.000000 0.000000 0.000000
0.670340 0.796277 1.107517 0.000000 0.000000 0.000000
0.747497 1.255768 1.470149 0.000000 0.000000 0.000000
0.932198 0.812648 1.139670 0.000000 0.000000 0.000000
0.935554 1.132396 1.380350 0.000000 0.000000 0.000000
0.664118 0.788999 1.093658 0.000000 0.000000 0.000000
0.659580 0.811813 1.123873 0.000000 0.000000 0.000000
0.947720 0.673262 1.236112 0.000000 0.000000 0.000000
0.739316 1.181275 1.420509 0.000000 0.000000 0.000000
0.904269 1.879239 2.093003 0.000000 0.000000 0.000000
0.779300 1.454892 1.631488 0.000000 0.000000 0.000000
0.782053 1.432867 1.622461 0.000000 0.000000 0.000000
0.666808 0.792746 1.096209 0.000000 0.000000 0.000000
0.910013 1.881115 2.096046 0.000000 0.000000 0.000000
0.898757 1.849757 2.054900 0.000000 0.000000 0.000000
0.666400 0.794917 1.095562 0.000000 0.000000 0.000000
0.870485 1.655286 1.844810 0.000000 0.000000 0.000000
0.785598 1.443827 1.638166 0.000000 0.000000 0.000000
0.713998 1.075347 1.332976 0.000000 0.000000 0.000000
0.770119 1.433529 1.623040 0.000000 0.000000 0.000000
0.942183 0.920092 1.271523 0.000000 0.000000 0.000000
0.950288 1.003436 1.292789 0.000000 0.000000 0.000000
0.792265 1.545399 1.681863 0.000000 0.000000 0.000000
0.839929 1.805289 1.921976 0.000000 0.000000 0.000000
0.674555 0.816685 1.135247 0.000000 0.000000 0.000000
0.781441 1.442343 1.626534 0.000000 0.000000 0.000000
0.833286 1.770104 1.904077 0.000000 0.000000 0.000000
0.686282 0.939358 1.221990 0.000000 0.000000 0.000000
0.945463 0.656729 1.220811 0.000000 0.000000 0.000000
0.944933 0.664346 1.221481 0.000000 0.000000 0.000000
0.852965 1.566707 1.758131 0.000000 0.000000 0.000000
0.929028 0.714789 1.054066 0.000000 0.000000 0.000000
0.780305 1.393432 1.599233 0.000000 0.000000 0.000000
0.752689 1.310260 1.525479 0.000000 0.000000 0.000000
0.953432 0.635528 1.221674 0.000000 0.000000 0.000000
0.935373 0.908022 1.214602 0.000000 0.000000 0.000000
0.787544 1.449687 1.636173 0.000000 0.000000 0.000000
0.840997 1.524009 1.728848 0.000000 0.000000 0.000000
0.670062 0.828398 1.123960 0.000000 0.000000 0.000000
0.656838 0.736284 1.049512 0.000000 0.000000 0.000000
0.699718 0.998212 1.266351 0.000000 0.000000 0.000000
0.943257 1.122099 1.372757 0.000000 0.000000 0.000000
0.944570 1.115743 1.373000 0.000000 0.000000 0.000000
0.688375 0.939881 1.217551 0.000000 0.000000 0.000000
0.833390 1.804158 1.924999 0.000000 0.000000 0.000000
0.930930 0.892572 1.208163 0.000000 0.000000 0.000000
0.934055 1.134434 1.382490 0.000000 0.000000 0.000000
0.862979 1.676422 1.865146 0.000000 0.000000 0.000000
0.688633 0.899969 1.201164 0.000000 0.000000 0.000000
0.693300 0.934372 1.206756 0.000000 0.000000 0.000000
0.695137 0.998520 1.276254 0.000000 0.000000 0.000000
0.840082 1.511846 1.694334 0.000000 0.000000 0.000000
0.938630 0.834805 1.260364 0.000000 0.000000 0.000000
0.912815 1.913564 2.131871 0.000000 0.000000 0.000000
0.702048 0.977829 1.250728 0.000000 0.000000 0.000000
0.784220 1.457435 1.652580 0.000000 0.000000 0.000000
0.788395 1.461515 1.643205 0.000000 0.000000 0.000000
0.949415 0.612173 1.233106 0.000000 0.000000 0.000000
0.841247 1.594472 1.780411 0.000000 0.000000 0.000000
0.658354 0.805100 1.117520 0.000000 0.000000 0.000000
0.738200 1.169198 1.415240 0.000000 0.000000 0.000000
0.862644 1.652552 1.832792 0.000000 0.000000 0.000000
0.773199 1.452854 1.637894 0.000000 0.000000 0.000000
1.082023 1.051547 1.224795 0.000000 0.000000 0.000000
0.963575 0.712375 1.064028 0.000000 0.000000 0.000000
0.941879 0.688045 1.224399 0.000000 0.000000 0.000000
0.689860 0.939343 1.213128 0.000000 0.000000 0.000000
0.720433 1.068882 1.336249 0.000000 0.000000 0.000000
0.937191 0.649566 1.033755 0.000000 0.000000 0.000000
0.880022 1.715324 1.902916 0.000000 0.000000 0.000000
0.661957 0.810252 1.123738 0.000000 0.000000 0.000000
0.663531 0.792344 1.095760 0.000000 0.000000 0.000000
0.938075 0.763226 1.078065 0.000000 0.000000 0.000000
0.670891 0.793299 1.115519 0.000000 0.000000 0.000000
0.862089 1.401263 1.597843 0.000000 0.000000 0.000000
0.883487 1.751241 1.938151 0.000000 0.000000 0.000000
0.839672 1.524671 1.699896 0.000000 0.000000 0.000000
0.759718 1.495464 1.767078 0.000000 0.000000 0.000000
0.833054 1.757717 1.885520 0.000000 0.000000 0.000000
0.632048 0.647707 0.988605 0.000000 0.000000 0.000000
0.890531 1.829888 2.035984 0.000000 0.000000 0.000000
0.967810 0.635452 1.051222 0.000000 0.000000 0.000000
0.943345 1.046238 1.327594 0.000000 0.000000 0.000000
0.848717 1.479450 1.655727 0.000000 0.000000 0.000000
0.840452 1.583283 1.676845 0.000000 0.000000 0.000000
0.866118 1.395073 1.595522 0.000000 0.000000 0.000000
0.856867 1.442941 1.618593 0.000000 0.000000 0.000000
0.686085 0.875463 1.179836 0.000000 0.000000 0.000000
0.876845 1.708261 1.890288 0.000000 0.000000 0.000000
0.882615 1.740514 1.937431 0.000000 0.000000 0.000000
0.784328 1.453072 1.636705 0.000000 0.000000 0.000000
0.940231 0.800268 1.251941 0.000000 0.000000 0.000000
0.870202 1.701337 1.890592 0.000000 0.000000 0.000000
0.708455 1.007238 1.290820 0.000000 0.000000 0.000000
0.879012 1.743823 1.934134 0.000000 0.000000 0.000000
0.960733 0.648291 1.019798 0.000000 0.000000 0.000000
0.884706 1.748991 1.936353 0.000000 0.000000 0.000000
0.940285 1.049430 1.329275 0.000000 0.000000 0.000000
0.870518 1.690200 1.879156 0.000000 0.000000 0.000000
0.840308 1.743226 1.872693 0.000000 0.000000 0.000000
0.930777 0.731386 1.059500 0.000000 0.000000 0.000000
0.937691 0.759958 1.071955 0.000000 0.000000 0.000000
0.675065 0.882254 1.173649 0.000000 0.000000 0.000000
0.922914 1.196984 1.435082 0.000000 0.000000 0.000000
0.878845 1.749923 1.939176 0.000000 0.000000 0.000000
0.837896 1.504692 1.690412 0.000000 0.000000 0.000000
0.871391 1.680623 1.869385 0.000000 0.000000 0.000000
0.664236 0.811161 1.128902 0.000000 0.000000 0.000000
0.892132 1.228056 1.468468 0.000000 0.000000 0.000000
0.679646 0.861016 1.171530 0.000000 0.000000 0.000000
0.654032 0.697268 1.025810 0.000000 0.000000 0.000000
0.657186 0.689575 1.023873 0.000000 0.000000 0.000000
0.865615 1.686142 1.874724 0.000000 0.000000 0.000000
0.855513 1.915108 2.015289 0.000000 0.000000 0.000000
0.864868 1.693262 1.879338 0.000000 0.000000 0.000000
0.856403 1.906880 2.019629 0.000000 0.000000 0.000000
0.773733 1.530938 1.760774 0.000000 0.000000 0.000000
0.872490 1.692792 1.880650 0.000000 0.000000 0.000000
0.848045 1.478809 1.654806 0.000000 0.000000 0.000000
0.829303 1.563874 1.746347 0.000000 0.000000 0.000000
0.948568 0.884879 1.204382 0.000000 0.000000 0.000000
0.842761 1.577093 1.681571 0.000000 0.000000 0.000000
0.850765 1.895209 1.999232 0.000000 0.000000 0.000000
0.858533 1.401530 1.599887 0.000000 0.000000 0.000000
0.726494 1.169145 1.409167 0.000000 0.000000 0.000000
0.850097 1.889024 2.006562 0.000000 0.000000 0.000000
0.880510 1.769165 1.968809 0.000000 0.000000 0.000000
0.872679 1.566104 1.706951 0.000000 0.000000 0.000000
0.649781 0.744326 1.067525 0.000000 0.000000 0.000000
0.873851 1.562040 1.688838 0.000000 0.000000 0.000000
0.830967 1.573829 1.664071 0.000000 0.000000 0.000000
0.786121 1.448976 1.641602 0.000000 0.000000 0.000000
0.859549 1.495853 1.688897 0.000000 0.000000 0.000000
0.943150 0.695473 1.066949 0.000000 0.000000 0.000000
0.697396 0.995498 1.270939 0.000000 0.000000 0.000000
0.953437 0.651477 1.018237 0.000000 0.000000 0.000000
0.957608 0.652990 1.019074 0.000000 0.000000 0.000000
0.666011 0.816671 1.128983 0.000000 0.000000 0.000000
0.939459 1.053915 1.340936 0.000000 0.000000 0.000000
0.956090 0.658509 1.019260 0.000000 0.000000 0.000000
0.900277 1.847756 2.053871 0.000000 0.000000 0.000000
0.862084 1.678677 1.864293 0.000000 0.000000 0.000000
0.700193 0.997909 1.279029 0.000000 0.000000 0.000000
0.949593 0.676514 1.067047 0.000000 0.000000 0.000000
0.843100 1.497443 1.682392 0.000000 0.000000 0.000000
0.870505 1.949748 2.045286 0.000000 0.000000 0.000000
0.723453 1.110368 1.362386 0.000000 0.000000 0.000000
0.890808 1.789436 1.983716 0.000000 0.000000 0.000000
0.800840 1.531759 1.700016 0.000000 0.000000 0.000000
0.838735 1.530500 1.713099 0.000000 0.000000 0.000000
0.836514 1.528266 1.699094 0.000000 0.000000 0.000000
0.699921 0.988759 1.260065 0.000000 0.000000 0.000000
0.711142 1.088660 1.343151 0.000000 0.000000 0.000000
0.708575 1.029174 1.293741 0.000000 0.000000 0.000000
0.783045 1.454933 1.644637 0.000000 0.000000 0.000000
0.704749 1.008741 1.282153 0.000000 0.000000 0.000000
0.873215 1.704545 1.894090 0.000000 0.000000 0.000000
0.697980 0.999874 1.278755 0.000000 0.000000 0.000000
0.893598 1.837862 2.044641 0.000000 0.000000 0.000000
0.921141 1.193302 1.430462 0.000000 0.000000 0.000000
0.874374 1.676043 1.856742 0.000000 0.000000 0.000000
0.847717 1.796606 1.925872 0.000000 0.000000 0.000000
0.941929 0.606549 1.221723 0.000000 0.000000 0.000000
0.675380 0.877045 1.175018 0.000000 0.000000 0.000000
0.665111 0.780586 1.087082 0.000000 0.000000 0.000000
0.867218 1.892457 2.004893 0.000000 0.000000 0.000000
0.806665 1.622644 1.777968 0.000000 0.000000 0.000000
0.865680 1.408076 1.605413 0.000000 0.000000 0.000000
0.954948 0.662405 1.021255 0.000000 0.000000 0.000000
0.785868 1.464383 1.642292 0.000000 0.000000 0.000000
0.946694 0.877166 1.269332 0.000000 0.000000 0.000000
0.955276 0.665597 1.065873 0.000000 0.000000 0.000000
0.872493 1.962704 2.052461 0.000000 0.000000 0.000000
0.709550 1.046219 1.316478 0.000000 0.000000 0.000000
0.867622 1.391765 1.597293 0.000000 0.000000 0.000000
0.768066 1.529936 1.751671 0.000000 0.000000 0.000000
0.873168 1.697063 1.889049 0.000000 0.000000 0.000000
0.894996 1.827004 2.037162 0.000000 0.000000 0.000000
0.732644 1.207059 1.435800 0.000000 0.000000 0.000000
0.706649 1.002502 1.284016 0.000000 0.000000 0.000000
0.708424 1.069955 1.330657 0.000000 0.000000 0.000000
0.671138 0.792701 1.113082 0.000000 0.000000 0.000000
0.943815 0.977032 1.266659 0.000000 0.000000 0.000000
0.895620 1.834669 2.035124 0.000000 0.000000 0.000000
0.698126 0.966513 1.249595 0.000000 0.000000 0.000000
0.863370 1.942424 2.045038 0.000000 0.000000 0.000000
0.714484 1.076850 1.340441 0.000000 0.000000 0.000000
0.708789 1.066929 1.330930 0.000000 0.000000 0.000000
0.707203 1.062491 1.323363 0.000000 0.000000 0.000000
0.847065 1.781806 1.916126 0.000000 0.000000 0.000000
0.935239 0.917480 1.229540 0.000000 0.000000 0.000000
0.689798 0.887805 1.184035 0.000000 0.000000 0.000000
0.713232 1.068910 1.323521 0.000000 0.000000 0.000000
0.730550 1.177791 1.411220 0.000000 0.000000 0.000000
0.865584 1.937090 2.031841 0.000000 0.000000 0.000000
0.708477 1.065786 1.327299 0.000000 0.000000 0.000000
0.704914 1.040522 1.309010 0.000000 0.000000 0.000000
0.960584 0.695556 1.052003 0.000000 0.000000 0.000000
0.856133 1.899716 2.003387 0.000000 0.000000 0.000000
0.843579 1.524100 1.696164 0.000000 0.000000 0.000000
0.677456 0.883436 1.182274 0.000000 0.000000 0.000000
0.706447 1.055330 1.318131 0.000000 0.000000 0.000000
0.655118 0.711530 1.044596 0.000000 0.000000 0.000000
0.712476 1.102973 1.357586 0.000000 0.000000 0.000000
0.702849 0.992820 1.262697 0.000000 0.000000 0.000000
1.148657 1.017984 1.165739 0.000000 0.000000 0.000000
0.873322 1.681554 1.865583 0.000000 0.000000 0.000000
0.783154 1.441894 1.637197 0.000000 0.000000 0.000000
0.911268 1.217215 1.450503 0.000000 0.000000 0.000000
0.770934 1.421380 1.615149 0.000000 0.000000 0.000000
0.695097 0.991683 1.264103 0.000000 0.000000 0.000000
0.941083 0.631506 1.028498 0.000000 0.000000 0.000000
0.951242 0.999212 1.296421 0.000000 0.000000 0.000000
0.953987 0.659759 1.060616 0.000000 0.000000 0.000000
0.708990 1.059101 1.320760 0.000000 0.000000 0.000000
0.842826 1.779173 1.910306 0.000000 0.000000 0.000000
0.840249 1.811264 1.929101 0.000000 0.000000 0.000000
0.715475 1.108418 1.363103 0.000000 0.000000 0.000000
0.718248 1.111383 1.360125 0.000000 0.000000 0.000000
0.767931 1.515507 1.769971 0.000000 0.000000 0.000000
0.861056 1.416933 1.613135 0.000000 0.000000 0.000000
0.720036 1.137750 1.386294 0.000000 0.000000 0.000000
0.868037 1.396003 1.603288 0.000000 0.000000 0.000000
0.872850 1.702703 1.893596 0.000000 0.000000 0.000000
0.944113 0.862248 1.265250 0.000000 0.000000 0.000000
0.798296 1.499637 1.685212 0.000000 0.000000 0.000000
0.847194 1.528653 1.696221 0.000000 0.000000 0.000000
0.718550 1.125946 1.376430 0.000000 0.000000 0.000000
0.838778 1.783211 1.907814 0.000000 0.000000 0.000000
0.698956 1.003381 1.278800 0.000000 0.000000 0.000000
0.705205 1.003829 1.279528 0.000000 0.000000 0.000000
0.879523 1.705065 1.890809 0.000000 0.000000 0.000000
0.713610 1.100359 1.353240 0.000000 0.000000 0.000000
0.826638 1.546951 1.651565 0.000000 0.000000 0.000000
0.946940 0.678911 1.063909 0.000000 0.000000 0.000000
0.845499 1.798169 1.916487 0.000000 0.000000 0.000000
0.830327 1.738502 1.873879 0.000000 0.000000 0.000000
0.674346 0.881170 1.176807 0.000000 0.000000 0.000000
0.761036 1.349026 1.555423 0.000000 0.000000 0.000000
0.838589 1.578198 1.756652 0.000000 0.000000 0.000000
0.822551 1.731293 1.872161 0.000000 0.000000 0.000000
0.673517 0.880061 1.180339 0.000000 0.000000 0.000000
0.931434 0.818711 1.141229 0.000000 0.000000 0.000000
0.928447 0.695377 1.063538 0.000000 0.000000 0.000000
0.775870 1.445521 1.634747 0.000000 0.000000 0.000000
0.682805 0.891758 1.175797 0.000000 0.000000 0.000000
0.772393 1.441323 1.630719 0.000000 0.000000 0.000000
0.926227 0.726288 1.063632 0.000000 0.000000 0.000000
0.951278 0.993110 1.292398 0.000000 0.000000 0.000000
0.925293 0.736282 1.073327 0.000000 0.000000 0.000000
0.842286 1.489753 1.691828 0.000000 0.000000 0.000000
0.846165 1.778106 1.910110 0.000000 0.000000 0.000000
0.732549 1.182531 1.424379 0.000000 0.000000 0.000000
0.685164 0.940326 1.227910 0.000000 0.000000 0.000000
0.674577 0.889068 1.185286 0.000000 0.000000 0.000000
0.746516 1.297163 1.511163 0.000000 0.000000 0.000000
0.943547 0.659858 1.230701 0.000000 0.000000 0.000000
0.828529 1.744064 1.885896 0.000000 0.000000 0.000000
0.775272 1.453661 1.640986 0.000000 0.000000 0.000000
0.699461 1.024894 1.293486 0.000000 0.000000 0.000000
0.810327 1.644671 1.796558 0.000000 0.000000 0.000000
0.835621 1.547770 1.731201 0.000000 0.000000 0.000000
0.691244 0.929558 1.212381 0.000000 0.000000 0.000000
0.839892 1.520121 1.696942 0.000000 0.000000 0.000000
0.738802 1.260858 1.482852 0.000000 0.000000 0.000000
0.769676 1.419988 1.613994 0.000000 0.000000 0.000000
0.882671 1.752036 1.936968 0.000000 0.000000 0.000000
0.839598 1.511687 1.691459 0.000000 0.000000 0.000000
0.841858 1.587524 1.771349 0.000000 0.000000 0.000000
0.912766 1.208970 1.444036 0.000000 0.000000 0.000000
0.861902 1.924957 2.020469 0.000000 0.000000 0.000000
0.783054 1.474699 1.651342 0.000000 0.000000 0.000000
0.933197 0.891290 1.209408 0.000000 0.000000 0.000000
0.775088 1.470479 1.654499 0.000000 0.000000 0.000000
0.687811 0.880817 1.180780 0.000000 0.000000 0.000000
0.865256 1.380215 1.582755 0.000000 0.000000 0.000000
0.700530 0.994513 1.278037 0.000000 0.000000 0.000000
0.942515 0.667537 1.221982 0.000000 0.000000 0.000000
0.850571 1.517392 1.690335 0.000000 0.000000 0.000000
0.701771 0.997211 1.281377 0.000000 0.000000 0.000000
0.945779 0.698285 1.061885 0.000000 0.000000 0.000000
0.842368 1.496569 1.676107 0.000000 0.000000 0.000000
0.862573 1.938798 2.041566 0.000000 0.000000 0.000000
0.885523 1.765216 1.956982 0.000000 0.000000 0.000000
0.795288 1.521752 1.688028 0.000000 0.000000 0.000000
0.785540 1.531135 1.744482 0.000000 0.000000 0.000000
0.838429 1.519802 1.701326 0.000000 0.000000 0.000000
0.839101 1.517433 1.694915 0.000000 0.000000 0.000000
0.838688 1.800870 1.922821 0.000000 0.000000 0.000000
0.701141 0.999571 1.264732 0.000000 0.000000 0.000000
0.711328 1.088040 1.341899 0.000000 0.000000 0.000000
0.698095 1.011781 1.284109 0.000000 0.000000 0.000000
0.783558 1.458563 1.640530 0.000000 0.000000 0.000000
0.850215 1.806998 1.937080 0.000000 0.000000 0.000000
0.708927 1.010677 1.290380 0.000000 0.000000 0.000000
0.876531 1.711978 1.895044 0.000000 0.000000 0.000000
0.698906 0.999030 1.277212 0.000000 0.000000 0.000000
0.895415 1.842913 2.043617 0.000000 0.000000 0.000000
0.874282 1.681956 1.864581 0.000000 0.000000 0.000000
0.676542 0.878078 1.173464 0.000000 0.000000 0.000000
0.780801 1.438654 1.624723 0.000000 0.000000 0.000000
0.841501 1.817550 1.941233 0.000000 0.000000 0.000000
0.664568 0.777695 1.081631 0.000000 0.000000 0.000000
0.765022 1.528858 1.761536 0.000000 0.000000 0.000000
0.866756 1.896591 2.007617 0.000000 0.000000 0.000000
0.807311 1.632069 1.785549 0.000000 0.000000 0.000000
0.867492 1.399218 1.602129 0.000000 0.000000 0.000000
0.912227 1.207882 1.439656 0.000000 0.000000 0.000000
0.867694 1.400340 1.603671 0.000000 0.000000 0.000000
0.954164 0.658825 1.030583 0.000000 0.000000 0.000000
0.846675 1.514900 1.713276 0.000000 0.000000 0.000000
0.870701 1.373129 1.593495 0.000000 0.000000 0.000000
0.944862 0.858160 1.270404 0.000000 0.000000 0.000000
0.783783 1.470645 1.656809 0.000000 0.000000 0.000000
0.945223 0.870229 1.271280 0.000000 0.000000 0.000000
0.719857 1.089044 1.343420 0.000000 0.000000 0.000000
0.949439 0.664410 1.064082 0.000000 0.000000 0.000000
0.865715 1.943832 2.047387 0.000000 0.000000 0.000000
0.940583 0.767873 1.099590 0.000000 0.000000 0.000000
0.709399 1.042298 1.311842 0.000000 0.000000 0.000000
0.865417 1.416824 1.607571 0.000000 0.000000 0.000000
0.772291 1.534937 1.742862 0.000000 0.000000 0.000000
0.871862 1.692218 1.884257 0.000000 0.000000 0.000000
0.893395 1.823146 2.034282 0.000000 0.000000 0.000000
0.950155 1.046871 1.327931 0.000000 0.000000 0.000000
0.696799 1.000101 1.277176 0.000000 0.000000 0.000000
0.707417 1.062284 1.322267 0.000000 0.000000 0.000000
0.672365 0.792951 1.111543 0.000000 0.000000 0.000000
0.940392 0.628397 1.033010 0.000000 0.000000 0.000000
0.945862 0.978669 1.271001 0.000000 0.000000 0.000000
0.892245 1.828289 2.024207 0.000000 0.000000 0.000000
0.697418 0.969635 1.252035 0.000000 0.000000 0.000000
0.718904 1.080754 1.336375 0.000000 0.000000 0.000000
0.707859 1.068894 1.328751 0.000000 0.000000 0.000000
0.849153 1.779947 1.912547 0.000000 0.000000 0.000000
0.923676 0.738850 1.068965 0.000000 0.000000 0.000000
0.689095 0.903264 1.198198 0.000000 0.000000 0.000000
0.767434 1.373379 1.569239 0.000000 0.000000 0.000000
0.713856 1.069187 1.323460 0.000000 0.000000 0.000000
0.727496 1.178288 1.413718 0.000000 0.000000 0.000000
0.871599 1.941346 2.037632 0.000000 0.000000 0.000000
0.704777 1.053314 1.313835 0.000000 0.000000 0.000000
0.871406 1.359362 1.577271 0.000000 0.000000 0.000000
0.703604 1.050748 1.317243 0.000000 0.000000 0.000000
0.963534 0.703278 1.053668 0.000000 0.000000 0.000000
0.854348 1.899444 2.002597 0.000000 0.000000 0.000000
0.836762 1.529012 1.705955 0.000000 0.000000 0.000000
0.677392 0.892207 1.188356 0.000000 0.000000 0.000000
0.709144 1.071412 1.329672 0.000000 0.000000 0.000000
1.144665 1.017116 1.166522 0.000000 0.000000 0.000000
0.873976 1.683637 1.868956 0.000000 0.000000 0.000000
0.775815 1.437276 1.636172 0.000000 0.000000 0.000000
0.763960 1.396222 1.595604 0.000000 0.000000 0.000000
0.808688 1.649361 1.798538 0.000000 0.000000 0.000000
0.693885 1.000873 1.275001 0.000000 0.000000 0.000000
0.697327 1.011346 1.283475 0.000000 0.000000 0.000000
0.938472 0.640806 1.029781 0.000000 0.000000 0.000000
0.952135 1.023683 1.309431 0.000000 0.000000 0.000000
0.955378 0.670266 1.061520 0.000000 0.000000 0.000000
0.706379 1.048207 1.311689 0.000000 0.000000 0.000000
0.846339 1.782043 1.909785 0.000000 0.000000 0.000000
0.695576 1.003093 1.276270 0.000000 0.000000 0.000000
0.837036 1.802600 1.924251 0.000000 0.000000 0.000000
0.863261 1.420060 1.607695 0.000000 0.000000 0.000000
0.876440 1.699592 1.886434 0.000000 0.000000 0.000000
0.796217 1.495488 1.683096 0.000000 0.000000 0.000000
0.714133 1.108170 1.360708 0.000000 0.000000 0.000000
0.705394 1.024975 1.287188 0.000000 0.000000 0.000000
0.722231 1.124393 1.369825 0.000000 0.000000 0.000000
0.838358 1.551592 1.653979 0.000000 0.000000 0.000000
0.753652 1.306990 1.523039 0.000000 0.000000 0.000000
0.691467 0.981517 1.267143 0.000000 0.000000 0.000000
0.951330 0.668205 1.224992 0.000000 0.000000 0.000000
0.943230 0.682772 1.059929 0.000000 0.000000 0.000000
0.695294 0.996437 1.266560 0.000000 0.000000 0.000000
0.838697 1.752732 1.891864 0.000000 0.000000 0.000000
0.677558 0.882016 1.180937 0.000000 0.000000 0.000000
0.755508 1.325710 1.533513 0.000000 0.000000 0.000000
0.846903 1.580122 1.758560 0.000000 0.000000 0.000000
0.675600 0.881499 1.181368 0.000000 0.000000 0.000000
0.772313 1.440544 1.632506 0.000000 0.000000 0.000000
0.682437 0.895679 1.178964 0.000000 0.000000 0.000000
0.771541 1.434099 1.626284 0.000000 0.000000 0.000000
0.955482 1.004569 1.300224 0.000000 0.000000 0.000000
0.934892 0.744459 1.072432 0.000000 0.000000 0.000000
0.835495 1.489904 1.695323 0.000000 0.000000 0.000000
0.803064 1.551182 1.670788 0.000000 0.000000 0.000000
0.838491 1.775687 1.908625 0.000000 0.000000 0.000000
0.729993 1.185575 1.424068 0.000000 0.000000 0.000000
0.685314 0.945000 1.233377 0.000000 0.000000 0.000000
0.752224 1.285311 1.502613 0.000000 0.000000 0.000000
0.947954 0.666655 1.232435 0.000000 0.000000 0.000000
0.779756 1.472577 1.654712 0.000000 0.000000 0.000000
0.838211 1.761988 1.890699 0.000000 0.000000 0.000000
0.773905 1.441448 1.634341 0.000000 0.000000 0.000000
0.695207 1.004836 1.277915 0.000000 0.000000 0.000000
0.806272 1.627644 1.786946 0.000000 0.000000 0.000000
0.694737 0.930232 1.215468 0.000000 0.000000 0.000000
0.839784 1.520479 1.696803 0.000000 0.000000 0.000000
0.741359 1.269469 1.491014 0.000000 0.000000 0.000000
0.880469 1.757429 1.946439 0.000000 0.000000 0.000000
0.694626 0.993273 1.267605 0.000000 0.000000 0.000000
0.853367 1.807704 1.924590 0.000000 0.000000 0.000000
0.839853 1.524648 1.701304 0.000000 0.000000 0.000000
0.839172 1.580513 1.766773 0.000000 0.000000 0.000000
0.916838 1.195116 1.429247 0.000000 0.000000 0.000000
0.911646 1.201242 1.433389 0.000000 0.000000 0.000000
0.862785 1.909519 2.009361 0.000000 0.000000 0.000000
0.783170 1.465243 1.641572 0.000000 0.000000 0.000000
0.932190 0.888813 1.208481 0.000000 0.000000 0.000000
0.855004 1.890606 1.999590 0.000000 0.000000 0.000000
0.774971 1.471175 1.654490 0.000000 0.000000 0.000000
0.687479 0.875382 1.182277 0.000000 0.000000 0.000000
0.895829 1.819404 2.029986 0.000000 0.000000 0.000000
0.702164 1.004316 1.281511 0.000000 0.000000 0.000000
0.945267 0.669317 1.225983 0.000000 0.000000 0.000000
0.843013 1.507021 1.688036 0.000000 0.000000 0.000000
0.724172 1.548431 1.698771 0.000000 0.000000 0.000000
0.715855 1.113604 1.369305 0.000000 0.000000 0.000000
0.875198 1.566891 1.681274 0.000000 0.000000 0.000000
0.688875 0.938030 1.227523 0.000000 0.000000 0.000000
0.739394 1.170376 1.413158 0.000000 0.000000 0.000000
0.681195 0.916476 1.206643 0.000000 0.000000 0.000000
0.928682 1.166822 1.411672 0.000000 0.000000 0.000000
0.860072 1.401870 1.596615 0.000000 0.000000 0.000000
0.871265 1.563222 1.701930 0.000000 0.000000 0.000000
1.044915 1.063044 1.250103 0.000000 0.000000 0.000000
0.893847 1.808593 2.014995 0.000000 0.000000 0.000000
0.957287 0.593425 1.232064 0.000000 0.000000 0.000000
0.649713 0.712282 1.045860 0.000000 0.000000 0.000000
0.635458 0.648490 0.985706 0.000000 0.000000 0.000000
0.891551 1.829275 2.038497 0.000000 0.000000 0.000000
0.739190 1.159243 1.406401 0.000000 0.000000 0.000000
0.738407 1.185912 1.413845 0.000000 0.000000 0.000000
0.845603 1.472504 1.655488 0.000000 0.000000 0.000000
0.745361 1.558139 1.714294 0.000000 0.000000 0.000000
0.875042 1.685627 1.873948 0.000000 0.000000 0.000000
0.864013 1.371999 1.579117 0.000000 0.000000 0.000000
0.951856 0.645422 1.041473 0.000000 0.000000 0.000000
1.037175 1.067086 1.256533 0.000000 0.000000 0.000000
0.739164 1.245275 1.475167 0.000000 0.000000 0.000000
0.859213 1.415725 1.604324 0.000000 0.000000 0.000000
0.939205 0.999936 1.303305 0.000000 0.000000 0.000000
0.716726 1.118987 1.371420 0.000000 0.000000 0.000000
0.672801 0.877751 1.175617 0.000000 0.000000 0.000000
0.959929 0.781993 1.100993 0.000000 0.000000 0.000000
0.936876 0.771199 1.102675 0.000000 0.000000 0.000000
0.652675 0.759230 1.079640 0.000000 0.000000 0.000000
0.983387 0.786241 1.093409 0.000000 0.000000 0.000000
0.846488 1.635329 1.799806 0.000000 0.000000 0.000000
0.659785 0.794698 1.114097 0.000000 0.000000 0.000000
0.726447 1.105302 1.362547 0.000000 0.000000 0.000000
0.915823 1.879011 2.097150 0.000000 0.000000 0.000000
0.897022 1.806283 2.011685 0.000000 0.000000 0.000000
0.688438 0.911206 1.206052 0.000000 0.000000 0.000000
0.953197 0.620205 1.031061 0.000000 0.000000 0.000000
0.669791 0.830214 1.143556 0.000000 0.000000 0.000000
0.779985 1.416622 1.615981 0.000000 0.000000 0.000000
0.924353 0.744696 1.078397 0.000000 0.000000 0.000000
0.944184 1.002435 1.290199 0.000000 0.000000 0.000000
0.856608 1.414129 1.609937 0.000000 0.000000 0.000000
0.740215 1.255741 1.483136 0.000000 0.000000 0.000000
0.871145 1.657663 1.841248 0.000000 0.000000 0.000000
0.959397 0.630870 1.040806 0.000000 0.000000 0.000000
0.956886 0.633727 1.039177 0.000000 0.000000 0.000000
0.887436 1.803175 2.006578 0.000000 0.000000 0.000000
0.861416 1.545619 1.723137 0.000000 0.000000 0.000000
0.848601 1.634518 1.798041 0.000000 0.000000 0.000000
0.873221 1.561250 1.705699 0.000000 0.000000 0.000000
0.729505 1.177903 1.413913 0.000000 0.000000 0.000000
0.738090 1.168133 1.412957 0.000000 0.000000 0.000000
0.919308 0.743569 1.075448 0.000000 0.000000 0.000000
0.857369 1.464138 1.641780 0.000000 0.000000 0.000000
0.697088 0.963238 1.238974 0.000000 0.000000 0.000000
0.770056 1.575704 1.711275 0.000000 0.000000 0.000000
0.939351 0.832688 1.258589 0.000000 0.000000 0.000000
0.871703 1.656183 1.844884 0.000000 0.000000 0.000000
0.940398 1.008897 1.300777 0.000000 0.000000 0.000000
0.656139 0.793796 1.107301 0.000000 0.000000 0.000000
0.692983 0.921749 1.200702 0.000000 0.000000 0.000000
0.743839 1.247757 1.479223 0.000000 0.000000 0.000000
0.954165 0.781424 1.103938 0.000000 0.000000 0.000000
1.007150 1.077493 1.281790 0.000000 0.000000 0.000000
0.700750 0.994401 1.270252 0.000000 0.000000 0.000000
0.772046 1.574079 1.718372 0.000000 0.000000 0.000000
0.725389 1.101988 1.361764 0.000000 0.000000 0.000000
0.838380 1.770301 1.891677 0.000000 0.000000 0.000000
0.741557 1.189836 1.434708 0.000000 0.000000 0.000000
0.727973 1.117566 1.374042 0.000000 0.000000 0.000000
0.869957 1.692795 1.874779 0.000000 0.000000 0.000000
0.903040 1.301967 1.521503 0.000000 0.000000 0.000000
0.775706 1.565874 1.728109 0.000000 0.000000 0.000000
0.830762 1.743150 1.874490 0.000000 0.000000 0.000000
0.743174 1.195602 1.436465 0.000000 0.000000 0.000000
0.897577 1.835239 2.035783 0.000000 0.000000 0.000000
0.957922 0.595375 1.229302 0.000000 0.000000 0.000000
0.893973 1.796902 2.002441 0.000000 0.000000 0.000000
0.946801 0.782988 1.102048 0.000000 0.000000 0.000000
0.918393 1.906889 2.123170 0.000000 0.000000 0.000000
0.924076 1.178231 1.415609 0.000000 0.000000 0.000000
0.953825 0.594568 1.225193 0.000000 0.000000 0.000000
0.875773 1.700617 1.891362 0.000000 0.000000 0.000000
0.727846 1.100155 1.361955 0.000000 0.000000 0.000000
0.742520 1.266833 1.489332 0.000000 0.000000 0.000000
0.909806 1.175620 1.417168 0.000000 0.000000 0.000000
1.040981 1.065228 1.258315 0.000000 0.000000 0.000000
0.892788 1.806921 2.017861 0.000000 0.000000 0.000000
1.041762 0.738514 1.042144 0.000000 0.000000 0.000000
0.755702 1.551471 1.713168 0.000000 0.000000 0.000000
0.770490 1.562931 1.706033 0.000000 0.000000 0.000000
0.975196 0.787139 1.103764 0.000000 0.000000 0.000000
0.908395 1.300932 1.527925 0.000000 0.000000 0.000000
0.929192 0.755930 1.089546 0.000000 0.000000 0.000000
0.902157 1.302868 1.523730 0.000000 0.000000 0.000000
0.935000 0.821357 1.142930 0.000000 0.000000 0.000000
