ply
format ascii 1.0
comment VCGLIB generated
obj_info Generated by SPFormer!
element vertex 873
property float x
property float y
property float z
property float nx
property float ny
property float nz
end_header
0.098838 1.111868 1.878696 0.000000 0.000000 0.000000
0.002890 1.135943 1.944282 0.000000 0.000000 0.000000
0.097800 1.113910 1.886271 0.000000 0.000000 0.000000
0.090878 1.113095 1.879747 0.000000 0.000000 0.000000
0.170424 1.043422 2.119307 0.000000 0.000000 0.000000
-0.115428 1.169733 2.137909 0.000000 0.000000 0.000000
0.165981 1.039649 2.133958 0.000000 0.000000 0.000000
0.155802 1.085197 1.914751 0.000000 0.000000 0.000000
-0.070943 1.171412 2.220527 0.000000 0.000000 0.000000
-0.114537 1.169460 2.129195 0.000000 0.000000 0.000000
0.163621 1.040758 2.134717 0.000000 0.000000 0.000000
0.153638 1.089518 1.912751 0.000000 0.000000 0.000000
-0.068722 1.171317 2.219900 0.000000 0.000000 0.000000
0.107498 1.114781 1.881034 0.000000 0.000000 0.000000
0.122189 1.114823 1.884345 0.000000 0.000000 0.000000
0.102038 1.113438 1.885140 0.000000 0.000000 0.000000
0.177228 1.086713 1.961703 0.000000 0.000000 0.000000
0.179136 1.071782 2.047541 0.000000 0.000000 0.000000
0.174768 1.087434 1.951631 0.000000 0.000000 0.000000
0.184831 1.073340 2.029444 0.000000 0.000000 0.000000
0.120327 1.122337 1.883276 0.000000 0.000000 0.000000
0.168787 1.090084 1.960296 0.000000 0.000000 0.000000
0.168512 1.085485 2.037359 0.000000 0.000000 0.000000
0.164981 1.042901 2.134255 0.000000 0.000000 0.000000
0.166294 1.086026 1.930924 0.000000 0.000000 0.000000
0.120644 1.119524 1.879678 0.000000 0.000000 0.000000
0.170466 1.045122 2.114229 0.000000 0.000000 0.000000
0.164334 1.041068 2.127694 0.000000 0.000000 0.000000
0.163406 1.087246 1.926178 0.000000 0.000000 0.000000
0.117334 1.117281 1.879383 0.000000 0.000000 0.000000
0.167346 1.042395 2.124370 0.000000 0.000000 0.000000
0.163321 1.041581 2.130296 0.000000 0.000000 0.000000
-0.118942 1.161384 2.244512 0.000000 0.000000 0.000000
-0.127646 1.130191 2.537522 0.000000 0.000000 0.000000
-0.110337 1.130533 2.469576 0.000000 0.000000 0.000000
-0.087791 1.123796 2.426054 0.000000 0.000000 0.000000
-0.126011 1.144060 2.448652 0.000000 0.000000 0.000000
-0.095590 1.093438 2.594292 0.000000 0.000000 0.000000
0.006353 1.053412 2.490895 0.000000 0.000000 0.000000
0.016127 1.044670 2.445611 0.000000 0.000000 0.000000
-0.101533 1.141298 2.387960 0.000000 0.000000 0.000000
-0.127679 1.143364 2.454222 0.000000 0.000000 0.000000
-0.131266 1.116852 2.611466 0.000000 0.000000 0.000000
-0.023935 1.115027 2.349654 0.000000 0.000000 0.000000
-0.113653 1.143414 2.411847 0.000000 0.000000 0.000000
0.021840 1.084714 2.453962 0.000000 0.000000 0.000000
-0.109652 1.105361 2.639023 0.000000 0.000000 0.000000
-0.159485 1.150546 2.529896 0.000000 0.000000 0.000000
0.021602 1.043251 2.514872 0.000000 0.000000 0.000000
0.018939 1.062647 2.458678 0.000000 0.000000 0.000000
-0.015010 1.054397 2.522885 0.000000 0.000000 0.000000
0.006848 1.057125 2.437358 0.000000 0.000000 0.000000
-0.108747 1.105976 2.561298 0.000000 0.000000 0.000000
-0.030387 1.059022 2.585423 0.000000 0.000000 0.000000
-0.042934 1.082299 2.681804 0.000000 0.000000 0.000000
-0.022160 1.059979 2.513715 0.000000 0.000000 0.000000
0.025549 1.089752 2.352822 0.000000 0.000000 0.000000
0.049217 1.090194 2.340934 0.000000 0.000000 0.000000
0.013162 1.111462 2.324908 0.000000 0.000000 0.000000
0.017357 1.113239 2.312350 0.000000 0.000000 0.000000
0.014306 1.051283 2.469101 0.000000 0.000000 0.000000
0.052611 1.043397 2.453318 0.000000 0.000000 0.000000
0.047644 1.077645 2.365604 0.000000 0.000000 0.000000
-0.040703 1.077342 2.480038 0.000000 0.000000 0.000000
0.025173 1.044242 2.467087 0.000000 0.000000 0.000000
-0.004222 1.104632 2.361692 0.000000 0.000000 0.000000
0.059367 1.057490 2.395025 0.000000 0.000000 0.000000
-0.061902 1.106957 2.469017 0.000000 0.000000 0.000000
0.065686 1.031354 2.460280 0.000000 0.000000 0.000000
0.020862 1.121865 2.285495 0.000000 0.000000 0.000000
0.082073 1.056194 2.381447 0.000000 0.000000 0.000000
0.028185 1.076910 2.393448 0.000000 0.000000 0.000000
0.049889 1.060139 2.412435 0.000000 0.000000 0.000000
-0.112050 1.116606 2.534983 0.000000 0.000000 0.000000
0.013523 1.101788 2.342443 0.000000 0.000000 0.000000
0.025644 1.043480 2.476785 0.000000 0.000000 0.000000
0.028198 1.100337 2.331142 0.000000 0.000000 0.000000
0.051885 1.079351 2.362296 0.000000 0.000000 0.000000
0.063681 1.050483 2.420890 0.000000 0.000000 0.000000
-0.119221 1.111482 2.582494 0.000000 0.000000 0.000000
-0.120115 1.109671 2.599185 0.000000 0.000000 0.000000
0.065432 1.056948 2.424585 0.000000 0.000000 0.000000
0.060042 1.061078 2.399939 0.000000 0.000000 0.000000
-0.125694 1.118326 2.651572 0.000000 0.000000 0.000000
0.010343 1.124147 2.303402 0.000000 0.000000 0.000000
0.049523 1.042306 2.450221 0.000000 0.000000 0.000000
-0.029555 1.059655 2.612476 0.000000 0.000000 0.000000
-0.008441 1.056466 2.497669 0.000000 0.000000 0.000000
-0.088624 1.173607 2.310544 0.000000 0.000000 0.000000
-0.003287 1.051343 2.537266 0.000000 0.000000 0.000000
-0.146412 1.170241 2.404392 0.000000 0.000000 0.000000
-0.166274 1.173965 2.435304 0.000000 0.000000 0.000000
-0.114389 1.175308 2.345795 0.000000 0.000000 0.000000
-0.050396 1.127858 2.356581 0.000000 0.000000 0.000000
0.013772 1.050371 2.482078 0.000000 0.000000 0.000000
-0.107738 1.109579 2.549358 0.000000 0.000000 0.000000
-0.017514 1.057055 2.541732 0.000000 0.000000 0.000000
0.039736 1.070719 2.407675 0.000000 0.000000 0.000000
-0.034995 1.095262 2.401920 0.000000 0.000000 0.000000
0.037662 1.085556 2.361732 0.000000 0.000000 0.000000
0.050886 1.054263 2.423253 0.000000 0.000000 0.000000
0.031525 1.059427 2.425983 0.000000 0.000000 0.000000
-0.038386 1.143330 2.312329 0.000000 0.000000 0.000000
-0.002354 1.087502 2.445104 0.000000 0.000000 0.000000
-0.021793 1.063793 2.507530 0.000000 0.000000 0.000000
-0.007990 1.127502 2.317856 0.000000 0.000000 0.000000
0.028661 1.082321 2.446716 0.000000 0.000000 0.000000
-0.140662 1.168105 2.400601 0.000000 0.000000 0.000000
0.037430 1.058714 2.438828 0.000000 0.000000 0.000000
-0.168449 1.177451 2.429157 0.000000 0.000000 0.000000
0.021244 1.074932 2.399480 0.000000 0.000000 0.000000
-0.114697 1.124331 2.512650 0.000000 0.000000 0.000000
-0.055755 1.068504 2.543818 0.000000 0.000000 0.000000
0.021485 1.042194 2.506431 0.000000 0.000000 0.000000
0.060175 1.044822 2.439841 0.000000 0.000000 0.000000
-0.157904 1.139450 2.615413 0.000000 0.000000 0.000000
-0.119744 1.113469 2.561656 0.000000 0.000000 0.000000
-0.171847 1.159449 2.512198 0.000000 0.000000 0.000000
-0.123747 1.116475 2.574699 0.000000 0.000000 0.000000
0.022003 1.076743 2.388269 0.000000 0.000000 0.000000
-0.007378 1.051053 2.546539 0.000000 0.000000 0.000000
0.013074 1.080408 2.379035 0.000000 0.000000 0.000000
-0.144035 1.135424 2.569010 0.000000 0.000000 0.000000
-0.146714 1.131416 2.623343 0.000000 0.000000 0.000000
0.060032 1.055880 2.407959 0.000000 0.000000 0.000000
0.004772 1.078457 2.391096 0.000000 0.000000 0.000000
-0.055530 1.096048 2.439212 0.000000 0.000000 0.000000
-0.135731 1.142843 2.484616 0.000000 0.000000 0.000000
-0.124122 1.113694 2.614330 0.000000 0.000000 0.000000
-0.036471 1.069615 2.495226 0.000000 0.000000 0.000000
-0.015246 1.057910 2.551890 0.000000 0.000000 0.000000
0.036080 1.091692 2.345289 0.000000 0.000000 0.000000
-0.138883 1.180336 2.365625 0.000000 0.000000 0.000000
-0.148988 1.149341 2.497883 0.000000 0.000000 0.000000
-0.025212 1.085254 2.394447 0.000000 0.000000 0.000000
-0.002369 1.049603 2.570416 0.000000 0.000000 0.000000
-0.115526 1.108335 2.632912 0.000000 0.000000 0.000000
-0.034903 1.125135 2.341963 0.000000 0.000000 0.000000
-0.154700 1.138177 2.596460 0.000000 0.000000 0.000000
-0.157616 1.184799 2.383430 0.000000 0.000000 0.000000
0.019509 1.049763 2.433783 0.000000 0.000000 0.000000
-0.019916 1.059092 2.495811 0.000000 0.000000 0.000000
-0.158520 1.170363 2.426762 0.000000 0.000000 0.000000
0.052578 1.059801 2.406742 0.000000 0.000000 0.000000
-0.037496 1.106319 2.377631 0.000000 0.000000 0.000000
0.004906 1.086809 2.362991 0.000000 0.000000 0.000000
-0.156596 1.169124 2.429845 0.000000 0.000000 0.000000
-0.067497 1.168131 2.304762 0.000000 0.000000 0.000000
0.041155 1.050079 2.449474 0.000000 0.000000 0.000000
-0.045538 1.066966 2.518972 0.000000 0.000000 0.000000
0.005201 1.079903 2.393014 0.000000 0.000000 0.000000
-0.167650 1.177808 2.421100 0.000000 0.000000 0.000000
-0.173435 1.169850 2.469364 0.000000 0.000000 0.000000
0.014494 1.052016 2.448610 0.000000 0.000000 0.000000
-0.029537 1.101285 2.370599 0.000000 0.000000 0.000000
0.002732 1.087219 2.358501 0.000000 0.000000 0.000000
-0.146740 1.150898 2.474746 0.000000 0.000000 0.000000
-0.126721 1.115205 2.602401 0.000000 0.000000 0.000000
-0.018294 1.055764 2.582305 0.000000 0.000000 0.000000
0.016967 1.046732 2.471281 0.000000 0.000000 0.000000
0.000454 1.055282 2.481506 0.000000 0.000000 0.000000
0.051185 1.059265 2.411369 0.000000 0.000000 0.000000
-0.034426 1.064187 2.518500 0.000000 0.000000 0.000000
0.066370 1.044986 2.426534 0.000000 0.000000 0.000000
0.027151 1.048592 2.447846 0.000000 0.000000 0.000000
-0.014095 1.079947 2.406775 0.000000 0.000000 0.000000
-0.105945 1.120249 2.504082 0.000000 0.000000 0.000000
-0.143188 1.128794 2.610753 0.000000 0.000000 0.000000
-0.142509 1.143967 2.509380 0.000000 0.000000 0.000000
-0.097940 1.113323 2.509975 0.000000 0.000000 0.000000
-0.075802 1.160760 2.333077 0.000000 0.000000 0.000000
0.038870 1.081888 2.369418 0.000000 0.000000 0.000000
-0.002369 1.093591 2.458344 0.000000 0.000000 0.000000
0.069804 1.057158 2.398120 0.000000 0.000000 0.000000
-0.046131 1.100367 2.405550 0.000000 0.000000 0.000000
-0.152637 1.135583 2.618464 0.000000 0.000000 0.000000
-0.112456 1.104173 2.602284 0.000000 0.000000 0.000000
-0.029903 1.073867 2.474511 0.000000 0.000000 0.000000
-0.178720 1.187761 2.410992 0.000000 0.000000 0.000000
-0.150559 1.144263 2.543937 0.000000 0.000000 0.000000
-0.053538 1.068462 2.553444 0.000000 0.000000 0.000000
-0.036378 1.081873 2.436564 0.000000 0.000000 0.000000
-0.033687 1.110562 2.362320 0.000000 0.000000 0.000000
-0.004621 1.054320 2.512428 0.000000 0.000000 0.000000
0.054899 1.069158 2.380489 0.000000 0.000000 0.000000
-0.021061 1.114264 2.335681 0.000000 0.000000 0.000000
-0.026283 1.070420 2.453144 0.000000 0.000000 0.000000
-0.140490 1.145247 2.484443 0.000000 0.000000 0.000000
-0.029975 1.115311 2.341738 0.000000 0.000000 0.000000
-0.057551 1.076870 2.515849 0.000000 0.000000 0.000000
0.047313 1.069162 2.394028 0.000000 0.000000 0.000000
-0.033507 1.099991 2.379713 0.000000 0.000000 0.000000
0.021885 1.095993 2.332878 0.000000 0.000000 0.000000
-0.157491 1.150889 2.519029 0.000000 0.000000 0.000000
-0.039997 1.146339 2.316806 0.000000 0.000000 0.000000
-0.144948 1.143323 2.520504 0.000000 0.000000 0.000000
-0.156516 1.173203 2.414436 0.000000 0.000000 0.000000
-0.042042 1.116860 2.368491 0.000000 0.000000 0.000000
0.046439 1.075382 2.389026 0.000000 0.000000 0.000000
0.024683 1.067380 2.407772 0.000000 0.000000 0.000000
-0.178461 1.174624 2.466516 0.000000 0.000000 0.000000
-0.178381 1.178524 2.445565 0.000000 0.000000 0.000000
0.014092 1.064990 2.411786 0.000000 0.000000 0.000000
-0.027747 1.055535 2.587214 0.000000 0.000000 0.000000
-0.158309 1.169600 2.429340 0.000000 0.000000 0.000000
-0.015208 1.061964 2.476325 0.000000 0.000000 0.000000
0.060163 1.069289 2.372321 0.000000 0.000000 0.000000
-0.173451 1.167568 2.481709 0.000000 0.000000 0.000000
-0.016562 1.079946 2.393158 0.000000 0.000000 0.000000
-0.025314 1.088552 2.385539 0.000000 0.000000 0.000000
0.019284 1.097797 2.354712 0.000000 0.000000 0.000000
-0.147196 1.185096 2.369628 0.000000 0.000000 0.000000
-0.074838 1.104666 2.474660 0.000000 0.000000 0.000000
-0.133367 1.123132 2.571815 0.000000 0.000000 0.000000
-0.005624 1.050556 2.566855 0.000000 0.000000 0.000000
-0.143384 1.146775 2.492605 0.000000 0.000000 0.000000
-0.096934 1.172236 2.327488 0.000000 0.000000 0.000000
0.038868 1.034006 2.503869 0.000000 0.000000 0.000000
-0.040354 1.105552 2.386961 0.000000 0.000000 0.000000
0.030259 1.043156 2.479346 0.000000 0.000000 0.000000
-0.052754 1.157074 2.298903 0.000000 0.000000 0.000000
-0.048207 1.076144 2.501638 0.000000 0.000000 0.000000
-0.082929 1.124908 2.522538 0.000000 0.000000 0.000000
-0.042910 1.088611 2.428868 0.000000 0.000000 0.000000
-0.153364 1.162565 2.444122 0.000000 0.000000 0.000000
-0.050169 1.078242 2.487820 0.000000 0.000000 0.000000
-0.141090 1.140189 2.530932 0.000000 0.000000 0.000000
-0.095777 1.104372 2.537975 0.000000 0.000000 0.000000
-0.137636 1.124175 2.583292 0.000000 0.000000 0.000000
-0.157807 1.150674 2.509235 0.000000 0.000000 0.000000
0.048414 1.070254 2.376850 0.000000 0.000000 0.000000
-0.009461 1.061731 2.465813 0.000000 0.000000 0.000000
-0.025417 1.076559 2.444699 0.000000 0.000000 0.000000
-0.137402 1.123783 2.621104 0.000000 0.000000 0.000000
-0.182604 1.173047 2.487230 0.000000 0.000000 0.000000
-0.033661 1.060259 2.543854 0.000000 0.000000 0.000000
-0.021594 1.068733 2.458194 0.000000 0.000000 0.000000
0.044594 1.073715 2.383497 0.000000 0.000000 0.000000
-0.158859 1.148961 2.551821 0.000000 0.000000 0.000000
-0.027683 1.087627 2.400551 0.000000 0.000000 0.000000
-0.183128 1.186195 2.426197 0.000000 0.000000 0.000000
-0.045424 1.094371 2.420947 0.000000 0.000000 0.000000
-0.104936 1.116020 2.679777 0.000000 0.000000 0.000000
-0.083956 1.104193 2.685185 0.000000 0.000000 0.000000
0.011228 1.056866 2.455439 0.000000 0.000000 0.000000
0.055200 1.038141 2.452858 0.000000 0.000000 0.000000
0.009656 1.123277 2.298560 0.000000 0.000000 0.000000
-0.060375 1.084025 2.498689 0.000000 0.000000 0.000000
-0.040048 1.078776 2.452127 0.000000 0.000000 0.000000
-0.040322 1.103953 2.497272 0.000000 0.000000 0.000000
-0.137604 1.145109 2.482924 0.000000 0.000000 0.000000
-0.133646 1.118596 2.598764 0.000000 0.000000 0.000000
0.006573 1.059608 2.477504 0.000000 0.000000 0.000000
-0.018699 1.079882 2.418728 0.000000 0.000000 0.000000
-0.144123 1.128730 2.613436 0.000000 0.000000 0.000000
-0.143046 1.127240 2.593651 0.000000 0.000000 0.000000
0.042736 1.091527 2.327546 0.000000 0.000000 0.000000
-0.061900 1.088223 2.486623 0.000000 0.000000 0.000000
-0.033787 1.079980 2.438243 0.000000 0.000000 0.000000
0.034513 1.039287 2.507740 0.000000 0.000000 0.000000
-0.148341 1.178112 2.389235 0.000000 0.000000 0.000000
-0.070098 1.167365 2.311757 0.000000 0.000000 0.000000
-0.016588 1.157049 2.292147 0.000000 0.000000 0.000000
-0.136572 1.125198 2.642593 0.000000 0.000000 0.000000
0.025849 1.044071 2.488286 0.000000 0.000000 0.000000
-0.183904 1.185956 2.431284 0.000000 0.000000 0.000000
-0.147740 1.142844 2.530301 0.000000 0.000000 0.000000
-0.019888 1.130421 2.315955 0.000000 0.000000 0.000000
-0.162159 1.153438 2.510021 0.000000 0.000000 0.000000
-0.086995 1.142704 2.366221 0.000000 0.000000 0.000000
-0.170433 1.185960 2.404011 0.000000 0.000000 0.000000
0.032113 1.051497 2.480186 0.000000 0.000000 0.000000
-0.174434 1.157513 2.540267 0.000000 0.000000 0.000000
-0.134160 1.179890 2.360753 0.000000 0.000000 0.000000
-0.056388 1.082945 2.489655 0.000000 0.000000 0.000000
-0.037982 1.151619 2.349453 0.000000 0.000000 0.000000
-0.004907 1.090527 2.388849 0.000000 0.000000 0.000000
-0.102392 1.099536 2.603553 0.000000 0.000000 0.000000
0.012333 1.080183 2.476151 0.000000 0.000000 0.000000
0.012168 1.045477 2.533120 0.000000 0.000000 0.000000
-0.132481 1.129421 2.557924 0.000000 0.000000 0.000000
-0.117723 1.108227 2.623000 0.000000 0.000000 0.000000
-0.128175 1.168805 2.374194 0.000000 0.000000 0.000000
-0.067682 1.089504 2.511179 0.000000 0.000000 0.000000
-0.053511 1.071592 2.644217 0.000000 0.000000 0.000000
0.007546 1.046404 2.553885 0.000000 0.000000 0.000000
-0.019456 1.069410 2.439170 0.000000 0.000000 0.000000
0.010969 1.049673 2.531102 0.000000 0.000000 0.000000
-0.084811 1.129957 2.384927 0.000000 0.000000 0.000000
-0.089633 1.159138 2.345648 0.000000 0.000000 0.000000
-0.030802 1.077312 2.452508 0.000000 0.000000 0.000000
0.017484 1.081053 2.408573 0.000000 0.000000 0.000000
-0.173357 1.183202 2.418963 0.000000 0.000000 0.000000
-0.004201 1.064149 2.447105 0.000000 0.000000 0.000000
-0.052764 1.076727 2.505389 0.000000 0.000000 0.000000
0.019524 1.039843 2.557119 0.000000 0.000000 0.000000
0.022797 1.039488 2.564151 0.000000 0.000000 0.000000
-0.143374 1.162388 2.418908 0.000000 0.000000 0.000000
-0.088807 1.106484 2.511492 0.000000 0.000000 0.000000
0.040212 1.095271 2.333157 0.000000 0.000000 0.000000
0.061643 1.073799 2.364504 0.000000 0.000000 0.000000
-0.183272 1.187131 2.423001 0.000000 0.000000 0.000000
-0.064730 1.169251 2.277008 0.000000 0.000000 0.000000
-0.109332 1.104228 2.645405 0.000000 0.000000 0.000000
-0.042229 1.061959 2.588195 0.000000 0.000000 0.000000
-0.051845 1.071490 2.636099 0.000000 0.000000 0.000000
-0.026066 1.055979 2.568477 0.000000 0.000000 0.000000
0.069971 1.061118 2.389472 0.000000 0.000000 0.000000
0.022368 1.063777 2.430153 0.000000 0.000000 0.000000
-0.111284 1.183388 2.318974 0.000000 0.000000 0.000000
-0.066543 1.154513 2.329556 0.000000 0.000000 0.000000
0.013085 1.110784 2.332468 0.000000 0.000000 0.000000
-0.072400 1.116706 2.410225 0.000000 0.000000 0.000000
-0.064621 1.158812 2.321089 0.000000 0.000000 0.000000
-0.003138 1.048955 2.579247 0.000000 0.000000 0.000000
-0.189538 1.174116 2.501772 0.000000 0.000000 0.000000
0.041374 1.092965 2.332803 0.000000 0.000000 0.000000
-0.046740 1.062925 2.596968 0.000000 0.000000 0.000000
-0.134995 1.128349 2.667700 0.000000 0.000000 0.000000
-0.179668 1.182246 2.436387 0.000000 0.000000 0.000000
0.026026 1.101758 2.337212 0.000000 0.000000 0.000000
-0.011404 1.071539 2.437238 0.000000 0.000000 0.000000
-0.109677 1.107642 2.588209 0.000000 0.000000 0.000000
0.040490 1.042654 2.446941 0.000000 0.000000 0.000000
-0.158085 1.146803 2.561765 0.000000 0.000000 0.000000
-0.100248 1.116582 2.504038 0.000000 0.000000 0.000000
-0.076848 1.079939 2.625556 0.000000 0.000000 0.000000
0.051868 1.086977 2.340106 0.000000 0.000000 0.000000
-0.168021 1.151016 2.568996 0.000000 0.000000 0.000000
-0.022002 1.054011 2.583703 0.000000 0.000000 0.000000
0.008594 1.044006 2.573629 0.000000 0.000000 0.000000
-0.050483 1.084791 2.467750 0.000000 0.000000 0.000000
-0.161853 1.195125 2.362137 0.000000 0.000000 0.000000
-0.085570 1.105747 2.497836 0.000000 0.000000 0.000000
-0.116566 1.173076 2.354194 0.000000 0.000000 0.000000
-0.066765 1.074684 2.627533 0.000000 0.000000 0.000000
-0.167115 1.158011 2.501926 0.000000 0.000000 0.000000
-0.127010 1.118428 2.634250 0.000000 0.000000 0.000000
-0.105447 1.120396 2.655995 0.000000 0.000000 0.000000
-0.126101 1.134393 2.516576 0.000000 0.000000 0.000000
0.064991 1.032876 2.458297 0.000000 0.000000 0.000000
0.037517 1.039740 2.484295 0.000000 0.000000 0.000000
-0.173192 1.160959 2.516016 0.000000 0.000000 0.000000
-0.195650 1.190824 2.443057 0.000000 0.000000 0.000000
-0.044369 1.139949 2.377846 0.000000 0.000000 0.000000
-0.111556 1.120236 2.685895 0.000000 0.000000 0.000000
-0.123633 1.116592 2.624142 0.000000 0.000000 0.000000
-0.167322 1.153039 2.548285 0.000000 0.000000 0.000000
0.040901 1.090764 2.341955 0.000000 0.000000 0.000000
-0.097332 1.102096 2.662137 0.000000 0.000000 0.000000
0.016577 1.040929 2.575644 0.000000 0.000000 0.000000
0.021918 1.119278 2.294029 0.000000 0.000000 0.000000
0.011113 1.116657 2.322252 0.000000 0.000000 0.000000
-0.178435 1.158878 2.527940 0.000000 0.000000 0.000000
0.039624 1.100005 2.322202 0.000000 0.000000 0.000000
-0.161667 1.159499 2.520617 0.000000 0.000000 0.000000
-0.180170 1.185256 2.415682 0.000000 0.000000 0.000000
0.075815 1.040251 2.425127 0.000000 0.000000 0.000000
-0.078510 1.092947 2.665069 0.000000 0.000000 0.000000
0.013757 1.042605 2.561781 0.000000 0.000000 0.000000
-0.123375 1.115314 2.645370 0.000000 0.000000 0.000000
0.060758 1.052280 2.412940 0.000000 0.000000 0.000000
0.070867 1.069684 2.366253 0.000000 0.000000 0.000000
0.046015 1.085392 2.361714 0.000000 0.000000 0.000000
-0.164701 1.151411 2.557419 0.000000 0.000000 0.000000
-0.131018 1.118542 2.599737 0.000000 0.000000 0.000000
0.074158 1.080663 2.334639 0.000000 0.000000 0.000000
0.064029 1.054304 2.397846 0.000000 0.000000 0.000000
-0.134893 1.123134 2.625132 0.000000 0.000000 0.000000
-0.057702 1.086278 2.679602 0.000000 0.000000 0.000000
-0.147035 1.153185 2.468448 0.000000 0.000000 0.000000
0.009119 1.095196 2.343164 0.000000 0.000000 0.000000
-0.038981 1.064387 2.534574 0.000000 0.000000 0.000000
0.061841 1.049371 2.421592 0.000000 0.000000 0.000000
0.050267 1.085278 2.348919 0.000000 0.000000 0.000000
0.064439 1.034449 2.455339 0.000000 0.000000 0.000000
-0.158104 1.156839 2.481478 0.000000 0.000000 0.000000
0.044752 1.040498 2.469812 0.000000 0.000000 0.000000
-0.060222 1.135816 2.347109 0.000000 0.000000 0.000000
-0.185614 1.166179 2.522264 0.000000 0.000000 0.000000
-0.166051 1.150444 2.562282 0.000000 0.000000 0.000000
-0.131323 1.118810 2.609419 0.000000 0.000000 0.000000
0.046741 1.051427 2.434434 0.000000 0.000000 0.000000
-0.158993 1.168657 2.442954 0.000000 0.000000 0.000000
0.012737 1.112009 2.330490 0.000000 0.000000 0.000000
0.032278 1.039016 2.498489 0.000000 0.000000 0.000000
-0.149070 1.133893 2.635700 0.000000 0.000000 0.000000
-0.100973 1.094147 2.611730 0.000000 0.000000 0.000000
0.065466 1.081068 2.344055 0.000000 0.000000 0.000000
-0.079880 1.081297 2.608116 0.000000 0.000000 0.000000
-0.046173 1.065483 2.577583 0.000000 0.000000 0.000000
-0.066329 1.104601 2.434675 0.000000 0.000000 0.000000
0.019624 1.045187 2.501188 0.000000 0.000000 0.000000
-0.101809 1.099686 2.571186 0.000000 0.000000 0.000000
-0.000085 1.047490 2.558121 0.000000 0.000000 0.000000
-0.102357 1.104156 2.661630 0.000000 0.000000 0.000000
-0.128726 1.118509 2.633842 0.000000 0.000000 0.000000
0.046334 1.041218 2.476530 0.000000 0.000000 0.000000
-0.017861 1.085526 2.377810 0.000000 0.000000 0.000000
-0.152196 1.136327 2.643920 0.000000 0.000000 0.000000
-0.186635 1.168633 2.534280 0.000000 0.000000 0.000000
-0.121170 1.112236 2.630030 0.000000 0.000000 0.000000
0.029201 1.039944 2.513385 0.000000 0.000000 0.000000
-0.042627 1.084962 2.436311 0.000000 0.000000 0.000000
0.047003 1.031376 2.491150 0.000000 0.000000 0.000000
-0.155758 1.146808 2.552786 0.000000 0.000000 0.000000
-0.167164 1.148594 2.577155 0.000000 0.000000 0.000000
-0.169194 1.157209 2.518629 0.000000 0.000000 0.000000
-0.162949 1.150458 2.541156 0.000000 0.000000 0.000000
0.042529 1.031948 2.493143 0.000000 0.000000 0.000000
-0.076913 1.147681 2.340067 0.000000 0.000000 0.000000
-0.188626 1.177405 2.488498 0.000000 0.000000 0.000000
0.036354 1.057789 2.453681 0.000000 0.000000 0.000000
-0.012509 1.053997 2.599102 0.000000 0.000000 0.000000
-0.086212 1.088556 2.642395 0.000000 0.000000 0.000000
-0.008872 1.056051 2.520830 0.000000 0.000000 0.000000
-0.023849 1.083683 2.411403 0.000000 0.000000 0.000000
0.055722 1.066783 2.388950 0.000000 0.000000 0.000000
-0.056477 1.091339 2.456945 0.000000 0.000000 0.000000
-0.019712 1.075115 2.400346 0.000000 0.000000 0.000000
-0.057833 1.127645 2.362866 0.000000 0.000000 0.000000
-0.162009 1.147488 2.568946 0.000000 0.000000 0.000000
-0.176322 1.155907 2.558442 0.000000 0.000000 0.000000
-0.006226 1.079347 2.383875 0.000000 0.000000 0.000000
-0.142356 1.132721 2.655879 0.000000 0.000000 0.000000
-0.040351 1.063149 2.599736 0.000000 0.000000 0.000000
-0.149102 1.135663 2.650231 0.000000 0.000000 0.000000
-0.125382 1.122332 2.660101 0.000000 0.000000 0.000000
-0.146126 1.140294 2.556293 0.000000 0.000000 0.000000
-0.079988 1.173729 2.291116 0.000000 0.000000 0.000000
-0.012029 1.072625 2.418322 0.000000 0.000000 0.000000
-0.036793 1.094644 2.409080 0.000000 0.000000 0.000000
-0.150248 1.138252 2.654646 0.000000 0.000000 0.000000
-0.060772 1.069148 2.558201 0.000000 0.000000 0.000000
0.048125 1.033180 2.481821 0.000000 0.000000 0.000000
0.026982 1.106003 2.313648 0.000000 0.000000 0.000000
-0.002519 1.119597 2.326172 0.000000 0.000000 0.000000
-0.004716 1.072387 2.409802 0.000000 0.000000 0.000000
0.062446 1.039733 2.450223 0.000000 0.000000 0.000000
-0.162308 1.142963 2.597553 0.000000 0.000000 0.000000
-0.011850 1.049432 2.580944 0.000000 0.000000 0.000000
-0.171916 1.176061 2.442916 0.000000 0.000000 0.000000
-0.176910 1.166764 2.495709 0.000000 0.000000 0.000000
0.012202 1.062333 2.419930 0.000000 0.000000 0.000000
0.062038 1.042612 2.429667 0.000000 0.000000 0.000000
-0.099049 1.123027 2.464528 0.000000 0.000000 0.000000
0.000247 1.047674 2.567975 0.000000 0.000000 0.000000
0.030565 1.103864 2.319834 0.000000 0.000000 0.000000
0.067529 1.067386 2.371463 0.000000 0.000000 0.000000
0.066176 1.041186 2.433305 0.000000 0.000000 0.000000
0.014381 1.049843 2.493578 0.000000 0.000000 0.000000
0.076141 1.043365 2.420861 0.000000 0.000000 0.000000
0.023066 1.045473 2.506616 0.000000 0.000000 0.000000
-0.069778 1.080266 2.645170 0.000000 0.000000 0.000000
0.076425 1.037531 2.429713 0.000000 0.000000 0.000000
-0.169860 1.169556 2.463708 0.000000 0.000000 0.000000
-0.169551 1.156777 2.534452 0.000000 0.000000 0.000000
-0.119923 1.126062 2.688592 0.000000 0.000000 0.000000
0.049341 1.072582 2.364037 0.000000 0.000000 0.000000
-0.152598 1.134605 2.603445 0.000000 0.000000 0.000000
-0.043945 1.061021 2.570347 0.000000 0.000000 0.000000
-0.081612 1.111375 2.469784 0.000000 0.000000 0.000000
-0.058930 1.071230 2.579488 0.000000 0.000000 0.000000
-0.131134 1.121862 2.646406 0.000000 0.000000 0.000000
-0.063836 1.075899 2.576325 0.000000 0.000000 0.000000
-0.092517 1.094249 2.574321 0.000000 0.000000 0.000000
0.066480 1.077044 2.356413 0.000000 0.000000 0.000000
0.019356 1.051504 2.554279 0.000000 0.000000 0.000000
0.062532 1.083326 2.344652 0.000000 0.000000 0.000000
0.038435 1.089019 2.353485 0.000000 0.000000 0.000000
-0.005900 1.048171 2.520344 0.000000 0.000000 0.000000
-0.061426 1.103922 2.435912 0.000000 0.000000 0.000000
-0.092515 1.088126 2.609937 0.000000 0.000000 0.000000
-0.084679 1.127651 2.399124 0.000000 0.000000 0.000000
-0.023633 1.095815 2.369885 0.000000 0.000000 0.000000
-0.108417 1.135427 2.447436 0.000000 0.000000 0.000000
-0.072524 1.093453 2.680575 0.000000 0.000000 0.000000
-0.125301 1.128475 2.525975 0.000000 0.000000 0.000000
-0.093710 1.173957 2.319238 0.000000 0.000000 0.000000
0.068489 1.061412 2.380942 0.000000 0.000000 0.000000
-0.093524 1.090992 2.591885 0.000000 0.000000 0.000000
-0.001587 1.140721 2.301741 0.000000 0.000000 0.000000
-0.011799 1.132697 2.308469 0.000000 0.000000 0.000000
-0.145929 1.163725 2.423191 0.000000 0.000000 0.000000
-0.108686 1.162590 2.364349 0.000000 0.000000 0.000000
-0.034002 1.062418 2.625142 0.000000 0.000000 0.000000
-0.092448 1.177063 2.300782 0.000000 0.000000 0.000000
0.071394 1.044415 2.429145 0.000000 0.000000 0.000000
-0.036657 1.121435 2.359153 0.000000 0.000000 0.000000
-0.093520 1.157191 2.341791 0.000000 0.000000 0.000000
-0.080932 1.119394 2.418704 0.000000 0.000000 0.000000
0.029237 1.078979 2.383851 0.000000 0.000000 0.000000
-0.091705 1.172410 2.308966 0.000000 0.000000 0.000000
0.058721 1.045425 2.443692 0.000000 0.000000 0.000000
-0.125542 1.160201 2.392865 0.000000 0.000000 0.000000
-0.130543 1.179866 2.353526 0.000000 0.000000 0.000000
-0.138154 1.166502 2.398273 0.000000 0.000000 0.000000
0.003972 1.074589 2.422318 0.000000 0.000000 0.000000
-0.142041 1.155013 2.439078 0.000000 0.000000 0.000000
0.038477 1.056472 2.421193 0.000000 0.000000 0.000000
-0.143070 1.139825 2.549685 0.000000 0.000000 0.000000
-0.106526 1.174796 2.337484 0.000000 0.000000 0.000000
-0.101654 1.106721 2.544217 0.000000 0.000000 0.000000
-0.024820 1.116083 2.360370 0.000000 0.000000 0.000000
-0.017304 1.055903 2.570392 0.000000 0.000000 0.000000
-0.064292 1.083803 2.663952 0.000000 0.000000 0.000000
-0.074364 1.077356 2.607917 0.000000 0.000000 0.000000
-0.117005 1.169819 2.364087 0.000000 0.000000 0.000000
-0.080341 1.142552 2.365489 0.000000 0.000000 0.000000
-0.142448 1.163309 2.417698 0.000000 0.000000 0.000000
-0.128441 1.164415 2.385121 0.000000 0.000000 0.000000
-0.103163 1.099376 2.628905 0.000000 0.000000 0.000000
-0.044120 1.159577 2.294209 0.000000 0.000000 0.000000
0.031913 1.045917 2.456463 0.000000 0.000000 0.000000
-0.106882 1.098054 2.617625 0.000000 0.000000 0.000000
-0.082651 1.094071 2.662341 0.000000 0.000000 0.000000
-0.069715 1.076494 2.627226 0.000000 0.000000 0.000000
0.000329 1.104518 2.331736 0.000000 0.000000 0.000000
-0.094168 1.114084 2.492075 0.000000 0.000000 0.000000
-0.024767 1.059537 2.530993 0.000000 0.000000 0.000000
-0.041830 1.062097 2.598705 0.000000 0.000000 0.000000
-0.103131 1.098742 2.637805 0.000000 0.000000 0.000000
0.001705 1.113241 2.319402 0.000000 0.000000 0.000000
-0.132757 1.178196 2.368749 0.000000 0.000000 0.000000
-0.106810 1.099086 2.631130 0.000000 0.000000 0.000000
-0.098555 1.179401 2.308963 0.000000 0.000000 0.000000
-0.100257 1.098985 2.648235 0.000000 0.000000 0.000000
-0.070626 1.092987 2.680148 0.000000 0.000000 0.000000
-0.106375 1.113217 2.671886 0.000000 0.000000 0.000000
0.017660 1.117781 2.304182 0.000000 0.000000 0.000000
-0.087601 1.098366 2.547997 0.000000 0.000000 0.000000
-0.025180 1.057013 2.580519 0.000000 0.000000 0.000000
0.008751 1.056772 2.463380 0.000000 0.000000 0.000000
-0.007856 1.069562 2.557729 0.000000 0.000000 0.000000
0.018224 1.082327 2.409235 0.000000 0.000000 0.000000
-0.032309 1.083254 2.428926 0.000000 0.000000 0.000000
-0.063862 1.087315 2.508256 0.000000 0.000000 0.000000
-0.134161 1.172541 2.379200 0.000000 0.000000 0.000000
0.078663 1.047782 2.406869 0.000000 0.000000 0.000000
-0.061049 1.081645 2.517116 0.000000 0.000000 0.000000
-0.137974 1.182110 2.358816 0.000000 0.000000 0.000000
0.078990 1.051180 2.395143 0.000000 0.000000 0.000000
-0.122091 1.116285 2.664470 0.000000 0.000000 0.000000
-0.165049 1.199243 2.357630 0.000000 0.000000 0.000000
-0.144962 1.143361 2.512339 0.000000 0.000000 0.000000
-0.058193 1.148249 2.322920 0.000000 0.000000 0.000000
-0.114015 1.106997 2.570368 0.000000 0.000000 0.000000
0.046361 1.088965 2.340747 0.000000 0.000000 0.000000
-0.057578 1.141987 2.332522 0.000000 0.000000 0.000000
-0.049581 1.079386 2.481522 0.000000 0.000000 0.000000
-0.164355 1.202624 2.350249 0.000000 0.000000 0.000000
-0.113827 1.105888 2.578791 0.000000 0.000000 0.000000
-0.038629 1.066704 2.638978 0.000000 0.000000 0.000000
-0.119140 1.124374 2.682439 0.000000 0.000000 0.000000
-0.071779 1.087626 2.663607 0.000000 0.000000 0.000000
-0.075791 1.084116 2.650721 0.000000 0.000000 0.000000
-0.033251 1.059218 2.556184 0.000000 0.000000 0.000000
0.052770 1.090102 2.332446 0.000000 0.000000 0.000000
-0.110936 1.109566 2.657900 0.000000 0.000000 0.000000
-0.029824 1.065582 2.490824 0.000000 0.000000 0.000000
0.026325 1.037205 2.556767 0.000000 0.000000 0.000000
-0.001249 1.056342 2.496985 0.000000 0.000000 0.000000
-0.065266 1.076970 2.554229 0.000000 0.000000 0.000000
-0.154864 1.145396 2.537007 0.000000 0.000000 0.000000
-0.076358 1.104499 2.698808 0.000000 0.000000 0.000000
-0.010360 1.073116 2.429620 0.000000 0.000000 0.000000
0.022669 1.109768 2.313814 0.000000 0.000000 0.000000
-0.067558 1.124477 2.374152 0.000000 0.000000 0.000000
-0.142197 1.136106 2.563628 0.000000 0.000000 0.000000
-0.094365 1.112474 2.692578 0.000000 0.000000 0.000000
-0.045523 1.107617 2.391874 0.000000 0.000000 0.000000
-0.059435 1.076595 2.651349 0.000000 0.000000 0.000000
0.040225 1.059688 2.431816 0.000000 0.000000 0.000000
0.087229 1.034055 2.431695 0.000000 0.000000 0.000000
0.007742 1.130348 2.287636 0.000000 0.000000 0.000000
-0.072046 1.083270 2.578448 0.000000 0.000000 0.000000
-0.044921 1.079424 2.672158 0.000000 0.000000 0.000000
0.039553 1.099944 2.317485 0.000000 0.000000 0.000000
-0.136656 1.124040 2.591001 0.000000 0.000000 0.000000
-0.114741 1.134879 2.454079 0.000000 0.000000 0.000000
-0.121717 1.113659 2.639812 0.000000 0.000000 0.000000
-0.024375 1.122697 2.327491 0.000000 0.000000 0.000000
-0.069203 1.137764 2.354277 0.000000 0.000000 0.000000
-0.003319 1.055576 2.458143 0.000000 0.000000 0.000000
-0.109962 1.128801 2.474365 0.000000 0.000000 0.000000
0.005588 1.045753 2.546306 0.000000 0.000000 0.000000
-0.090575 1.099150 2.663988 0.000000 0.000000 0.000000
0.060245 1.054103 2.419247 0.000000 0.000000 0.000000
-0.046590 1.064148 2.567436 0.000000 0.000000 0.000000
0.056806 1.071740 2.372060 0.000000 0.000000 0.000000
0.024377 1.104718 2.328343 0.000000 0.000000 0.000000
-0.118071 1.146757 2.405692 0.000000 0.000000 0.000000
-0.010593 1.049832 2.561055 0.000000 0.000000 0.000000
0.075215 1.047299 2.432851 0.000000 0.000000 0.000000
-0.023018 1.134797 2.332714 0.000000 0.000000 0.000000
0.033979 1.075385 2.388722 0.000000 0.000000 0.000000
-0.074670 1.155746 2.318659 0.000000 0.000000 0.000000
-0.160020 1.155179 2.499036 0.000000 0.000000 0.000000
-0.107834 1.137322 2.411967 0.000000 0.000000 0.000000
-0.139762 1.188139 2.345872 0.000000 0.000000 0.000000
-0.128765 1.130555 2.535088 0.000000 0.000000 0.000000
-0.054714 1.067880 2.562650 0.000000 0.000000 0.000000
-0.154792 1.168604 2.433403 0.000000 0.000000 0.000000
-0.139024 1.139321 2.525265 0.000000 0.000000 0.000000
-0.053171 1.069836 2.531089 0.000000 0.000000 0.000000
-0.156195 1.183417 2.386697 0.000000 0.000000 0.000000
-0.069718 1.081748 2.540696 0.000000 0.000000 0.000000
-0.081980 1.156718 2.342562 0.000000 0.000000 0.000000
0.069744 1.046317 2.414187 0.000000 0.000000 0.000000
-0.135400 1.123293 2.589484 0.000000 0.000000 0.000000
-0.025943 1.107590 2.349929 0.000000 0.000000 0.000000
-0.107563 1.170952 2.352584 0.000000 0.000000 0.000000
-0.076421 1.079477 2.638765 0.000000 0.000000 0.000000
-0.112468 1.148770 2.392696 0.000000 0.000000 0.000000
-0.158520 1.186756 2.365646 0.000000 0.000000 0.000000
-0.160385 1.159379 2.472566 0.000000 0.000000 0.000000
0.006729 1.062512 2.428430 0.000000 0.000000 0.000000
-0.029810 1.068051 2.468948 0.000000 0.000000 0.000000
-0.042656 1.066524 2.611122 0.000000 0.000000 0.000000
-0.086885 1.090715 2.629950 0.000000 0.000000 0.000000
0.076180 1.057861 2.396543 0.000000 0.000000 0.000000
-0.139573 1.187340 2.351721 0.000000 0.000000 0.000000
-0.107159 1.110667 2.666400 0.000000 0.000000 0.000000
-0.009112 1.100936 2.337033 0.000000 0.000000 0.000000
-0.157882 1.150665 2.512147 0.000000 0.000000 0.000000
-0.091775 1.117775 2.474016 0.000000 0.000000 0.000000
0.002066 1.054554 2.568709 0.000000 0.000000 0.000000
0.001146 1.116134 2.320457 0.000000 0.000000 0.000000
-0.095408 1.090969 2.625336 0.000000 0.000000 0.000000
-0.082960 1.167470 2.315962 0.000000 0.000000 0.000000
0.079403 1.070026 2.359464 0.000000 0.000000 0.000000
-0.094387 1.092789 2.632496 0.000000 0.000000 0.000000
-0.099950 1.113996 2.688004 0.000000 0.000000 0.000000
0.018556 1.115456 2.303656 0.000000 0.000000 0.000000
-0.092004 1.109847 2.501196 0.000000 0.000000 0.000000
-0.013094 1.057516 2.624588 0.000000 0.000000 0.000000
0.051437 1.043054 2.463388 0.000000 0.000000 0.000000
0.024333 1.113212 2.304029 0.000000 0.000000 0.000000
-0.118442 1.183809 2.325307 0.000000 0.000000 0.000000
0.050607 1.087234 2.341503 0.000000 0.000000 0.000000
0.050534 1.048892 2.445747 0.000000 0.000000 0.000000
-0.039806 1.085488 2.443525 0.000000 0.000000 0.000000
-0.020454 1.141372 2.311870 0.000000 0.000000 0.000000
-0.040373 1.068386 2.643489 0.000000 0.000000 0.000000
-0.089803 1.099974 2.539138 0.000000 0.000000 0.000000
-0.153834 1.188362 2.368433 0.000000 0.000000 0.000000
-0.068868 1.077165 2.563828 0.000000 0.000000 0.000000
-0.162699 1.180386 2.405110 0.000000 0.000000 0.000000
-0.013960 1.117455 2.336406 0.000000 0.000000 0.000000
-0.129682 1.123551 2.669657 0.000000 0.000000 0.000000
-0.112264 1.112561 2.549258 0.000000 0.000000 0.000000
-0.067501 1.077198 2.598804 0.000000 0.000000 0.000000
-0.067067 1.169518 2.298222 0.000000 0.000000 0.000000
-0.072694 1.102073 2.468210 0.000000 0.000000 0.000000
-0.161390 1.141979 2.601896 0.000000 0.000000 0.000000
-0.087372 1.103215 2.679841 0.000000 0.000000 0.000000
-0.122901 1.134593 2.695830 0.000000 0.000000 0.000000
-0.173734 1.183930 2.413973 0.000000 0.000000 0.000000
-0.055660 1.162714 2.307863 0.000000 0.000000 0.000000
-0.090259 1.103637 2.677711 0.000000 0.000000 0.000000
-0.020081 1.058718 2.621070 0.000000 0.000000 0.000000
-0.119623 1.108687 2.590533 0.000000 0.000000 0.000000
0.001067 1.115473 2.365858 0.000000 0.000000 0.000000
-0.019209 1.158734 2.290405 0.000000 0.000000 0.000000
-0.125020 1.136566 2.484107 0.000000 0.000000 0.000000
-0.056798 1.080083 2.663729 0.000000 0.000000 0.000000
0.024996 1.114867 2.304494 0.000000 0.000000 0.000000
0.051571 1.083497 2.355751 0.000000 0.000000 0.000000
-0.040406 1.061430 2.547572 0.000000 0.000000 0.000000
-0.145224 1.129430 2.612886 0.000000 0.000000 0.000000
0.032640 1.082306 2.375495 0.000000 0.000000 0.000000
-0.001125 1.048673 2.546110 0.000000 0.000000 0.000000
0.004089 1.049938 2.529950 0.000000 0.000000 0.000000
0.005225 1.059237 2.439377 0.000000 0.000000 0.000000
-0.107139 1.182333 2.307979 0.000000 0.000000 0.000000
0.035338 1.105568 2.313257 0.000000 0.000000 0.000000
0.016709 1.126349 2.291163 0.000000 0.000000 0.000000
-0.077655 1.130615 2.373063 0.000000 0.000000 0.000000
-0.136732 1.131967 2.556255 0.000000 0.000000 0.000000
-0.042706 1.104277 2.423636 0.000000 0.000000 0.000000
0.027349 1.112736 2.303782 0.000000 0.000000 0.000000
0.019071 1.093100 2.381541 0.000000 0.000000 0.000000
-0.044454 1.067545 2.627148 0.000000 0.000000 0.000000
0.058022 1.049579 2.432623 0.000000 0.000000 0.000000
-0.096933 1.119378 2.483459 0.000000 0.000000 0.000000
-0.098764 1.116162 2.697360 0.000000 0.000000 0.000000
-0.074548 1.081601 2.584934 0.000000 0.000000 0.000000
-0.152549 1.186452 2.371116 0.000000 0.000000 0.000000
0.048710 1.103803 2.362053 0.000000 0.000000 0.000000
-0.032562 1.065659 2.640249 0.000000 0.000000 0.000000
-0.177351 1.175637 2.460861 0.000000 0.000000 0.000000
0.020821 1.119444 2.297022 0.000000 0.000000 0.000000
-0.113505 1.180918 2.327715 0.000000 0.000000 0.000000
-0.003961 1.092534 2.355464 0.000000 0.000000 0.000000
0.010005 1.043924 2.491072 0.000000 0.000000 0.000000
0.039944 1.089762 2.350589 0.000000 0.000000 0.000000
-0.150461 1.191466 2.355336 0.000000 0.000000 0.000000
-0.172269 1.173369 2.453676 0.000000 0.000000 0.000000
-0.179153 1.175918 2.461902 0.000000 0.000000 0.000000
-0.053922 1.069890 2.541446 0.000000 0.000000 0.000000
-0.158826 1.196990 2.353022 0.000000 0.000000 0.000000
-0.120620 1.109653 2.614993 0.000000 0.000000 0.000000
0.015091 1.042268 2.586081 0.000000 0.000000 0.000000
-0.118219 1.124699 2.687055 0.000000 0.000000 0.000000
-0.035654 1.060473 2.612412 0.000000 0.000000 0.000000
-0.022349 1.058412 2.624682 0.000000 0.000000 0.000000
-0.090743 1.101924 2.527777 0.000000 0.000000 0.000000
-0.170831 1.164212 2.485167 0.000000 0.000000 0.000000
-0.016381 1.091298 2.367798 0.000000 0.000000 0.000000
0.017625 1.115060 2.313297 0.000000 0.000000 0.000000
-0.106271 1.128527 2.451491 0.000000 0.000000 0.000000
-0.053787 1.080825 2.666587 0.000000 0.000000 0.000000
-0.183767 1.158168 2.594202 0.000000 0.000000 0.000000
0.039269 1.088006 2.355481 0.000000 0.000000 0.000000
-0.028310 1.058010 2.597946 0.000000 0.000000 0.000000
0.089881 1.052923 2.382071 0.000000 0.000000 0.000000
-0.081356 1.082717 2.619597 0.000000 0.000000 0.000000
-0.057401 1.073390 2.593257 0.000000 0.000000 0.000000
-0.029321 1.144651 2.315657 0.000000 0.000000 0.000000
-0.132609 1.121198 2.579488 0.000000 0.000000 0.000000
0.045898 1.068776 2.400292 0.000000 0.000000 0.000000
-0.165785 1.167265 2.455367 0.000000 0.000000 0.000000
-0.101511 1.097181 2.584737 0.000000 0.000000 0.000000
-0.056375 1.064527 2.578728 0.000000 0.000000 0.000000
-0.104402 1.173972 2.337605 0.000000 0.000000 0.000000
-0.146325 1.153380 2.459119 0.000000 0.000000 0.000000
-0.015778 1.093042 2.357483 0.000000 0.000000 0.000000
-0.172827 1.168960 2.472993 0.000000 0.000000 0.000000
-0.150870 1.138395 2.579100 0.000000 0.000000 0.000000
0.006718 1.055069 2.504364 0.000000 0.000000 0.000000
0.034436 1.095231 2.339588 0.000000 0.000000 0.000000
-0.154248 1.160813 2.454235 0.000000 0.000000 0.000000
-0.045524 1.069357 2.531923 0.000000 0.000000 0.000000
-0.179059 1.201833 2.377617 0.000000 0.000000 0.000000
-0.109995 1.115732 2.677380 0.000000 0.000000 0.000000
-0.156944 1.138807 2.605169 0.000000 0.000000 0.000000
-0.163624 1.144051 2.611630 0.000000 0.000000 0.000000
-0.020544 1.056364 2.609912 0.000000 0.000000 0.000000
0.013540 1.048797 2.502033 0.000000 0.000000 0.000000
-0.024283 1.057976 2.583335 0.000000 0.000000 0.000000
0.010171 1.044804 2.585511 0.000000 0.000000 0.000000
-0.067060 1.075379 2.554132 0.000000 0.000000 0.000000
-0.167099 1.160293 2.487580 0.000000 0.000000 0.000000
-0.174257 1.155008 2.562974 0.000000 0.000000 0.000000
-0.035543 1.064981 2.549874 0.000000 0.000000 0.000000
0.063413 1.061897 2.390980 0.000000 0.000000 0.000000
-0.089145 1.089464 2.601456 0.000000 0.000000 0.000000
-0.143939 1.190946 2.346346 0.000000 0.000000 0.000000
-0.182152 1.164824 2.524604 0.000000 0.000000 0.000000
-0.053828 1.165752 2.291385 0.000000 0.000000 0.000000
-0.062703 1.069559 2.604190 0.000000 0.000000 0.000000
-0.043735 1.073183 2.659515 0.000000 0.000000 0.000000
0.003606 1.126499 2.311721 0.000000 0.000000 0.000000
-0.016486 1.054006 2.598792 0.000000 0.000000 0.000000
-0.134723 1.142932 2.480790 0.000000 0.000000 0.000000
-0.039145 1.071414 2.520573 0.000000 0.000000 0.000000
0.005356 1.076787 2.388212 0.000000 0.000000 0.000000
-0.011261 1.053504 2.524224 0.000000 0.000000 0.000000
-0.087685 1.095188 2.556184 0.000000 0.000000 0.000000
0.032625 1.035862 2.562605 0.000000 0.000000 0.000000
-0.177579 1.157184 2.552987 0.000000 0.000000 0.000000
-0.063013 1.070941 2.568378 0.000000 0.000000 0.000000
-0.015168 1.067191 2.469057 0.000000 0.000000 0.000000
-0.006813 1.078103 2.443548 0.000000 0.000000 0.000000
0.043879 1.047625 2.441054 0.000000 0.000000 0.000000
-0.119579 1.133227 2.489253 0.000000 0.000000 0.000000
-0.187069 1.188008 2.434439 0.000000 0.000000 0.000000
-0.182317 1.181477 2.450931 0.000000 0.000000 0.000000
-0.075010 1.091032 2.669585 0.000000 0.000000 0.000000
-0.142616 1.149912 2.462633 0.000000 0.000000 0.000000
-0.043891 1.062540 2.551188 0.000000 0.000000 0.000000
0.014940 1.089144 2.365595 0.000000 0.000000 0.000000
-0.000673 1.052455 2.515203 0.000000 0.000000 0.000000
-0.100909 1.107581 2.545338 0.000000 0.000000 0.000000
-0.180327 1.182454 2.433769 0.000000 0.000000 0.000000
0.054965 1.099937 2.307065 0.000000 0.000000 0.000000
-0.027536 1.058444 2.509720 0.000000 0.000000 0.000000
-0.186035 1.162060 2.575889 0.000000 0.000000 0.000000
-0.048637 1.103638 2.410308 0.000000 0.000000 0.000000
-0.079404 1.094569 2.517962 0.000000 0.000000 0.000000
-0.170564 1.153892 2.555298 0.000000 0.000000 0.000000
0.046833 1.097290 2.323353 0.000000 0.000000 0.000000
-0.118612 1.149501 2.396982 0.000000 0.000000 0.000000
-0.160329 1.166638 2.453522 0.000000 0.000000 0.000000
0.029274 1.118738 2.299870 0.000000 0.000000 0.000000
-0.065033 1.088003 2.671419 0.000000 0.000000 0.000000
0.068743 1.039926 2.442690 0.000000 0.000000 0.000000
0.022663 1.123167 2.281361 0.000000 0.000000 0.000000
-0.021200 1.062053 2.537303 0.000000 0.000000 0.000000
-0.135888 1.123418 2.629245 0.000000 0.000000 0.000000
0.059380 1.087576 2.330779 0.000000 0.000000 0.000000
-0.056349 1.100140 2.419647 0.000000 0.000000 0.000000
-0.029355 1.063342 2.546019 0.000000 0.000000 0.000000
-0.039837 1.061261 2.584883 0.000000 0.000000 0.000000
-0.075216 1.082199 2.632750 0.000000 0.000000 0.000000
-0.066430 1.170053 2.289539 0.000000 0.000000 0.000000
0.060566 1.084534 2.338948 0.000000 0.000000 0.000000
0.044946 1.106025 2.298231 0.000000 0.000000 0.000000
-0.009054 1.055099 2.629277 0.000000 0.000000 0.000000
-0.136550 1.124283 2.632077 0.000000 0.000000 0.000000
-0.156298 1.138324 2.644861 0.000000 0.000000 0.000000
0.052265 1.029631 2.478837 0.000000 0.000000 0.000000
-0.068223 1.101534 2.438997 0.000000 0.000000 0.000000
-0.031722 1.058228 2.603368 0.000000 0.000000 0.000000
-0.031102 1.063545 2.629784 0.000000 0.000000 0.000000
0.007633 1.129935 2.303553 0.000000 0.000000 0.000000
-0.075215 1.085714 2.557592 0.000000 0.000000 0.000000
-0.011613 1.152689 2.288790 0.000000 0.000000 0.000000
-0.187307 1.185684 2.441539 0.000000 0.000000 0.000000
-0.021577 1.159884 2.279307 0.000000 0.000000 0.000000
0.081408 1.051165 2.393086 0.000000 0.000000 0.000000
-0.185165 1.162749 2.541187 0.000000 0.000000 0.000000
-0.171890 1.146810 2.608860 0.000000 0.000000 0.000000
-0.043333 1.075143 2.475605 0.000000 0.000000 0.000000
0.034010 1.050186 2.500868 0.000000 0.000000 0.000000
-0.055326 1.084679 2.477552 0.000000 0.000000 0.000000
-0.050504 1.066562 2.611295 0.000000 0.000000 0.000000
-0.079858 1.088657 2.567647 0.000000 0.000000 0.000000
0.031556 1.044615 2.498642 0.000000 0.000000 0.000000
0.012450 1.122457 2.305617 0.000000 0.000000 0.000000
0.071263 1.025802 2.472018 0.000000 0.000000 0.000000
-0.122352 1.121675 2.685296 0.000000 0.000000 0.000000
-0.007475 1.053183 2.498064 0.000000 0.000000 0.000000
-0.179798 1.159384 2.541734 0.000000 0.000000 0.000000
-0.068037 1.092282 2.490337 0.000000 0.000000 0.000000
-0.042238 1.067096 2.523195 0.000000 0.000000 0.000000
-0.182537 1.189942 2.411262 0.000000 0.000000 0.000000
-0.100579 1.181394 2.299436 0.000000 0.000000 0.000000
-0.120160 1.188508 2.314570 0.000000 0.000000 0.000000
-0.002804 1.051456 2.520092 0.000000 0.000000 0.000000
-0.024878 1.063719 2.645977 0.000000 0.000000 0.000000
0.042062 1.037018 2.490478 0.000000 0.000000 0.000000
-0.046016 1.083084 2.456184 0.000000 0.000000 0.000000
-0.038824 1.071988 2.658977 0.000000 0.000000 0.000000
-0.187772 1.194366 2.410541 0.000000 0.000000 0.000000
-0.124883 1.118889 2.653269 0.000000 0.000000 0.000000
0.011733 1.042788 2.578332 0.000000 0.000000 0.000000
-0.020856 1.061955 2.640046 0.000000 0.000000 0.000000
-0.164156 1.184686 2.396640 0.000000 0.000000 0.000000
0.052890 1.075685 2.373338 0.000000 0.000000 0.000000
-0.164910 1.145151 2.631888 0.000000 0.000000 0.000000
-0.164118 1.144725 2.627775 0.000000 0.000000 0.000000
-0.170899 1.156641 2.527687 0.000000 0.000000 0.000000
-0.152787 1.142957 2.567141 0.000000 0.000000 0.000000
0.062574 1.062557 2.402090 0.000000 0.000000 0.000000
-0.176355 1.152782 2.594724 0.000000 0.000000 0.000000
-0.181407 1.159967 2.590168 0.000000 0.000000 0.000000
0.031814 1.089857 2.368588 0.000000 0.000000 0.000000
-0.123785 1.123698 2.674793 0.000000 0.000000 0.000000
-0.164303 1.143928 2.622971 0.000000 0.000000 0.000000
-0.170665 1.149009 2.594534 0.000000 0.000000 0.000000
0.071912 1.066978 2.376638 0.000000 0.000000 0.000000
0.029544 1.103243 2.320466 0.000000 0.000000 0.000000
0.021290 1.046791 2.518189 0.000000 0.000000 0.000000
-0.094958 1.184832 2.281331 0.000000 0.000000 0.000000
-0.154791 1.143051 2.567329 0.000000 0.000000 0.000000
0.017969 1.123587 2.289778 0.000000 0.000000 0.000000
0.038847 1.106630 2.303320 0.000000 0.000000 0.000000
-0.010662 1.055579 2.536089 0.000000 0.000000 0.000000
0.024964 1.052547 2.470518 0.000000 0.000000 0.000000
-0.184168 1.161158 2.553985 0.000000 0.000000 0.000000
0.015363 1.124051 2.292479 0.000000 0.000000 0.000000
-0.046565 1.075278 2.657773 0.000000 0.000000 0.000000
0.026997 1.042419 2.495246 0.000000 0.000000 0.000000
-0.034308 1.159335 2.279978 0.000000 0.000000 0.000000
-0.021682 1.077222 2.421231 0.000000 0.000000 0.000000
0.064153 1.088234 2.331985 0.000000 0.000000 0.000000
-0.049904 1.068169 2.596433 0.000000 0.000000 0.000000
-0.189940 1.171684 2.516799 0.000000 0.000000 0.000000
-0.005096 1.140456 2.301081 0.000000 0.000000 0.000000
-0.043502 1.134671 2.334678 0.000000 0.000000 0.000000
-0.168959 1.148659 2.584880 0.000000 0.000000 0.000000
-0.058412 1.166037 2.287066 0.000000 0.000000 0.000000
