ply
format ascii 1.0
comment VCGLIB generated
obj_info Generated by SPFormer!
element vertex 884
property float x
property float y
property float z
property float nx
property float ny
property float nz
end_header
0.428919 1.911678 1.762096 0.000000 0.000000 0.000000
0.589921 1.901163 1.702857 0.000000 0.000000 0.000000
0.602464 1.865865 1.683436 0.000000 0.000000 0.000000
0.635053 1.958109 1.694210 0.000000 0.000000 0.000000
0.507541 1.827772 1.787383 0.000000 0.000000 0.000000
0.584088 1.963249 1.726565 0.000000 0.000000 0.000000
0.444132 1.927848 1.752936 0.000000 0.000000 0.000000
0.561096 1.911234 1.726965 0.000000 0.000000 0.000000
0.638190 1.988078 1.710697 0.000000 0.000000 0.000000
0.639122 1.960114 1.691892 0.000000 0.000000 0.000000
0.455042 2.006328 1.755808 0.000000 0.000000 0.000000
0.615377 1.869065 1.673780 0.000000 0.000000 0.000000
0.617081 2.031401 1.747508 0.000000 0.000000 0.000000
0.436565 1.964260 1.753976 0.000000 0.000000 0.000000
0.581753 1.949793 1.724150 0.000000 0.000000 0.000000
0.569364 1.960271 1.733829 0.000000 0.000000 0.000000
0.589906 2.045780 1.757572 0.000000 0.000000 0.000000
0.553041 1.907934 1.730190 0.000000 0.000000 0.000000
0.407019 1.905052 1.772001 0.000000 0.000000 0.000000
0.502720 1.802319 1.796182 0.000000 0.000000 0.000000
0.428508 1.951561 1.758607 0.000000 0.000000 0.000000
0.590180 2.058065 1.765250 0.000000 0.000000 0.000000
0.435838 1.892695 1.767344 0.000000 0.000000 0.000000
0.425543 1.848389 1.800060 0.000000 0.000000 0.000000
0.466620 1.979405 1.749389 0.000000 0.000000 0.000000
0.586047 1.968471 1.725738 0.000000 0.000000 0.000000
0.455785 1.832523 1.802379 0.000000 0.000000 0.000000
0.509545 1.791006 1.800007 0.000000 0.000000 0.000000
0.540747 1.798311 1.787162 0.000000 0.000000 0.000000
0.449890 1.992042 1.754417 0.000000 0.000000 0.000000
0.591075 1.853629 1.693994 0.000000 0.000000 0.000000
0.650261 1.986883 1.700404 0.000000 0.000000 0.000000
0.420273 1.870464 1.785755 0.000000 0.000000 0.000000
0.602014 1.867242 1.685316 0.000000 0.000000 0.000000
0.558586 1.873148 1.722875 0.000000 0.000000 0.000000
0.477313 1.910760 1.746521 0.000000 0.000000 0.000000
0.620338 1.863311 1.667483 0.000000 0.000000 0.000000
0.563584 2.066454 1.769230 0.000000 0.000000 0.000000
0.472686 1.870987 1.756760 0.000000 0.000000 0.000000
0.478905 1.929892 1.739806 0.000000 0.000000 0.000000
0.564264 2.065843 1.768520 0.000000 0.000000 0.000000
0.418670 1.906286 1.766499 0.000000 0.000000 0.000000
0.427225 1.898314 1.763603 0.000000 0.000000 0.000000
0.421405 1.926224 1.761974 0.000000 0.000000 0.000000
0.638258 1.891409 1.661088 0.000000 0.000000 0.000000
0.583981 1.783863 1.705595 0.000000 0.000000 0.000000
0.449905 1.996932 1.755881 0.000000 0.000000 0.000000
0.409005 1.902321 1.771894 0.000000 0.000000 0.000000
0.421900 1.856808 1.792924 0.000000 0.000000 0.000000
0.594850 2.069045 1.774328 0.000000 0.000000 0.000000
0.536975 1.781242 1.789076 0.000000 0.000000 0.000000
0.457882 1.992307 1.752540 0.000000 0.000000 0.000000
0.603306 1.851136 1.681762 0.000000 0.000000 0.000000
0.626253 2.020437 1.739025 0.000000 0.000000 0.000000
0.492765 1.830477 1.763859 0.000000 0.000000 0.000000
0.487339 1.994285 1.746132 0.000000 0.000000 0.000000
0.493632 2.022787 1.752851 0.000000 0.000000 0.000000
0.614419 1.833229 1.676030 0.000000 0.000000 0.000000
0.614414 1.875198 1.674119 0.000000 0.000000 0.000000
0.586293 1.779761 1.709121 0.000000 0.000000 0.000000
0.550023 1.924371 1.729854 0.000000 0.000000 0.000000
0.600093 1.850593 1.686808 0.000000 0.000000 0.000000
0.634417 1.973513 1.703298 0.000000 0.000000 0.000000
0.447851 1.995135 1.760003 0.000000 0.000000 0.000000
0.618086 1.801406 1.669905 0.000000 0.000000 0.000000
0.434388 1.863982 1.782669 0.000000 0.000000 0.000000
0.437076 1.965733 1.754965 0.000000 0.000000 0.000000
0.402134 1.876052 1.786714 0.000000 0.000000 0.000000
0.497845 2.033459 1.755979 0.000000 0.000000 0.000000
0.640621 1.931369 1.679014 0.000000 0.000000 0.000000
0.499231 2.022388 1.752491 0.000000 0.000000 0.000000
0.633956 2.043175 1.751329 0.000000 0.000000 0.000000
0.590139 2.051381 1.763101 0.000000 0.000000 0.000000
0.441422 1.893083 1.762232 0.000000 0.000000 0.000000
0.455928 1.902999 1.752504 0.000000 0.000000 0.000000
0.502666 1.885239 1.747992 0.000000 0.000000 0.000000
0.570341 2.035872 1.754600 0.000000 0.000000 0.000000
0.546237 1.860820 1.735921 0.000000 0.000000 0.000000
0.535316 1.990569 1.740123 0.000000 0.000000 0.000000
0.584902 1.811419 1.719867 0.000000 0.000000 0.000000
0.646032 2.037173 1.740728 0.000000 0.000000 0.000000
0.541552 2.018590 1.749803 0.000000 0.000000 0.000000
0.614700 1.944930 1.700062 0.000000 0.000000 0.000000
0.621269 1.979827 1.712406 0.000000 0.000000 0.000000
0.597948 2.066214 1.769252 0.000000 0.000000 0.000000
0.619907 1.811596 1.668819 0.000000 0.000000 0.000000
0.525946 2.046262 1.762588 0.000000 0.000000 0.000000
0.433809 1.902442 1.762029 0.000000 0.000000 0.000000
0.492003 1.997480 1.740416 0.000000 0.000000 0.000000
0.537394 2.040210 1.759341 0.000000 0.000000 0.000000
0.588508 1.996645 1.738985 0.000000 0.000000 0.000000
0.461120 1.963672 1.744984 0.000000 0.000000 0.000000
0.496378 2.027871 1.759023 0.000000 0.000000 0.000000
0.419045 1.921236 1.767888 0.000000 0.000000 0.000000
0.620096 1.867260 1.668865 0.000000 0.000000 0.000000
0.636073 2.029289 1.738945 0.000000 0.000000 0.000000
0.419655 1.896356 1.769952 0.000000 0.000000 0.000000
0.433121 1.857599 1.787596 0.000000 0.000000 0.000000
0.606104 1.790416 1.684632 0.000000 0.000000 0.000000
0.636456 2.015928 1.730503 0.000000 0.000000 0.000000
0.492750 2.004252 1.746372 0.000000 0.000000 0.000000
0.618432 1.947461 1.698354 0.000000 0.000000 0.000000
0.465721 1.896527 1.747592 0.000000 0.000000 0.000000
0.545916 2.060833 1.768637 0.000000 0.000000 0.000000
0.636379 1.905918 1.669257 0.000000 0.000000 0.000000
0.626475 1.996988 1.718171 0.000000 0.000000 0.000000
0.597677 2.051910 1.761714 0.000000 0.000000 0.000000
0.438706 1.904095 1.764529 0.000000 0.000000 0.000000
0.458410 1.866958 1.762371 0.000000 0.000000 0.000000
0.622529 1.954454 1.699844 0.000000 0.000000 0.000000
0.424579 1.931931 1.760093 0.000000 0.000000 0.000000
0.602931 2.037626 1.754374 0.000000 0.000000 0.000000
0.424739 1.894515 1.780172 0.000000 0.000000 0.000000
0.593571 1.924363 1.704835 0.000000 0.000000 0.000000
0.614376 1.945288 1.703000 0.000000 0.000000 0.000000
0.631858 2.049639 1.757953 0.000000 0.000000 0.000000
0.639469 2.003554 1.722074 0.000000 0.000000 0.000000
0.422144 1.904333 1.767671 0.000000 0.000000 0.000000
0.465166 1.866156 1.754488 0.000000 0.000000 0.000000
0.610050 1.995950 1.722270 0.000000 0.000000 0.000000
0.547328 2.037789 1.757890 0.000000 0.000000 0.000000
0.619694 1.833146 1.670832 0.000000 0.000000 0.000000
0.539870 2.007578 1.745567 0.000000 0.000000 0.000000
0.647048 1.978871 1.699966 0.000000 0.000000 0.000000
0.587093 2.073932 1.775668 0.000000 0.000000 0.000000
0.633265 1.857852 1.658927 0.000000 0.000000 0.000000
0.538602 2.058823 1.767169 0.000000 0.000000 0.000000
0.471459 2.012407 1.757019 0.000000 0.000000 0.000000
0.504002 2.019224 1.750955 0.000000 0.000000 0.000000
0.454717 1.971151 1.749838 0.000000 0.000000 0.000000
0.429423 1.875123 1.773633 0.000000 0.000000 0.000000
0.415638 1.945240 1.759277 0.000000 0.000000 0.000000
0.614334 2.007223 1.733597 0.000000 0.000000 0.000000
0.625369 1.899979 1.673580 0.000000 0.000000 0.000000
0.408174 1.920078 1.767711 0.000000 0.000000 0.000000
0.607555 1.996798 1.729736 0.000000 0.000000 0.000000
0.654061 1.986835 1.700585 0.000000 0.000000 0.000000
0.413567 1.895130 1.773063 0.000000 0.000000 0.000000
0.426111 1.949988 1.757085 0.000000 0.000000 0.000000
0.532480 2.033212 1.756968 0.000000 0.000000 0.000000
0.650461 1.991834 1.704784 0.000000 0.000000 0.000000
0.402013 1.912839 1.774799 0.000000 0.000000 0.000000
0.551821 2.053943 1.764372 0.000000 0.000000 0.000000
0.515694 2.021175 1.748939 0.000000 0.000000 0.000000
0.636786 1.899581 1.665210 0.000000 0.000000 0.000000
0.446278 1.952450 1.750564 0.000000 0.000000 0.000000
0.644044 1.960158 1.689801 0.000000 0.000000 0.000000
0.627865 1.886369 1.667544 0.000000 0.000000 0.000000
0.413931 1.893053 1.772803 0.000000 0.000000 0.000000
0.462462 1.984365 1.751447 0.000000 0.000000 0.000000
0.577868 2.047332 1.758518 0.000000 0.000000 0.000000
0.649775 2.015449 1.721574 0.000000 0.000000 0.000000
0.632123 1.896250 1.667147 0.000000 0.000000 0.000000
0.416679 1.913243 1.765758 0.000000 0.000000 0.000000
0.630978 1.919850 1.678446 0.000000 0.000000 0.000000
0.419066 1.877420 1.777329 0.000000 0.000000 0.000000
0.434710 1.982020 1.760565 0.000000 0.000000 0.000000
0.434615 1.927090 1.756262 0.000000 0.000000 0.000000
0.471944 1.967023 1.750475 0.000000 0.000000 0.000000
0.411860 1.929577 1.766838 0.000000 0.000000 0.000000
0.617588 2.045007 1.758710 0.000000 0.000000 0.000000
0.452688 1.841978 1.789697 0.000000 0.000000 0.000000
0.650876 1.935289 1.674768 0.000000 0.000000 0.000000
0.408194 1.866029 1.793253 0.000000 0.000000 0.000000
0.415997 1.869924 1.784611 0.000000 0.000000 0.000000
0.424405 1.842807 1.803607 0.000000 0.000000 0.000000
0.426622 1.969258 1.758501 0.000000 0.000000 0.000000
0.602347 1.802105 1.682092 0.000000 0.000000 0.000000
0.575591 2.062914 1.767418 0.000000 0.000000 0.000000
0.473367 1.861763 1.767591 0.000000 0.000000 0.000000
0.632697 2.047136 1.754523 0.000000 0.000000 0.000000
0.627014 1.901927 1.674991 0.000000 0.000000 0.000000
0.418761 1.880188 1.774565 0.000000 0.000000 0.000000
0.640833 1.994609 1.711520 0.000000 0.000000 0.000000
0.596346 1.787707 1.700000 0.000000 0.000000 0.000000
0.429674 1.963921 1.756421 0.000000 0.000000 0.000000
0.653403 2.035935 1.742286 0.000000 0.000000 0.000000
0.613405 1.898137 1.681993 0.000000 0.000000 0.000000
0.408679 1.881019 1.779732 0.000000 0.000000 0.000000
0.427838 1.970458 1.756665 0.000000 0.000000 0.000000
0.644369 1.927189 1.674782 0.000000 0.000000 0.000000
0.418437 1.886947 1.773410 0.000000 0.000000 0.000000
0.623288 1.925121 1.686736 0.000000 0.000000 0.000000
0.420483 1.926467 1.759563 0.000000 0.000000 0.000000
0.572917 2.067159 1.772906 0.000000 0.000000 0.000000
0.440835 1.887323 1.767144 0.000000 0.000000 0.000000
0.567878 2.060565 1.766319 0.000000 0.000000 0.000000
0.623823 1.895160 1.675113 0.000000 0.000000 0.000000
0.433794 1.905399 1.759388 0.000000 0.000000 0.000000
0.511367 1.779712 1.814970 0.000000 0.000000 0.000000
0.450059 1.903943 1.754170 0.000000 0.000000 0.000000
0.462280 1.857009 1.765369 0.000000 0.000000 0.000000
0.637197 1.955421 1.691913 0.000000 0.000000 0.000000
0.475657 1.994628 1.748523 0.000000 0.000000 0.000000
0.618056 1.820888 1.666124 0.000000 0.000000 0.000000
0.640685 2.032133 1.739130 0.000000 0.000000 0.000000
0.403527 1.906119 1.773726 0.000000 0.000000 0.000000
0.433279 1.910290 1.760534 0.000000 0.000000 0.000000
0.467807 2.007662 1.762912 0.000000 0.000000 0.000000
0.476458 2.001298 1.749710 0.000000 0.000000 0.000000
0.636751 1.954308 1.691488 0.000000 0.000000 0.000000
0.424075 1.960674 1.761236 0.000000 0.000000 0.000000
0.417073 1.908556 1.774392 0.000000 0.000000 0.000000
0.428579 1.909389 1.763974 0.000000 0.000000 0.000000
0.407824 1.871678 1.788246 0.000000 0.000000 0.000000
0.643244 2.020687 1.730376 0.000000 0.000000 0.000000
0.429796 1.869182 1.773796 0.000000 0.000000 0.000000
0.421039 1.858679 1.790093 0.000000 0.000000 0.000000
0.488732 2.004052 1.745775 0.000000 0.000000 0.000000
0.534175 2.011238 1.746935 0.000000 0.000000 0.000000
0.632342 2.046070 1.754039 0.000000 0.000000 0.000000
0.417291 1.954202 1.758931 0.000000 0.000000 0.000000
0.541991 1.991457 1.740873 0.000000 0.000000 0.000000
0.445134 1.977127 1.751133 0.000000 0.000000 0.000000
0.457964 1.997143 1.767700 0.000000 0.000000 0.000000
0.628318 2.015438 1.732091 0.000000 0.000000 0.000000
0.632370 2.005304 1.722122 0.000000 0.000000 0.000000
0.472514 2.002094 1.751974 0.000000 0.000000 0.000000
0.423883 1.907824 1.757836 0.000000 0.000000 0.000000
0.633389 1.845114 1.657861 0.000000 0.000000 0.000000
0.600051 2.055186 1.765953 0.000000 0.000000 0.000000
0.647491 1.914101 1.665365 0.000000 0.000000 0.000000
0.624279 1.892700 1.673308 0.000000 0.000000 0.000000
0.408614 1.876917 1.782224 0.000000 0.000000 0.000000
0.635073 2.009020 1.722646 0.000000 0.000000 0.000000
0.421245 1.860605 1.778724 0.000000 0.000000 0.000000
0.628539 1.984939 1.716608 0.000000 0.000000 0.000000
0.629863 2.017431 1.733591 0.000000 0.000000 0.000000
0.632573 1.975518 1.705190 0.000000 0.000000 0.000000
0.596403 1.774413 1.697315 0.000000 0.000000 0.000000
0.418888 1.874265 1.779492 0.000000 0.000000 0.000000
0.429628 1.899176 1.768116 0.000000 0.000000 0.000000
0.464002 2.010586 1.757548 0.000000 0.000000 0.000000
0.631721 1.920757 1.679744 0.000000 0.000000 0.000000
0.468143 2.007797 1.752698 0.000000 0.000000 0.000000
0.628247 1.868861 1.661269 0.000000 0.000000 0.000000
0.640394 2.031452 1.738658 0.000000 0.000000 0.000000
0.435382 1.978354 1.751922 0.000000 0.000000 0.000000
0.414292 1.900553 1.770404 0.000000 0.000000 0.000000
0.636389 1.867284 1.656820 0.000000 0.000000 0.000000
0.627824 2.037420 1.747739 0.000000 0.000000 0.000000
0.452605 1.986628 1.757381 0.000000 0.000000 0.000000
0.410565 1.889193 1.775679 0.000000 0.000000 0.000000
0.433868 1.986267 1.756048 0.000000 0.000000 0.000000
0.638071 2.006806 1.719019 0.000000 0.000000 0.000000
0.594379 1.779327 1.718601 0.000000 0.000000 0.000000
0.574101 2.070239 1.771446 0.000000 0.000000 0.000000
0.623571 1.966988 1.704439 0.000000 0.000000 0.000000
0.574547 2.058612 1.765305 0.000000 0.000000 0.000000
0.568951 2.054191 1.762508 0.000000 0.000000 0.000000
0.588697 1.804201 1.714373 0.000000 0.000000 0.000000
0.430769 1.872284 1.776927 0.000000 0.000000 0.000000
0.607674 2.058914 1.774045 0.000000 0.000000 0.000000
0.559706 2.044789 1.760000 0.000000 0.000000 0.000000
0.415365 1.866120 1.786860 0.000000 0.000000 0.000000
0.439718 1.987895 1.754558 0.000000 0.000000 0.000000
0.575285 2.068244 1.769643 0.000000 0.000000 0.000000
0.425309 1.926982 1.760825 0.000000 0.000000 0.000000
0.602562 2.000857 1.734968 0.000000 0.000000 0.000000
0.409545 1.883045 1.777081 0.000000 0.000000 0.000000
0.555495 2.070768 1.770740 0.000000 0.000000 0.000000
0.465046 1.964497 1.746710 0.000000 0.000000 0.000000
0.576956 2.056964 1.762319 0.000000 0.000000 0.000000
0.434599 1.928173 1.751207 0.000000 0.000000 0.000000
0.624418 1.998793 1.721753 0.000000 0.000000 0.000000
0.479305 1.994570 1.749617 0.000000 0.000000 0.000000
0.618638 2.022439 1.741496 0.000000 0.000000 0.000000
0.587714 2.068656 1.779372 0.000000 0.000000 0.000000
0.432267 1.962951 1.756513 0.000000 0.000000 0.000000
0.534484 1.999664 1.742655 0.000000 0.000000 0.000000
0.645957 2.039800 1.742599 0.000000 0.000000 0.000000
0.587644 2.076475 1.777021 0.000000 0.000000 0.000000
0.420930 1.945415 1.758569 0.000000 0.000000 0.000000
0.407982 1.895331 1.774149 0.000000 0.000000 0.000000
0.444727 1.844768 1.795130 0.000000 0.000000 0.000000
0.649339 2.019579 1.723799 0.000000 0.000000 0.000000
0.436596 1.837518 1.801060 0.000000 0.000000 0.000000
0.526512 2.036051 1.760510 0.000000 0.000000 0.000000
0.605838 1.929457 1.701414 0.000000 0.000000 0.000000
0.440894 1.993853 1.754781 0.000000 0.000000 0.000000
0.411044 1.921804 1.766829 0.000000 0.000000 0.000000
0.629816 1.858247 1.660610 0.000000 0.000000 0.000000
0.434182 1.966936 1.762366 0.000000 0.000000 0.000000
0.605159 1.793920 1.686240 0.000000 0.000000 0.000000
0.649530 1.983920 1.700177 0.000000 0.000000 0.000000
0.620590 1.843935 1.668104 0.000000 0.000000 0.000000
0.602722 1.772435 1.684475 0.000000 0.000000 0.000000
0.421021 1.924797 1.761331 0.000000 0.000000 0.000000
0.599925 1.900748 1.695616 0.000000 0.000000 0.000000
0.421058 1.861720 1.786923 0.000000 0.000000 0.000000
0.418208 1.890074 1.775141 0.000000 0.000000 0.000000
0.408260 1.903359 1.775692 0.000000 0.000000 0.000000
0.402654 1.892244 1.778405 0.000000 0.000000 0.000000
0.594576 1.778812 1.701558 0.000000 0.000000 0.000000
0.587941 2.073680 1.774114 0.000000 0.000000 0.000000
0.417118 1.942077 1.765299 0.000000 0.000000 0.000000
0.435250 1.903340 1.773648 0.000000 0.000000 0.000000
0.640528 1.951632 1.688499 0.000000 0.000000 0.000000
0.409408 1.911842 1.768880 0.000000 0.000000 0.000000
0.589216 1.775803 1.718235 0.000000 0.000000 0.000000
0.410971 1.921500 1.766441 0.000000 0.000000 0.000000
0.434424 1.965477 1.749743 0.000000 0.000000 0.000000
0.628550 1.852374 1.663748 0.000000 0.000000 0.000000
0.649491 1.944583 1.686905 0.000000 0.000000 0.000000
0.657941 1.985799 1.710485 0.000000 0.000000 0.000000
0.627804 1.952219 1.693970 0.000000 0.000000 0.000000
0.405092 1.880480 1.782208 0.000000 0.000000 0.000000
0.583209 2.028520 1.752217 0.000000 0.000000 0.000000
0.577011 1.824877 1.727448 0.000000 0.000000 0.000000
0.455013 1.873981 1.760805 0.000000 0.000000 0.000000
0.459652 1.888016 1.767022 0.000000 0.000000 0.000000
0.578974 2.043821 1.757238 0.000000 0.000000 0.000000
0.530724 1.800595 1.777710 0.000000 0.000000 0.000000
0.542247 1.913249 1.734421 0.000000 0.000000 0.000000
0.534587 1.855494 1.746305 0.000000 0.000000 0.000000
0.538632 1.891230 1.739102 0.000000 0.000000 0.000000
0.538880 1.835477 1.757684 0.000000 0.000000 0.000000
0.552013 1.827389 1.738398 0.000000 0.000000 0.000000
0.547913 1.983270 1.739377 0.000000 0.000000 0.000000
0.482112 1.992800 1.750513 0.000000 0.000000 0.000000
0.440767 1.979747 1.757735 0.000000 0.000000 0.000000
0.556036 1.808608 1.734469 0.000000 0.000000 0.000000
0.518297 1.819179 1.778345 0.000000 0.000000 0.000000
0.503491 1.793212 1.786280 0.000000 0.000000 0.000000
0.528768 2.012086 1.747275 0.000000 0.000000 0.000000
0.486766 2.017520 1.752245 0.000000 0.000000 0.000000
0.511039 1.917330 1.737291 0.000000 0.000000 0.000000
0.548010 1.970994 1.736080 0.000000 0.000000 0.000000
0.587308 1.836485 1.696015 0.000000 0.000000 0.000000
0.492667 1.880718 1.744752 0.000000 0.000000 0.000000
0.573306 1.812735 1.728296 0.000000 0.000000 0.000000
0.592700 1.854796 1.690377 0.000000 0.000000 0.000000
0.562955 1.892421 1.720860 0.000000 0.000000 0.000000
0.526036 1.896381 1.733765 0.000000 0.000000 0.000000
0.585492 1.795517 1.714940 0.000000 0.000000 0.000000
0.564974 1.790456 1.741359 0.000000 0.000000 0.000000
0.556769 1.790652 1.776155 0.000000 0.000000 0.000000
0.585008 1.766856 1.717055 0.000000 0.000000 0.000000
0.581925 2.066461 1.769198 0.000000 0.000000 0.000000
0.584162 2.016590 1.748220 0.000000 0.000000 0.000000
0.482261 1.841093 1.760583 0.000000 0.000000 0.000000
0.520200 1.951137 1.733988 0.000000 0.000000 0.000000
0.610209 1.938380 1.700992 0.000000 0.000000 0.000000
0.551102 1.857353 1.731263 0.000000 0.000000 0.000000
0.588068 1.818741 1.711864 0.000000 0.000000 0.000000
0.582830 2.060332 1.765415 0.000000 0.000000 0.000000
0.580040 1.800291 1.708705 0.000000 0.000000 0.000000
0.597801 1.928894 1.704800 0.000000 0.000000 0.000000
0.631090 2.048533 1.757047 0.000000 0.000000 0.000000
0.568130 1.989775 1.741293 0.000000 0.000000 0.000000
0.575310 1.868352 1.707349 0.000000 0.000000 0.000000
0.592916 2.061058 1.768317 0.000000 0.000000 0.000000
0.591356 1.875302 1.698032 0.000000 0.000000 0.000000
0.577058 1.868644 1.709394 0.000000 0.000000 0.000000
0.614867 1.959356 1.708848 0.000000 0.000000 0.000000
0.441342 1.823599 1.812122 0.000000 0.000000 0.000000
0.490766 1.923218 1.747924 0.000000 0.000000 0.000000
0.593212 1.891816 1.697771 0.000000 0.000000 0.000000
0.557745 1.819192 1.729518 0.000000 0.000000 0.000000
0.626498 2.002151 1.722788 0.000000 0.000000 0.000000
0.574209 1.887062 1.710871 0.000000 0.000000 0.000000
0.539795 1.904942 1.737492 0.000000 0.000000 0.000000
0.599466 1.778480 1.690840 0.000000 0.000000 0.000000
0.556918 2.034299 1.755184 0.000000 0.000000 0.000000
0.482285 1.974881 1.745824 0.000000 0.000000 0.000000
0.567118 1.781822 1.750698 0.000000 0.000000 0.000000
0.539419 1.976001 1.736110 0.000000 0.000000 0.000000
0.580180 1.782380 1.727665 0.000000 0.000000 0.000000
0.615732 1.813000 1.676209 0.000000 0.000000 0.000000
0.564367 1.866122 1.731406 0.000000 0.000000 0.000000
0.622142 2.034614 1.748238 0.000000 0.000000 0.000000
0.587666 1.846670 1.702356 0.000000 0.000000 0.000000
0.451426 1.807931 1.824071 0.000000 0.000000 0.000000
0.632137 1.974840 1.704843 0.000000 0.000000 0.000000
0.581171 1.854209 1.701160 0.000000 0.000000 0.000000
0.562534 2.014415 1.747484 0.000000 0.000000 0.000000
0.597257 1.908659 1.699175 0.000000 0.000000 0.000000
0.511961 2.029298 1.755400 0.000000 0.000000 0.000000
0.577345 1.920737 1.717528 0.000000 0.000000 0.000000
0.615023 1.949488 1.700642 0.000000 0.000000 0.000000
0.587011 2.045084 1.759242 0.000000 0.000000 0.000000
0.538802 2.034126 1.759128 0.000000 0.000000 0.000000
0.607310 1.920601 1.696656 0.000000 0.000000 0.000000
0.565695 1.994447 1.742741 0.000000 0.000000 0.000000
0.577002 1.844649 1.710191 0.000000 0.000000 0.000000
0.628521 1.926488 1.684703 0.000000 0.000000 0.000000
0.552171 2.056559 1.766148 0.000000 0.000000 0.000000
0.606112 1.802286 1.686931 0.000000 0.000000 0.000000
0.511316 2.020541 1.749546 0.000000 0.000000 0.000000
0.568698 1.761887 1.756501 0.000000 0.000000 0.000000
0.576369 1.925372 1.719273 0.000000 0.000000 0.000000
0.581307 1.803255 1.716492 0.000000 0.000000 0.000000
0.647696 2.011433 1.716718 0.000000 0.000000 0.000000
0.583936 1.825160 1.701901 0.000000 0.000000 0.000000
0.555730 1.849051 1.757963 0.000000 0.000000 0.000000
0.536466 1.853538 1.752533 0.000000 0.000000 0.000000
0.610055 1.787552 1.678246 0.000000 0.000000 0.000000
0.575124 1.852749 1.716859 0.000000 0.000000 0.000000
0.596630 1.923475 1.705423 0.000000 0.000000 0.000000
0.619084 1.991774 1.721197 0.000000 0.000000 0.000000
0.626942 1.936746 1.689505 0.000000 0.000000 0.000000
0.556069 2.018470 1.749390 0.000000 0.000000 0.000000
0.576461 1.820936 1.707321 0.000000 0.000000 0.000000
0.598736 1.838080 1.689242 0.000000 0.000000 0.000000
0.598016 1.795537 1.697252 0.000000 0.000000 0.000000
0.562213 1.817135 1.740744 0.000000 0.000000 0.000000
0.578994 1.772511 1.731911 0.000000 0.000000 0.000000
0.646710 2.004514 1.713540 0.000000 0.000000 0.000000
0.633805 2.034068 1.743492 0.000000 0.000000 0.000000
0.602958 1.980460 1.723985 0.000000 0.000000 0.000000
0.592305 2.033084 1.754359 0.000000 0.000000 0.000000
0.444861 1.822708 1.806373 0.000000 0.000000 0.000000
0.608121 1.809678 1.686430 0.000000 0.000000 0.000000
0.626622 2.030161 1.742810 0.000000 0.000000 0.000000
0.637426 1.978284 1.703168 0.000000 0.000000 0.000000
0.581345 2.060371 1.765178 0.000000 0.000000 0.000000
0.623235 1.980838 1.711533 0.000000 0.000000 0.000000
0.557481 2.055523 1.764798 0.000000 0.000000 0.000000
0.569959 2.055260 1.763463 0.000000 0.000000 0.000000
0.630545 1.841584 1.660220 0.000000 0.000000 0.000000
0.586861 1.778321 1.715304 0.000000 0.000000 0.000000
0.546638 1.817449 1.750073 0.000000 0.000000 0.000000
0.623091 2.027316 1.742001 0.000000 0.000000 0.000000
0.576720 1.950467 1.726950 0.000000 0.000000 0.000000
0.602004 1.824505 1.683514 0.000000 0.000000 0.000000
0.556122 1.919891 1.729122 0.000000 0.000000 0.000000
0.642508 2.054055 1.756404 0.000000 0.000000 0.000000
0.528767 2.050404 1.763589 0.000000 0.000000 0.000000
0.636693 1.974515 1.703174 0.000000 0.000000 0.000000
0.520775 2.035731 1.757450 0.000000 0.000000 0.000000
0.610318 2.031804 1.749439 0.000000 0.000000 0.000000
0.601478 1.798640 1.698840 0.000000 0.000000 0.000000
0.532667 1.852460 1.766079 0.000000 0.000000 0.000000
0.633229 2.014005 1.730295 0.000000 0.000000 0.000000
0.494850 1.850370 1.752707 0.000000 0.000000 0.000000
0.639377 2.029900 1.738416 0.000000 0.000000 0.000000
0.650095 2.021209 1.726609 0.000000 0.000000 0.000000
0.545011 1.846484 1.739802 0.000000 0.000000 0.000000
0.613398 1.893348 1.684277 0.000000 0.000000 0.000000
0.594415 2.006243 1.742014 0.000000 0.000000 0.000000
0.623911 2.047969 1.760415 0.000000 0.000000 0.000000
0.640879 2.034236 1.742040 0.000000 0.000000 0.000000
0.639503 1.916888 1.674486 0.000000 0.000000 0.000000
0.595365 1.825083 1.696385 0.000000 0.000000 0.000000
0.466501 1.870951 1.751765 0.000000 0.000000 0.000000
0.594932 2.017935 1.746614 0.000000 0.000000 0.000000
0.554655 1.902406 1.728140 0.000000 0.000000 0.000000
0.541051 1.878678 1.732754 0.000000 0.000000 0.000000
0.586759 1.810663 1.707245 0.000000 0.000000 0.000000
0.551833 1.987588 1.740551 0.000000 0.000000 0.000000
0.433191 1.972712 1.757356 0.000000 0.000000 0.000000
0.568780 1.812506 1.719425 0.000000 0.000000 0.000000
0.527229 1.896741 1.741390 0.000000 0.000000 0.000000
0.512000 1.893834 1.730357 0.000000 0.000000 0.000000
0.447731 1.981644 1.752845 0.000000 0.000000 0.000000
0.505465 1.920827 1.739540 0.000000 0.000000 0.000000
0.584288 1.905699 1.705772 0.000000 0.000000 0.000000
0.465158 1.904539 1.748301 0.000000 0.000000 0.000000
0.560716 1.768794 1.765086 0.000000 0.000000 0.000000
0.600766 1.882433 1.690941 0.000000 0.000000 0.000000
0.579682 1.913442 1.714730 0.000000 0.000000 0.000000
0.559864 1.761589 1.779310 0.000000 0.000000 0.000000
0.575981 1.812152 1.714577 0.000000 0.000000 0.000000
0.533295 1.816326 1.777039 0.000000 0.000000 0.000000
0.570669 2.059250 1.765320 0.000000 0.000000 0.000000
0.510756 1.909924 1.741338 0.000000 0.000000 0.000000
0.547886 1.943401 1.734722 0.000000 0.000000 0.000000
0.548261 1.872097 1.744134 0.000000 0.000000 0.000000
0.567708 1.797414 1.734454 0.000000 0.000000 0.000000
0.584906 1.786523 1.729046 0.000000 0.000000 0.000000
0.617972 2.023706 1.741835 0.000000 0.000000 0.000000
0.557518 1.778319 1.776495 0.000000 0.000000 0.000000
0.556744 1.815825 1.759140 0.000000 0.000000 0.000000
0.599678 1.990427 1.730697 0.000000 0.000000 0.000000
0.574621 1.824055 1.723093 0.000000 0.000000 0.000000
0.562445 1.799188 1.749276 0.000000 0.000000 0.000000
0.558645 1.804194 1.749642 0.000000 0.000000 0.000000
0.637129 2.014656 1.727746 0.000000 0.000000 0.000000
0.592119 1.900160 1.700517 0.000000 0.000000 0.000000
0.586008 2.037374 1.754713 0.000000 0.000000 0.000000
0.586552 1.841944 1.698122 0.000000 0.000000 0.000000
0.600191 1.878159 1.689680 0.000000 0.000000 0.000000
0.519896 1.994162 1.741406 0.000000 0.000000 0.000000
0.589633 1.916806 1.707879 0.000000 0.000000 0.000000
0.600640 1.806848 1.693448 0.000000 0.000000 0.000000
0.569739 1.873084 1.715464 0.000000 0.000000 0.000000
0.572960 1.775310 1.746443 0.000000 0.000000 0.000000
0.576171 1.874318 1.711845 0.000000 0.000000 0.000000
0.591231 1.789528 1.706732 0.000000 0.000000 0.000000
0.536603 2.025046 1.753011 0.000000 0.000000 0.000000
0.561303 1.801434 1.759139 0.000000 0.000000 0.000000
0.594254 1.819155 1.700600 0.000000 0.000000 0.000000
0.552850 1.917288 1.731473 0.000000 0.000000 0.000000
0.629197 2.038018 1.748599 0.000000 0.000000 0.000000
0.606245 1.833776 1.678493 0.000000 0.000000 0.000000
0.466865 1.800437 1.815184 0.000000 0.000000 0.000000
0.619090 2.036566 1.750150 0.000000 0.000000 0.000000
0.610683 1.982415 1.719932 0.000000 0.000000 0.000000
0.561978 1.787871 1.759802 0.000000 0.000000 0.000000
0.553672 1.999168 1.744743 0.000000 0.000000 0.000000
0.593172 1.890366 1.696668 0.000000 0.000000 0.000000
0.531424 2.028202 1.754180 0.000000 0.000000 0.000000
0.611512 1.986488 1.722933 0.000000 0.000000 0.000000
0.597680 1.946686 1.713219 0.000000 0.000000 0.000000
0.627707 1.944932 1.691187 0.000000 0.000000 0.000000
0.561232 2.021951 1.750453 0.000000 0.000000 0.000000
0.548650 2.041137 1.757867 0.000000 0.000000 0.000000
0.574961 1.998006 1.742394 0.000000 0.000000 0.000000
0.561434 1.833613 1.719180 0.000000 0.000000 0.000000
0.602567 1.914848 1.696974 0.000000 0.000000 0.000000
0.580925 1.929889 1.715384 0.000000 0.000000 0.000000
0.542213 2.010020 1.747085 0.000000 0.000000 0.000000
0.518143 2.038363 1.759261 0.000000 0.000000 0.000000
0.589813 1.945888 1.717052 0.000000 0.000000 0.000000
0.600237 1.786277 1.696589 0.000000 0.000000 0.000000
0.582744 1.806852 1.702789 0.000000 0.000000 0.000000
0.595475 1.818176 1.689625 0.000000 0.000000 0.000000
0.633157 1.943039 1.687529 0.000000 0.000000 0.000000
0.596710 1.927929 1.707182 0.000000 0.000000 0.000000
0.570781 1.945067 1.725995 0.000000 0.000000 0.000000
0.614065 1.972626 1.713974 0.000000 0.000000 0.000000
0.624060 1.984562 1.713579 0.000000 0.000000 0.000000
0.622534 1.930470 1.690393 0.000000 0.000000 0.000000
0.614617 1.805022 1.676413 0.000000 0.000000 0.000000
0.567764 1.949046 1.729800 0.000000 0.000000 0.000000
0.565685 1.795837 1.727700 0.000000 0.000000 0.000000
0.593744 1.818545 1.694983 0.000000 0.000000 0.000000
0.580497 1.836572 1.716788 0.000000 0.000000 0.000000
0.568307 1.760962 1.745811 0.000000 0.000000 0.000000
0.646554 1.983734 1.701506 0.000000 0.000000 0.000000
0.637691 2.009886 1.722277 0.000000 0.000000 0.000000
0.599357 1.811004 1.691281 0.000000 0.000000 0.000000
0.648250 2.047184 1.745712 0.000000 0.000000 0.000000
0.584312 2.048444 1.761677 0.000000 0.000000 0.000000
0.620514 1.991075 1.719871 0.000000 0.000000 0.000000
0.562480 2.054681 1.763841 0.000000 0.000000 0.000000
0.579087 1.767163 1.727957 0.000000 0.000000 0.000000
0.578434 2.073335 1.774415 0.000000 0.000000 0.000000
0.561392 1.813899 1.725703 0.000000 0.000000 0.000000
0.638494 2.042645 1.749164 0.000000 0.000000 0.000000
0.556471 1.946997 1.734973 0.000000 0.000000 0.000000
0.555988 1.794628 1.739293 0.000000 0.000000 0.000000
0.541063 2.036862 1.757882 0.000000 0.000000 0.000000
0.650953 1.964848 1.689773 0.000000 0.000000 0.000000
0.594613 1.784366 1.702511 0.000000 0.000000 0.000000
0.605526 1.790264 1.685530 0.000000 0.000000 0.000000
0.567709 1.844505 1.718915 0.000000 0.000000 0.000000
0.525131 1.767585 1.811440 0.000000 0.000000 0.000000
0.645664 2.016746 1.723293 0.000000 0.000000 0.000000
0.483171 2.027844 1.753527 0.000000 0.000000 0.000000
0.545944 1.815576 1.759403 0.000000 0.000000 0.000000
0.560941 1.830421 1.735919 0.000000 0.000000 0.000000
0.514785 1.843072 1.759247 0.000000 0.000000 0.000000
0.542060 2.059865 1.767370 0.000000 0.000000 0.000000
0.608655 1.799055 1.679327 0.000000 0.000000 0.000000
0.619476 2.010596 1.732366 0.000000 0.000000 0.000000
0.642581 2.034348 1.741266 0.000000 0.000000 0.000000
0.547912 1.842606 1.746575 0.000000 0.000000 0.000000
0.630821 1.932878 1.685747 0.000000 0.000000 0.000000
0.512973 1.767675 1.816440 0.000000 0.000000 0.000000
0.660106 1.983527 1.700909 0.000000 0.000000 0.000000
0.575921 2.020301 1.749483 0.000000 0.000000 0.000000
0.518010 1.939537 1.730657 0.000000 0.000000 0.000000
0.517651 1.815226 1.762992 0.000000 0.000000 0.000000
0.609375 1.820293 1.682938 0.000000 0.000000 0.000000
0.561709 1.977251 1.739508 0.000000 0.000000 0.000000
0.491307 1.900343 1.744562 0.000000 0.000000 0.000000
0.419773 1.923278 1.762830 0.000000 0.000000 0.000000
0.561710 1.777179 1.737486 0.000000 0.000000 0.000000
0.587598 1.925659 1.712157 0.000000 0.000000 0.000000
0.510292 2.045878 1.762961 0.000000 0.000000 0.000000
0.419735 1.929584 1.761108 0.000000 0.000000 0.000000
0.578783 1.945639 1.721821 0.000000 0.000000 0.000000
0.641670 1.948501 1.685339 0.000000 0.000000 0.000000
0.523580 1.909156 1.737089 0.000000 0.000000 0.000000
0.493381 1.797820 1.799136 0.000000 0.000000 0.000000
0.475775 1.968938 1.743238 0.000000 0.000000 0.000000
0.431515 1.966267 1.755325 0.000000 0.000000 0.000000
0.629908 2.052037 1.780058 0.000000 0.000000 0.000000
0.412128 1.908314 1.768199 0.000000 0.000000 0.000000
0.508469 2.033299 1.756834 0.000000 0.000000 0.000000
0.624372 1.826801 1.666896 0.000000 0.000000 0.000000
0.588517 1.784597 1.714531 0.000000 0.000000 0.000000
0.622517 2.052267 1.777890 0.000000 0.000000 0.000000
0.555715 1.753743 1.834154 0.000000 0.000000 0.000000
0.476940 1.818857 1.795045 0.000000 0.000000 0.000000
0.489160 1.945905 1.745893 0.000000 0.000000 0.000000
0.409365 1.879706 1.780872 0.000000 0.000000 0.000000
0.631459 1.965643 1.700633 0.000000 0.000000 0.000000
0.442167 1.812729 1.821088 0.000000 0.000000 0.000000
0.623502 1.915670 1.682827 0.000000 0.000000 0.000000
0.603173 1.797080 1.690475 0.000000 0.000000 0.000000
0.619562 1.936286 1.694455 0.000000 0.000000 0.000000
0.637787 2.011606 1.724420 0.000000 0.000000 0.000000
0.630754 1.925373 1.681455 0.000000 0.000000 0.000000
0.645696 1.967288 1.693440 0.000000 0.000000 0.000000
0.639763 1.911218 1.667565 0.000000 0.000000 0.000000
0.483399 2.022809 1.753300 0.000000 0.000000 0.000000
0.454242 1.823913 1.808009 0.000000 0.000000 0.000000
0.631703 1.972153 1.700155 0.000000 0.000000 0.000000
0.633835 1.960449 1.696585 0.000000 0.000000 0.000000
0.493866 1.782561 1.821173 0.000000 0.000000 0.000000
0.598285 1.935455 1.711381 0.000000 0.000000 0.000000
0.646621 1.965126 1.691849 0.000000 0.000000 0.000000
0.599231 1.783868 1.693784 0.000000 0.000000 0.000000
0.640057 2.005924 1.717040 0.000000 0.000000 0.000000
0.637305 1.911079 1.673178 0.000000 0.000000 0.000000
0.586673 1.906825 1.706257 0.000000 0.000000 0.000000
0.659859 1.986949 1.699871 0.000000 0.000000 0.000000
0.633848 1.937299 1.685109 0.000000 0.000000 0.000000
0.609895 1.829955 1.678059 0.000000 0.000000 0.000000
0.612586 1.809142 1.679621 0.000000 0.000000 0.000000
0.635753 1.998204 1.716267 0.000000 0.000000 0.000000
0.640506 1.965723 1.695275 0.000000 0.000000 0.000000
0.644599 1.969932 1.695613 0.000000 0.000000 0.000000
0.417812 1.871052 1.796422 0.000000 0.000000 0.000000
0.609683 1.801964 1.682067 0.000000 0.000000 0.000000
0.627620 1.972793 1.706439 0.000000 0.000000 0.000000
0.641079 1.964775 1.694277 0.000000 0.000000 0.000000
0.469872 1.824938 1.788222 0.000000 0.000000 0.000000
0.614874 1.971311 1.711021 0.000000 0.000000 0.000000
0.420554 1.893538 1.769886 0.000000 0.000000 0.000000
0.472029 1.991659 1.763630 0.000000 0.000000 0.000000
0.464181 1.973783 1.752238 0.000000 0.000000 0.000000
0.655918 1.940710 1.676071 0.000000 0.000000 0.000000
0.459412 1.812617 1.813208 0.000000 0.000000 0.000000
0.599982 1.976065 1.721876 0.000000 0.000000 0.000000
0.641784 1.973968 1.698383 0.000000 0.000000 0.000000
0.567996 1.907404 1.722015 0.000000 0.000000 0.000000
0.404274 1.886702 1.778293 0.000000 0.000000 0.000000
0.622456 1.814463 1.667788 0.000000 0.000000 0.000000
0.633060 1.904578 1.671434 0.000000 0.000000 0.000000
0.524612 2.033067 1.757856 0.000000 0.000000 0.000000
0.604465 1.929080 1.699300 0.000000 0.000000 0.000000
0.433024 1.934709 1.755645 0.000000 0.000000 0.000000
0.653054 2.010828 1.713560 0.000000 0.000000 0.000000
0.519892 1.982270 1.735260 0.000000 0.000000 0.000000
0.640770 1.905882 1.665098 0.000000 0.000000 0.000000
0.507466 1.857377 1.746488 0.000000 0.000000 0.000000
0.432054 1.951786 1.755160 0.000000 0.000000 0.000000
0.639472 1.900252 1.666025 0.000000 0.000000 0.000000
0.638413 1.911254 1.671126 0.000000 0.000000 0.000000
0.498136 1.898216 1.741469 0.000000 0.000000 0.000000
0.556171 2.072520 1.774641 0.000000 0.000000 0.000000
0.627325 1.832997 1.661600 0.000000 0.000000 0.000000
0.554518 2.067430 1.768168 0.000000 0.000000 0.000000
0.466899 1.813556 1.812173 0.000000 0.000000 0.000000
0.583944 1.784823 1.717923 0.000000 0.000000 0.000000
0.415958 1.943951 1.762340 0.000000 0.000000 0.000000
0.648262 2.013557 1.718197 0.000000 0.000000 0.000000
0.456204 1.926014 1.744945 0.000000 0.000000 0.000000
0.427353 1.918504 1.772089 0.000000 0.000000 0.000000
0.438956 1.824758 1.815585 0.000000 0.000000 0.000000
0.534463 1.748399 1.828629 0.000000 0.000000 0.000000
0.481245 1.791687 1.807067 0.000000 0.000000 0.000000
0.423770 1.849841 1.795972 0.000000 0.000000 0.000000
0.433116 1.943132 1.766672 0.000000 0.000000 0.000000
0.466546 1.830797 1.799886 0.000000 0.000000 0.000000
0.632540 1.845457 1.658790 0.000000 0.000000 0.000000
0.621154 1.847870 1.667445 0.000000 0.000000 0.000000
0.626869 1.843398 1.663763 0.000000 0.000000 0.000000
0.635412 1.851521 1.655490 0.000000 0.000000 0.000000
0.500612 1.779879 1.809957 0.000000 0.000000 0.000000
0.477436 1.857252 1.756513 0.000000 0.000000 0.000000
0.484082 2.013833 1.749230 0.000000 0.000000 0.000000
0.428176 1.919012 1.758226 0.000000 0.000000 0.000000
0.639521 1.854391 1.655313 0.000000 0.000000 0.000000
0.608377 1.830057 1.682218 0.000000 0.000000 0.000000
0.628529 1.872117 1.667579 0.000000 0.000000 0.000000
0.628776 1.846266 1.662862 0.000000 0.000000 0.000000
0.649098 1.994776 1.706102 0.000000 0.000000 0.000000
0.610723 1.784662 1.680903 0.000000 0.000000 0.000000
0.444807 1.983609 1.760923 0.000000 0.000000 0.000000
0.630022 1.842719 1.661391 0.000000 0.000000 0.000000
0.451107 1.977245 1.746871 0.000000 0.000000 0.000000
0.479921 1.979920 1.746986 0.000000 0.000000 0.000000
0.638089 1.859905 1.657145 0.000000 0.000000 0.000000
0.638501 1.856788 1.652244 0.000000 0.000000 0.000000
0.620412 1.826835 1.670463 0.000000 0.000000 0.000000
0.604653 1.858924 1.682260 0.000000 0.000000 0.000000
0.630000 1.826810 1.662718 0.000000 0.000000 0.000000
0.658426 1.997254 1.698897 0.000000 0.000000 0.000000
0.620431 1.807651 1.667442 0.000000 0.000000 0.000000
0.602087 2.063437 1.778720 0.000000 0.000000 0.000000
0.595653 2.073860 1.778239 0.000000 0.000000 0.000000
0.594545 1.778344 1.699601 0.000000 0.000000 0.000000
0.594954 1.772153 1.701315 0.000000 0.000000 0.000000
0.423263 1.937910 1.771595 0.000000 0.000000 0.000000
0.602790 1.799318 1.689551 0.000000 0.000000 0.000000
0.598961 1.789951 1.703793 0.000000 0.000000 0.000000
0.614412 2.053457 1.774381 0.000000 0.000000 0.000000
0.580850 1.767133 1.724339 0.000000 0.000000 0.000000
0.646110 1.987272 1.702854 0.000000 0.000000 0.000000
0.595869 1.775316 1.706969 0.000000 0.000000 0.000000
0.412693 1.926920 1.773584 0.000000 0.000000 0.000000
0.580333 1.765018 1.727286 0.000000 0.000000 0.000000
0.585273 1.764544 1.712541 0.000000 0.000000 0.000000
0.593041 1.786649 1.709143 0.000000 0.000000 0.000000
0.618166 2.053356 1.790680 0.000000 0.000000 0.000000
0.611071 2.059143 1.785877 0.000000 0.000000 0.000000
0.606443 1.781702 1.681630 0.000000 0.000000 0.000000
0.608266 2.062749 1.782876 0.000000 0.000000 0.000000
0.525661 1.765501 1.818574 0.000000 0.000000 0.000000
0.500555 1.994998 1.741872 0.000000 0.000000 0.000000
0.581066 2.051757 1.759610 0.000000 0.000000 0.000000
0.443570 1.811575 1.817839 0.000000 0.000000 0.000000
0.653495 2.036629 1.737243 0.000000 0.000000 0.000000
0.460453 1.998798 1.754624 0.000000 0.000000 0.000000
0.556183 1.742449 1.832231 0.000000 0.000000 0.000000
0.633490 2.050396 1.777732 0.000000 0.000000 0.000000
0.635653 2.053251 1.771948 0.000000 0.000000 0.000000
0.488771 1.958632 1.738954 0.000000 0.000000 0.000000
0.444488 1.830483 1.805337 0.000000 0.000000 0.000000
0.652337 1.967579 1.689409 0.000000 0.000000 0.000000
0.647135 2.028501 1.733943 0.000000 0.000000 0.000000
0.544175 1.753609 1.816122 0.000000 0.000000 0.000000
0.624692 1.817137 1.663923 0.000000 0.000000 0.000000
0.650909 1.916786 1.655841 0.000000 0.000000 0.000000
0.609136 2.046510 1.761156 0.000000 0.000000 0.000000
0.623502 1.916940 1.683868 0.000000 0.000000 0.000000
0.644715 1.950298 1.684429 0.000000 0.000000 0.000000
0.645676 1.940665 1.679510 0.000000 0.000000 0.000000
0.645693 1.946748 1.683318 0.000000 0.000000 0.000000
0.612159 2.055280 1.776390 0.000000 0.000000 0.000000
0.645720 1.929309 1.674741 0.000000 0.000000 0.000000
0.626253 1.831426 1.666008 0.000000 0.000000 0.000000
0.428179 1.937139 1.756287 0.000000 0.000000 0.000000
0.651518 1.957335 1.686925 0.000000 0.000000 0.000000
0.594645 2.078731 1.782005 0.000000 0.000000 0.000000
0.592748 2.066600 1.775405 0.000000 0.000000 0.000000
0.624937 2.045784 1.795820 0.000000 0.000000 0.000000
0.655083 1.936121 1.671599 0.000000 0.000000 0.000000
0.414772 1.916229 1.766345 0.000000 0.000000 0.000000
0.652300 1.998703 1.706629 0.000000 0.000000 0.000000
0.413523 1.920770 1.765716 0.000000 0.000000 0.000000
0.438302 1.825894 1.811035 0.000000 0.000000 0.000000
0.626441 2.052596 1.791406 0.000000 0.000000 0.000000
0.546079 1.761254 1.801965 0.000000 0.000000 0.000000
0.570523 2.075487 1.773905 0.000000 0.000000 0.000000
0.624005 1.839802 1.663136 0.000000 0.000000 0.000000
0.627183 1.878302 1.665555 0.000000 0.000000 0.000000
0.636759 2.051871 1.760921 0.000000 0.000000 0.000000
0.572274 1.760558 1.739827 0.000000 0.000000 0.000000
0.584139 1.760498 1.711517 0.000000 0.000000 0.000000
0.603273 2.067612 1.788619 0.000000 0.000000 0.000000
0.599193 2.069211 1.784941 0.000000 0.000000 0.000000
0.651930 1.978095 1.698029 0.000000 0.000000 0.000000
0.647304 1.957193 1.687471 0.000000 0.000000 0.000000
0.578616 1.763419 1.726042 0.000000 0.000000 0.000000
0.430478 1.953446 1.751392 0.000000 0.000000 0.000000
0.585436 1.763306 1.714272 0.000000 0.000000 0.000000
0.421156 1.931045 1.759553 0.000000 0.000000 0.000000
0.610692 2.063046 1.787899 0.000000 0.000000 0.000000
0.620446 2.054012 1.783546 0.000000 0.000000 0.000000
0.656030 1.983120 1.697768 0.000000 0.000000 0.000000
0.600410 2.071474 1.784793 0.000000 0.000000 0.000000
0.642659 1.961427 1.690824 0.000000 0.000000 0.000000
0.518273 1.803052 1.799504 0.000000 0.000000 0.000000
0.589819 1.768706 1.706840 0.000000 0.000000 0.000000
0.476995 2.007053 1.752446 0.000000 0.000000 0.000000
0.446224 1.999538 1.760696 0.000000 0.000000 0.000000
0.650837 2.037780 1.738052 0.000000 0.000000 0.000000
0.508202 1.761694 1.824054 0.000000 0.000000 0.000000
0.460416 1.857873 1.787585 0.000000 0.000000 0.000000
0.593512 1.767583 1.701188 0.000000 0.000000 0.000000
0.506085 2.015836 1.749068 0.000000 0.000000 0.000000
0.589871 1.762985 1.706665 0.000000 0.000000 0.000000
0.613851 1.785273 1.675212 0.000000 0.000000 0.000000
0.439603 1.819364 1.816215 0.000000 0.000000 0.000000
0.513275 2.046630 1.761997 0.000000 0.000000 0.000000
0.613147 1.793193 1.671767 0.000000 0.000000 0.000000
0.622310 1.822911 1.663472 0.000000 0.000000 0.000000
0.534611 2.046672 1.764067 0.000000 0.000000 0.000000
0.588163 1.760501 1.715713 0.000000 0.000000 0.000000
0.547757 2.065880 1.769379 0.000000 0.000000 0.000000
0.505311 2.034649 1.756544 0.000000 0.000000 0.000000
0.584612 1.765096 1.730784 0.000000 0.000000 0.000000
0.648548 2.033634 1.735921 0.000000 0.000000 0.000000
0.442738 1.961962 1.761819 0.000000 0.000000 0.000000
0.619688 2.051276 1.802570 0.000000 0.000000 0.000000
0.423136 1.932382 1.772231 0.000000 0.000000 0.000000
0.482707 2.006565 1.748989 0.000000 0.000000 0.000000
0.477242 2.015007 1.751765 0.000000 0.000000 0.000000
0.488626 2.024211 1.754806 0.000000 0.000000 0.000000
0.657522 2.006937 1.709844 0.000000 0.000000 0.000000
0.468243 2.001245 1.750182 0.000000 0.000000 0.000000
0.415273 1.931841 1.762911 0.000000 0.000000 0.000000
0.649848 2.009251 1.715380 0.000000 0.000000 0.000000
0.471586 1.990516 1.746888 0.000000 0.000000 0.000000
0.481018 2.025270 1.754318 0.000000 0.000000 0.000000
0.572362 1.766000 1.747900 0.000000 0.000000 0.000000
0.470801 2.021977 1.758069 0.000000 0.000000 0.000000
0.618644 1.883433 1.675430 0.000000 0.000000 0.000000
0.572536 1.775387 1.743578 0.000000 0.000000 0.000000
0.473668 1.811871 1.804989 0.000000 0.000000 0.000000
0.419545 1.955040 1.761942 0.000000 0.000000 0.000000
0.414197 1.942256 1.763631 0.000000 0.000000 0.000000
0.441027 1.827608 1.810841 0.000000 0.000000 0.000000
0.556021 1.767412 1.781588 0.000000 0.000000 0.000000
0.468991 1.874984 1.786462 0.000000 0.000000 0.000000
0.497791 2.033297 1.755818 0.000000 0.000000 0.000000
0.409129 1.892559 1.773884 0.000000 0.000000 0.000000
0.658954 1.984465 1.696365 0.000000 0.000000 0.000000
0.657450 1.975923 1.692660 0.000000 0.000000 0.000000
0.579751 1.763206 1.721368 0.000000 0.000000 0.000000
0.527256 1.755114 1.826530 0.000000 0.000000 0.000000
0.652035 1.912138 1.667043 0.000000 0.000000 0.000000
0.640126 1.883193 1.657711 0.000000 0.000000 0.000000
0.413210 1.930526 1.764570 0.000000 0.000000 0.000000
0.657884 1.983212 1.696704 0.000000 0.000000 0.000000
0.634748 1.844249 1.655271 0.000000 0.000000 0.000000
0.450939 1.958194 1.747925 0.000000 0.000000 0.000000
0.450474 1.954245 1.746435 0.000000 0.000000 0.000000
0.625497 1.877013 1.665619 0.000000 0.000000 0.000000
0.620415 1.824602 1.668636 0.000000 0.000000 0.000000
0.609172 1.799908 1.684136 0.000000 0.000000 0.000000
0.608478 1.861966 1.678146 0.000000 0.000000 0.000000
0.627435 1.827210 1.661376 0.000000 0.000000 0.000000
0.653676 1.960299 1.687949 0.000000 0.000000 0.000000
0.420496 1.947260 1.761820 0.000000 0.000000 0.000000
0.639354 2.016414 1.727492 0.000000 0.000000 0.000000
0.626051 1.818078 1.662687 0.000000 0.000000 0.000000
0.643238 2.056325 1.761445 0.000000 0.000000 0.000000
0.618645 1.805482 1.672257 0.000000 0.000000 0.000000
0.636922 1.858549 1.654231 0.000000 0.000000 0.000000
0.653642 1.946787 1.677081 0.000000 0.000000 0.000000
0.632196 1.850625 1.657963 0.000000 0.000000 0.000000
0.543559 1.767441 1.800545 0.000000 0.000000 0.000000
0.439904 1.975991 1.752191 0.000000 0.000000 0.000000
0.539106 1.745122 1.820026 0.000000 0.000000 0.000000
0.527689 2.048410 1.771258 0.000000 0.000000 0.000000
0.649693 2.006049 1.712456 0.000000 0.000000 0.000000
0.439478 1.983734 1.756465 0.000000 0.000000 0.000000
0.441497 1.958651 1.750809 0.000000 0.000000 0.000000
0.521640 2.049488 1.762928 0.000000 0.000000 0.000000
0.650468 1.906905 1.663080 0.000000 0.000000 0.000000
0.585431 1.777514 1.733385 0.000000 0.000000 0.000000
0.624406 1.852814 1.662215 0.000000 0.000000 0.000000
0.428124 1.851314 1.792456 0.000000 0.000000 0.000000
0.432498 1.841710 1.799715 0.000000 0.000000 0.000000
0.540885 2.018942 1.748613 0.000000 0.000000 0.000000
0.412924 1.889570 1.779452 0.000000 0.000000 0.000000
0.451500 1.821401 1.800328 0.000000 0.000000 0.000000
0.565207 1.978704 1.752697 0.000000 0.000000 0.000000
0.443378 1.834580 1.801109 0.000000 0.000000 0.000000
0.597775 1.995948 1.734285 0.000000 0.000000 0.000000
0.446940 1.839403 1.791909 0.000000 0.000000 0.000000
0.500100 1.847939 1.762093 0.000000 0.000000 0.000000
0.487337 1.801722 1.803635 0.000000 0.000000 0.000000
0.521506 1.782781 1.804011 0.000000 0.000000 0.000000
0.466804 1.795628 1.817366 0.000000 0.000000 0.000000
0.604564 2.016856 1.743014 0.000000 0.000000 0.000000
0.600254 1.787764 1.693422 0.000000 0.000000 0.000000
0.610803 2.002387 1.731664 0.000000 0.000000 0.000000
0.607327 1.985201 1.723986 0.000000 0.000000 0.000000
0.560507 1.935042 1.730250 0.000000 0.000000 0.000000
0.524284 1.846157 1.759921 0.000000 0.000000 0.000000
0.559385 1.997616 1.743335 0.000000 0.000000 0.000000
0.434100 1.840210 1.799845 0.000000 0.000000 0.000000
0.583552 1.965403 1.719666 0.000000 0.000000 0.000000
0.565007 1.942294 1.725628 0.000000 0.000000 0.000000
0.542653 1.753038 1.817153 0.000000 0.000000 0.000000
0.606110 1.787422 1.679447 0.000000 0.000000 0.000000
0.565701 2.004142 1.744665 0.000000 0.000000 0.000000
0.453542 1.833396 1.801404 0.000000 0.000000 0.000000
0.605009 2.000765 1.734600 0.000000 0.000000 0.000000
0.446608 1.840195 1.797636 0.000000 0.000000 0.000000
0.454413 1.856441 1.774375 0.000000 0.000000 0.000000
0.470184 1.788953 1.817117 0.000000 0.000000 0.000000
0.468556 1.801942 1.814200 0.000000 0.000000 0.000000
0.621179 2.005662 1.725762 0.000000 0.000000 0.000000
0.598998 1.789929 1.685084 0.000000 0.000000 0.000000
0.574374 1.961165 1.730879 0.000000 0.000000 0.000000
0.608330 2.014861 1.740275 0.000000 0.000000 0.000000
0.579251 1.969497 1.732056 0.000000 0.000000 0.000000
0.563435 1.925300 1.727004 0.000000 0.000000 0.000000
0.591293 1.996742 1.736951 0.000000 0.000000 0.000000
0.452410 1.826210 1.809417 0.000000 0.000000 0.000000
0.588570 1.975299 1.725830 0.000000 0.000000 0.000000
0.592439 1.915247 1.700338 0.000000 0.000000 0.000000
0.603029 1.778412 1.683284 0.000000 0.000000 0.000000
0.631863 2.050785 1.788104 0.000000 0.000000 0.000000
0.620674 1.896918 1.679133 0.000000 0.000000 0.000000
0.619053 1.892005 1.679470 0.000000 0.000000 0.000000
