ply
format ascii 1.0
comment VCGLIB generated
obj_info Generated by SPFormer!
element vertex 238
property float x
property float y
property float z
property float nx
property float ny
property float nz
end_header
0.870162 1.172829 1.514243 0.000000 0.000000 0.000000
0.899554 1.176709 1.531820 0.000000 0.000000 0.000000
0.864333 1.184161 1.526409 0.000000 0.000000 0.000000
0.861253 1.172064 1.524515 0.000000 0.000000 0.000000
0.853901 1.182618 1.522080 0.000000 0.000000 0.000000
0.858418 1.175864 1.520742 0.000000 0.000000 0.000000
0.857545 1.175272 1.526730 0.000000 0.000000 0.000000
0.889126 1.209058 1.520008 0.000000 0.000000 0.000000
0.871996 1.191649 1.517300 0.000000 0.000000 0.000000
0.855728 1.180264 1.518178 0.000000 0.000000 0.000000
0.876413 1.197424 1.515017 0.000000 0.000000 0.000000
0.871594 1.194538 1.520542 0.000000 0.000000 0.000000
0.869561 1.184432 1.517747 0.000000 0.000000 0.000000
0.870382 1.187408 1.518359 0.000000 0.000000 0.000000
0.898726 1.177639 1.523881 0.000000 0.000000 0.000000
0.863250 1.170584 1.517587 0.000000 0.000000 0.000000
0.895695 1.189270 1.525302 0.000000 0.000000 0.000000
0.897310 1.186810 1.526152 0.000000 0.000000 0.000000
0.862638 1.194161 1.513385 0.000000 0.000000 0.000000
0.888661 1.201652 1.517780 0.000000 0.000000 0.000000
0.854816 1.186671 1.519760 0.000000 0.000000 0.000000
0.866048 1.167373 1.525780 0.000000 0.000000 0.000000
0.861585 1.175045 1.527155 0.000000 0.000000 0.000000
0.860087 1.175577 1.519258 0.000000 0.000000 0.000000
0.864218 1.172396 1.526008 0.000000 0.000000 0.000000
0.895926 1.187618 1.530931 0.000000 0.000000 0.000000
0.886134 1.213053 1.486355 0.000000 0.000000 0.000000
0.891293 1.227923 1.493507 0.000000 0.000000 0.000000
0.887461 1.195402 1.532733 0.000000 0.000000 0.000000
0.890961 1.236744 1.501865 0.000000 0.000000 0.000000
0.902018 1.180217 1.529686 0.000000 0.000000 0.000000
0.867794 1.185419 1.524677 0.000000 0.000000 0.000000
0.897836 1.193641 1.518514 0.000000 0.000000 0.000000
0.880737 1.217714 1.498674 0.000000 0.000000 0.000000
0.885889 1.207494 1.514023 0.000000 0.000000 0.000000
0.862372 1.167663 1.525290 0.000000 0.000000 0.000000
0.898467 1.187969 1.533847 0.000000 0.000000 0.000000
0.892359 1.193300 1.526602 0.000000 0.000000 0.000000
0.881575 1.212766 1.491479 0.000000 0.000000 0.000000
0.882286 1.219173 1.506018 0.000000 0.000000 0.000000
0.864928 1.177219 1.515873 0.000000 0.000000 0.000000
0.897603 1.187683 1.527662 0.000000 0.000000 0.000000
0.885733 1.230735 1.501929 0.000000 0.000000 0.000000
0.896811 1.192046 1.534312 0.000000 0.000000 0.000000
0.886898 1.238703 1.511246 0.000000 0.000000 0.000000
0.898637 1.181660 1.530204 0.000000 0.000000 0.000000
0.895766 1.185801 1.533146 0.000000 0.000000 0.000000
0.865536 1.172720 1.522212 0.000000 0.000000 0.000000
0.899753 1.194548 1.523147 0.000000 0.000000 0.000000
0.893425 1.189023 1.519062 0.000000 0.000000 0.000000
0.896043 1.201581 1.522658 0.000000 0.000000 0.000000
0.896837 1.239350 1.509339 0.000000 0.000000 0.000000
0.897942 1.183440 1.532777 0.000000 0.000000 0.000000
0.866308 1.183574 1.525819 0.000000 0.000000 0.000000
0.889149 1.226632 1.508507 0.000000 0.000000 0.000000
0.865014 1.172881 1.521647 0.000000 0.000000 0.000000
0.864141 1.181331 1.515808 0.000000 0.000000 0.000000
0.885556 1.218608 1.499219 0.000000 0.000000 0.000000
0.882529 1.218736 1.496810 0.000000 0.000000 0.000000
0.875016 1.194468 1.515119 0.000000 0.000000 0.000000
0.868037 1.185669 1.513241 0.000000 0.000000 0.000000
0.884236 1.230350 1.510095 0.000000 0.000000 0.000000
0.883013 1.217380 1.493780 0.000000 0.000000 0.000000
0.864327 1.179898 1.523510 0.000000 0.000000 0.000000
0.886187 1.224590 1.487851 0.000000 0.000000 0.000000
0.869157 1.188864 1.522201 0.000000 0.000000 0.000000
0.864250 1.187148 1.517408 0.000000 0.000000 0.000000
0.887216 1.211284 1.516035 0.000000 0.000000 0.000000
0.864487 1.187986 1.523298 0.000000 0.000000 0.000000
0.898972 1.177317 1.526028 0.000000 0.000000 0.000000
0.865278 1.187580 1.512275 0.000000 0.000000 0.000000
0.867690 1.199025 1.509161 0.000000 0.000000 0.000000
0.870269 1.185476 1.516535 0.000000 0.000000 0.000000
0.867943 1.192603 1.510813 0.000000 0.000000 0.000000
0.895560 1.192276 1.519544 0.000000 0.000000 0.000000
0.869267 1.195004 1.516863 0.000000 0.000000 0.000000
0.894135 1.184637 1.527836 0.000000 0.000000 0.000000
0.863583 1.171037 1.514677 0.000000 0.000000 0.000000
0.856103 1.186795 1.517690 0.000000 0.000000 0.000000
0.857593 1.186206 1.519427 0.000000 0.000000 0.000000
0.855200 1.179917 1.520004 0.000000 0.000000 0.000000
0.867252 1.173724 1.529531 0.000000 0.000000 0.000000
0.900383 1.183190 1.533495 0.000000 0.000000 0.000000
0.862900 1.177955 1.527526 0.000000 0.000000 0.000000
0.891757 1.184173 1.529282 0.000000 0.000000 0.000000
0.918909 1.223688 1.510960 0.000000 0.000000 0.000000
0.860042 1.169262 1.518782 0.000000 0.000000 0.000000
0.860271 1.178758 1.524439 0.000000 0.000000 0.000000
0.859577 1.179664 1.520734 0.000000 0.000000 0.000000
0.871390 1.196911 1.512015 0.000000 0.000000 0.000000
0.860032 1.172521 1.520422 0.000000 0.000000 0.000000
0.861945 1.174792 1.521729 0.000000 0.000000 0.000000
0.864265 1.171108 1.522646 0.000000 0.000000 0.000000
0.894975 1.183774 1.531135 0.000000 0.000000 0.000000
0.858486 1.182339 1.516944 0.000000 0.000000 0.000000
0.868878 1.195289 1.518793 0.000000 0.000000 0.000000
0.868262 1.193758 1.521325 0.000000 0.000000 0.000000
0.858103 1.190332 1.514128 0.000000 0.000000 0.000000
0.859580 1.187838 1.519732 0.000000 0.000000 0.000000
0.866744 1.190960 1.511929 0.000000 0.000000 0.000000
0.863476 1.191932 1.518609 0.000000 0.000000 0.000000
0.864000 1.175860 1.528912 0.000000 0.000000 0.000000
0.885272 1.225335 1.499106 0.000000 0.000000 0.000000
0.882675 1.223167 1.493276 0.000000 0.000000 0.000000
0.864674 1.180162 1.517208 0.000000 0.000000 0.000000
0.857018 1.175211 1.520797 0.000000 0.000000 0.000000
0.863496 1.190405 1.516259 0.000000 0.000000 0.000000
0.865367 1.183783 1.514628 0.000000 0.000000 0.000000
0.865455 1.176836 1.522712 0.000000 0.000000 0.000000
0.906740 1.232955 1.499472 0.000000 0.000000 0.000000
0.859030 1.191662 1.517178 0.000000 0.000000 0.000000
0.898139 1.182590 1.527777 0.000000 0.000000 0.000000
0.862688 1.165629 1.520241 0.000000 0.000000 0.000000
0.895498 1.187599 1.529109 0.000000 0.000000 0.000000
0.882351 1.206100 1.511987 0.000000 0.000000 0.000000
0.898764 1.180711 1.532954 0.000000 0.000000 0.000000
0.915434 1.223713 1.506354 0.000000 0.000000 0.000000
0.896802 1.192274 1.514726 0.000000 0.000000 0.000000
0.880847 1.238231 1.495194 0.000000 0.000000 0.000000
0.861298 1.171940 1.520721 0.000000 0.000000 0.000000
0.896906 1.186169 1.528112 0.000000 0.000000 0.000000
0.885860 1.234103 1.506432 0.000000 0.000000 0.000000
0.910751 1.229887 1.503044 0.000000 0.000000 0.000000
0.862565 1.170063 1.523488 0.000000 0.000000 0.000000
0.898089 1.189441 1.520077 0.000000 0.000000 0.000000
0.911461 1.227451 1.495932 0.000000 0.000000 0.000000
0.907686 1.237760 1.510903 0.000000 0.000000 0.000000
0.896181 1.197287 1.516818 0.000000 0.000000 0.000000
0.892612 1.189701 1.525512 0.000000 0.000000 0.000000
0.878113 1.197553 1.480433 0.000000 0.000000 0.000000
0.891039 1.192131 1.521885 0.000000 0.000000 0.000000
0.910034 1.238919 1.513265 0.000000 0.000000 0.000000
0.890392 1.190744 1.518128 0.000000 0.000000 0.000000
0.886988 1.197257 1.515931 0.000000 0.000000 0.000000
0.881185 1.200559 1.481152 0.000000 0.000000 0.000000
0.915674 1.230555 1.506919 0.000000 0.000000 0.000000
0.866852 1.186294 1.525861 0.000000 0.000000 0.000000
0.896888 1.188459 1.531576 0.000000 0.000000 0.000000
0.868934 1.182040 1.522037 0.000000 0.000000 0.000000
0.867512 1.191936 1.525537 0.000000 0.000000 0.000000
0.862684 1.185309 1.523866 0.000000 0.000000 0.000000
0.864572 1.188269 1.526427 0.000000 0.000000 0.000000
0.913126 1.236028 1.511610 0.000000 0.000000 0.000000
0.888910 1.204433 1.513328 0.000000 0.000000 0.000000
0.918291 1.223889 1.502133 0.000000 0.000000 0.000000
0.888713 1.217260 1.512813 0.000000 0.000000 0.000000
0.862096 1.175242 1.525801 0.000000 0.000000 0.000000
0.863185 1.182781 1.526566 0.000000 0.000000 0.000000
0.900671 1.182807 1.531900 0.000000 0.000000 0.000000
0.899056 1.189894 1.537769 0.000000 0.000000 0.000000
0.864033 1.171524 1.518298 0.000000 0.000000 0.000000
0.859994 1.178125 1.521480 0.000000 0.000000 0.000000
0.896625 1.235632 1.500448 0.000000 0.000000 0.000000
0.874623 1.195656 1.512957 0.000000 0.000000 0.000000
0.897835 1.230089 1.494676 0.000000 0.000000 0.000000
0.898594 1.182123 1.527446 0.000000 0.000000 0.000000
0.899448 1.186496 1.523037 0.000000 0.000000 0.000000
0.892085 1.187031 1.517797 0.000000 0.000000 0.000000
0.880097 1.229737 1.493707 0.000000 0.000000 0.000000
0.893468 1.187746 1.523779 0.000000 0.000000 0.000000
0.881282 1.216799 1.504305 0.000000 0.000000 0.000000
0.916386 1.220974 1.505494 0.000000 0.000000 0.000000
0.919300 1.222178 1.506677 0.000000 0.000000 0.000000
0.909387 1.225203 1.501973 0.000000 0.000000 0.000000
0.903184 1.230716 1.501451 0.000000 0.000000 0.000000
0.889468 1.200586 1.510220 0.000000 0.000000 0.000000
0.889511 1.198268 1.514840 0.000000 0.000000 0.000000
0.886996 1.216959 1.509796 0.000000 0.000000 0.000000
0.864715 1.190861 1.520887 0.000000 0.000000 0.000000
0.893392 1.193840 1.516567 0.000000 0.000000 0.000000
0.880091 1.215365 1.481255 0.000000 0.000000 0.000000
0.868964 1.177053 1.519836 0.000000 0.000000 0.000000
0.889133 1.202735 1.514773 0.000000 0.000000 0.000000
0.910974 1.236195 1.511449 0.000000 0.000000 0.000000
0.915091 1.223642 1.501291 0.000000 0.000000 0.000000
0.880297 1.227429 1.505430 0.000000 0.000000 0.000000
0.919251 1.221791 1.508575 0.000000 0.000000 0.000000
0.860480 1.170254 1.521935 0.000000 0.000000 0.000000
0.902457 1.231584 1.497760 0.000000 0.000000 0.000000
0.909085 1.226838 1.499744 0.000000 0.000000 0.000000
0.871292 1.179435 1.519170 0.000000 0.000000 0.000000
0.918551 1.238940 1.511021 0.000000 0.000000 0.000000
0.888457 1.221625 1.510220 0.000000 0.000000 0.000000
0.869042 1.183135 1.514155 0.000000 0.000000 0.000000
0.894425 1.194906 1.527832 0.000000 0.000000 0.000000
0.900536 1.179346 1.535191 0.000000 0.000000 0.000000
0.901267 1.183602 1.534240 0.000000 0.000000 0.000000
0.896715 1.183817 1.537817 0.000000 0.000000 0.000000
0.896042 1.239867 1.492548 0.000000 0.000000 0.000000
0.898629 1.235188 1.504962 0.000000 0.000000 0.000000
0.887707 1.210509 1.509196 0.000000 0.000000 0.000000
0.888254 1.207875 1.517794 0.000000 0.000000 0.000000
0.895069 1.179320 1.522147 0.000000 0.000000 0.000000
0.898651 1.191071 1.517255 0.000000 0.000000 0.000000
0.896459 1.182795 1.523519 0.000000 0.000000 0.000000
0.886045 1.202831 1.515031 0.000000 0.000000 0.000000
0.898622 1.184692 1.527519 0.000000 0.000000 0.000000
0.898475 1.184166 1.523574 0.000000 0.000000 0.000000
0.860203 1.184940 1.522006 0.000000 0.000000 0.000000
0.863266 1.178280 1.531504 0.000000 0.000000 0.000000
0.865305 1.183572 1.525578 0.000000 0.000000 0.000000
0.866271 1.177617 1.524378 0.000000 0.000000 0.000000
0.896385 1.186903 1.519520 0.000000 0.000000 0.000000
0.899007 1.182167 1.524927 0.000000 0.000000 0.000000
0.866967 1.179956 1.520117 0.000000 0.000000 0.000000
0.866884 1.177316 1.525797 0.000000 0.000000 0.000000
0.872435 1.190128 1.513824 0.000000 0.000000 0.000000
0.888718 1.204572 1.513088 0.000000 0.000000 0.000000
0.872732 1.194538 1.513430 0.000000 0.000000 0.000000
0.888639 1.196475 1.519317 0.000000 0.000000 0.000000
0.893410 1.180926 1.527095 0.000000 0.000000 0.000000
0.887488 1.213449 1.511979 0.000000 0.000000 0.000000
0.883952 1.214558 1.505942 0.000000 0.000000 0.000000
0.887319 1.213501 1.507365 0.000000 0.000000 0.000000
0.888989 1.221335 1.509374 0.000000 0.000000 0.000000
0.916560 1.232237 1.506008 0.000000 0.000000 0.000000
0.881253 1.221515 1.486622 0.000000 0.000000 0.000000
0.904985 1.181378 1.534813 0.000000 0.000000 0.000000
0.894243 1.197878 1.516457 0.000000 0.000000 0.000000
0.887738 1.201890 1.511935 0.000000 0.000000 0.000000
0.887925 1.219478 1.506656 0.000000 0.000000 0.000000
0.869775 1.194359 1.511411 0.000000 0.000000 0.000000
0.863285 1.165819 1.517294 0.000000 0.000000 0.000000
0.893786 1.184078 1.522863 0.000000 0.000000 0.000000
0.916118 1.237898 1.514203 0.000000 0.000000 0.000000
0.902165 1.234228 1.504681 0.000000 0.000000 0.000000
0.910196 1.234261 1.507267 0.000000 0.000000 0.000000
0.905529 1.236247 1.506800 0.000000 0.000000 0.000000
0.867312 1.174693 1.527085 0.000000 0.000000 0.000000
0.911238 1.227324 1.507738 0.000000 0.000000 0.000000
0.911198 1.227805 1.505702 0.000000 0.000000 0.000000
0.888328 1.191980 1.519086 0.000000 0.000000 0.000000
0.884190 1.221459 1.501722 0.000000 0.000000 0.000000
0.889187 1.198943 1.516027 0.000000 0.000000 0.000000
0.883242 1.236394 1.513837 0.000000 0.000000 0.000000
0.893640 1.193010 1.520686 0.000000 0.000000 0.000000
0.885523 1.238064 1.515934 0.000000 0.000000 0.000000
0.886741 1.238770 1.481997 0.000000 0.000000 0.000000
