ply
format ascii 1.0
comment VCGLIB generated
obj_info Generated by SPFormer!
element vertex 884
property float x
property float y
property float z
property float nx
property float ny
property float nz
end_header
0.553599 1.746476 1.792077 0.000000 0.000000 0.000000
0.576538 1.754455 1.724001 0.000000 0.000000 0.000000
0.574554 1.749300 1.722174 0.000000 0.000000 0.000000
0.550199 1.747246 1.753654 0.000000 0.000000 0.000000
0.563227 1.745867 1.743791 0.000000 0.000000 0.000000
0.571972 1.749229 1.728338 0.000000 0.000000 0.000000
0.561536 1.743551 1.785567 0.000000 0.000000 0.000000
0.564063 1.742538 1.773620 0.000000 0.000000 0.000000
0.551262 1.755845 1.789575 0.000000 0.000000 0.000000
0.560793 1.745689 1.773342 0.000000 0.000000 0.000000
0.548887 1.746464 1.799563 0.000000 0.000000 0.000000
0.559652 1.754492 1.780890 0.000000 0.000000 0.000000
0.566426 1.749034 1.798376 0.000000 0.000000 0.000000
0.551694 1.751387 1.792674 0.000000 0.000000 0.000000
0.557869 1.752969 1.781721 0.000000 0.000000 0.000000
0.574266 1.754859 1.723494 0.000000 0.000000 0.000000
0.570501 1.747590 1.728603 0.000000 0.000000 0.000000
0.563868 1.744206 1.791010 0.000000 0.000000 0.000000
0.574543 1.747685 1.723472 0.000000 0.000000 0.000000
0.513836 1.758722 1.824425 0.000000 0.000000 0.000000
0.514701 1.755219 1.822667 0.000000 0.000000 0.000000
0.591714 1.709852 1.760473 0.000000 0.000000 0.000000
0.552620 1.707305 1.797738 0.000000 0.000000 0.000000
0.623458 1.595515 1.792661 0.000000 0.000000 0.000000
0.547483 1.577738 1.752045 0.000000 0.000000 0.000000
0.629361 1.627157 1.770229 0.000000 0.000000 0.000000
0.522603 1.708726 1.813445 0.000000 0.000000 0.000000
0.570459 1.718505 1.759381 0.000000 0.000000 0.000000
0.597766 1.719411 1.740648 0.000000 0.000000 0.000000
0.596747 1.575888 1.731244 0.000000 0.000000 0.000000
0.527408 1.635790 1.825357 0.000000 0.000000 0.000000
0.544928 1.583961 1.760346 0.000000 0.000000 0.000000
0.562235 1.597116 1.753060 0.000000 0.000000 0.000000
0.624743 1.637739 1.792399 0.000000 0.000000 0.000000
0.515648 1.606278 1.797473 0.000000 0.000000 0.000000
0.639328 1.628935 1.787419 0.000000 0.000000 0.000000
0.531718 1.625222 1.795242 0.000000 0.000000 0.000000
0.547093 1.620395 1.776435 0.000000 0.000000 0.000000
0.635384 1.599286 1.768838 0.000000 0.000000 0.000000
0.625475 1.601019 1.745050 0.000000 0.000000 0.000000
0.544743 1.608919 1.771192 0.000000 0.000000 0.000000
0.656684 1.685683 1.816243 0.000000 0.000000 0.000000
0.641616 1.627471 1.799715 0.000000 0.000000 0.000000
0.647004 1.624918 1.794260 0.000000 0.000000 0.000000
0.570670 1.673207 1.792627 0.000000 0.000000 0.000000
0.662331 1.607965 1.805141 0.000000 0.000000 0.000000
0.595112 1.714592 1.755528 0.000000 0.000000 0.000000
0.580681 1.557065 1.711855 0.000000 0.000000 0.000000
0.531776 1.646846 1.829636 0.000000 0.000000 0.000000
0.567687 1.714236 1.778667 0.000000 0.000000 0.000000
0.633634 1.579599 1.777252 0.000000 0.000000 0.000000
0.528483 1.626325 1.810942 0.000000 0.000000 0.000000
0.539888 1.660313 1.833330 0.000000 0.000000 0.000000
0.642840 1.595951 1.765402 0.000000 0.000000 0.000000
0.565711 1.568237 1.731242 0.000000 0.000000 0.000000
0.570895 1.586658 1.746733 0.000000 0.000000 0.000000
0.648657 1.607242 1.761407 0.000000 0.000000 0.000000
0.633461 1.641715 1.812095 0.000000 0.000000 0.000000
0.516252 1.628011 1.831635 0.000000 0.000000 0.000000
0.646502 1.712229 1.746143 0.000000 0.000000 0.000000
0.603445 1.658157 1.793057 0.000000 0.000000 0.000000
0.584320 1.565791 1.722635 0.000000 0.000000 0.000000
0.569827 1.726208 1.766048 0.000000 0.000000 0.000000
0.636229 1.635045 1.822332 0.000000 0.000000 0.000000
0.613367 1.721498 1.744791 0.000000 0.000000 0.000000
0.507268 1.702580 1.831209 0.000000 0.000000 0.000000
0.563518 1.561404 1.718524 0.000000 0.000000 0.000000
0.625844 1.694431 1.783378 0.000000 0.000000 0.000000
0.596198 1.569580 1.723286 0.000000 0.000000 0.000000
0.656792 1.617179 1.801160 0.000000 0.000000 0.000000
0.558976 1.564922 1.729096 0.000000 0.000000 0.000000
0.658267 1.602296 1.766045 0.000000 0.000000 0.000000
0.528801 1.637606 1.818278 0.000000 0.000000 0.000000
0.652975 1.606174 1.769923 0.000000 0.000000 0.000000
0.589865 1.735657 1.744024 0.000000 0.000000 0.000000
0.511224 1.614204 1.814618 0.000000 0.000000 0.000000
0.575146 1.620080 1.751884 0.000000 0.000000 0.000000
0.558208 1.578349 1.751142 0.000000 0.000000 0.000000
0.657277 1.612067 1.792258 0.000000 0.000000 0.000000
0.666413 1.601014 1.801772 0.000000 0.000000 0.000000
0.534199 1.585292 1.763862 0.000000 0.000000 0.000000
0.549560 1.605568 1.769798 0.000000 0.000000 0.000000
0.619030 1.678498 1.776505 0.000000 0.000000 0.000000
0.528188 1.633970 1.811629 0.000000 0.000000 0.000000
0.633552 1.716794 1.748609 0.000000 0.000000 0.000000
0.530238 1.620493 1.796780 0.000000 0.000000 0.000000
0.625895 1.692673 1.770765 0.000000 0.000000 0.000000
0.615287 1.599036 1.740587 0.000000 0.000000 0.000000
0.525769 1.712426 1.800013 0.000000 0.000000 0.000000
0.578403 1.610766 1.752379 0.000000 0.000000 0.000000
0.554992 1.567011 1.731163 0.000000 0.000000 0.000000
0.638055 1.630726 1.817006 0.000000 0.000000 0.000000
0.595056 1.727085 1.733075 0.000000 0.000000 0.000000
0.560074 1.556087 1.713070 0.000000 0.000000 0.000000
0.666145 1.600141 1.790109 0.000000 0.000000 0.000000
0.605066 1.723844 1.757198 0.000000 0.000000 0.000000
0.549344 1.627026 1.788525 0.000000 0.000000 0.000000
0.590447 1.560787 1.713631 0.000000 0.000000 0.000000
0.544160 1.717617 1.782190 0.000000 0.000000 0.000000
0.574689 1.560968 1.718914 0.000000 0.000000 0.000000
0.551313 1.720723 1.790522 0.000000 0.000000 0.000000
0.536762 1.683700 1.836819 0.000000 0.000000 0.000000
0.627288 1.595813 1.765036 0.000000 0.000000 0.000000
0.636056 1.633171 1.840081 0.000000 0.000000 0.000000
0.576424 1.728877 1.750721 0.000000 0.000000 0.000000
0.597417 1.720087 1.744763 0.000000 0.000000 0.000000
0.653173 1.590960 1.774616 0.000000 0.000000 0.000000
0.546114 1.567662 1.733513 0.000000 0.000000 0.000000
0.571239 1.720670 1.762982 0.000000 0.000000 0.000000
0.528979 1.705217 1.809019 0.000000 0.000000 0.000000
0.654996 1.610830 1.791619 0.000000 0.000000 0.000000
0.566027 1.584336 1.751862 0.000000 0.000000 0.000000
0.551164 1.716376 1.787309 0.000000 0.000000 0.000000
0.522900 1.620778 1.810309 0.000000 0.000000 0.000000
0.665788 1.594265 1.775456 0.000000 0.000000 0.000000
0.633622 1.715123 1.736024 0.000000 0.000000 0.000000
0.640834 1.632667 1.805148 0.000000 0.000000 0.000000
0.640776 1.630399 1.789595 0.000000 0.000000 0.000000
0.658500 1.607155 1.785114 0.000000 0.000000 0.000000
0.662566 1.605414 1.787710 0.000000 0.000000 0.000000
0.511060 1.602704 1.795254 0.000000 0.000000 0.000000
0.631764 1.714088 1.757784 0.000000 0.000000 0.000000
0.531056 1.592326 1.773170 0.000000 0.000000 0.000000
0.645353 1.627433 1.813836 0.000000 0.000000 0.000000
0.550888 1.569648 1.740185 0.000000 0.000000 0.000000
0.537235 1.642921 1.813423 0.000000 0.000000 0.000000
0.580327 1.578103 1.739989 0.000000 0.000000 0.000000
0.546357 1.707072 1.800244 0.000000 0.000000 0.000000
0.604927 1.712257 1.744440 0.000000 0.000000 0.000000
0.641443 1.612638 1.763339 0.000000 0.000000 0.000000
0.651687 1.616812 1.791896 0.000000 0.000000 0.000000
0.616841 1.626361 1.840040 0.000000 0.000000 0.000000
0.588700 1.599821 1.747143 0.000000 0.000000 0.000000
0.635222 1.716778 1.736803 0.000000 0.000000 0.000000
0.638825 1.621595 1.837693 0.000000 0.000000 0.000000
0.655449 1.592387 1.754732 0.000000 0.000000 0.000000
0.544997 1.567659 1.736332 0.000000 0.000000 0.000000
0.619957 1.701395 1.749633 0.000000 0.000000 0.000000
0.643373 1.622509 1.766330 0.000000 0.000000 0.000000
0.570952 1.738109 1.758265 0.000000 0.000000 0.000000
0.660503 1.590727 1.752842 0.000000 0.000000 0.000000
0.660209 1.609765 1.813002 0.000000 0.000000 0.000000
0.643131 1.584496 1.758045 0.000000 0.000000 0.000000
0.516673 1.715533 1.818725 0.000000 0.000000 0.000000
0.594224 1.571889 1.728518 0.000000 0.000000 0.000000
0.642150 1.605602 1.754994 0.000000 0.000000 0.000000
0.626833 1.643357 1.849191 0.000000 0.000000 0.000000
0.552127 1.661112 1.820310 0.000000 0.000000 0.000000
0.574929 1.703619 1.769477 0.000000 0.000000 0.000000
0.587306 1.723675 1.740492 0.000000 0.000000 0.000000
0.585137 1.560529 1.712543 0.000000 0.000000 0.000000
0.639630 1.573530 1.738328 0.000000 0.000000 0.000000
0.572740 1.696667 1.789264 0.000000 0.000000 0.000000
0.578671 1.565900 1.723860 0.000000 0.000000 0.000000
0.546310 1.734276 1.769478 0.000000 0.000000 0.000000
0.637825 1.669097 1.793571 0.000000 0.000000 0.000000
0.663937 1.593950 1.763942 0.000000 0.000000 0.000000
0.544306 1.732712 1.777485 0.000000 0.000000 0.000000
0.577164 1.659539 1.782442 0.000000 0.000000 0.000000
0.540864 1.726097 1.784743 0.000000 0.000000 0.000000
0.577592 1.716164 1.770069 0.000000 0.000000 0.000000
0.654261 1.613169 1.796934 0.000000 0.000000 0.000000
0.541121 1.688271 1.830767 0.000000 0.000000 0.000000
0.662880 1.604625 1.812230 0.000000 0.000000 0.000000
0.540564 1.563597 1.727233 0.000000 0.000000 0.000000
0.522827 1.637505 1.836583 0.000000 0.000000 0.000000
0.510131 1.584481 1.766765 0.000000 0.000000 0.000000
0.639125 1.699942 1.791367 0.000000 0.000000 0.000000
0.596748 1.726716 1.730272 0.000000 0.000000 0.000000
0.546945 1.663664 1.824128 0.000000 0.000000 0.000000
0.511371 1.580559 1.760601 0.000000 0.000000 0.000000
0.664330 1.606637 1.810793 0.000000 0.000000 0.000000
0.668669 1.594345 1.780596 0.000000 0.000000 0.000000
0.545611 1.695031 1.819892 0.000000 0.000000 0.000000
0.656179 1.614120 1.817220 0.000000 0.000000 0.000000
0.518752 1.586792 1.768725 0.000000 0.000000 0.000000
0.668243 1.598979 1.781909 0.000000 0.000000 0.000000
0.557255 1.561777 1.722976 0.000000 0.000000 0.000000
0.597746 1.704290 1.761357 0.000000 0.000000 0.000000
0.634147 1.716984 1.769979 0.000000 0.000000 0.000000
0.547029 1.570213 1.738260 0.000000 0.000000 0.000000
0.509891 1.629397 1.835019 0.000000 0.000000 0.000000
0.645080 1.717282 1.761525 0.000000 0.000000 0.000000
0.660002 1.604616 1.773819 0.000000 0.000000 0.000000
0.521838 1.609806 1.801960 0.000000 0.000000 0.000000
0.648507 1.713198 1.754312 0.000000 0.000000 0.000000
0.668201 1.599483 1.787982 0.000000 0.000000 0.000000
0.660944 1.602294 1.767056 0.000000 0.000000 0.000000
0.625313 1.718490 1.734444 0.000000 0.000000 0.000000
0.609545 1.558663 1.707508 0.000000 0.000000 0.000000
0.655376 1.614490 1.823151 0.000000 0.000000 0.000000
0.516248 1.587803 1.772349 0.000000 0.000000 0.000000
0.628141 1.720217 1.733736 0.000000 0.000000 0.000000
0.515769 1.582986 1.764082 0.000000 0.000000 0.000000
0.628368 1.713118 1.738984 0.000000 0.000000 0.000000
0.545845 1.706669 1.836453 0.000000 0.000000 0.000000
0.647998 1.620200 1.800830 0.000000 0.000000 0.000000
0.537280 1.674638 1.839824 0.000000 0.000000 0.000000
0.665430 1.605448 1.823613 0.000000 0.000000 0.000000
0.650586 1.620841 1.827334 0.000000 0.000000 0.000000
0.531402 1.690958 1.826016 0.000000 0.000000 0.000000
0.591311 1.732145 1.732954 0.000000 0.000000 0.000000
0.608178 1.714349 1.761016 0.000000 0.000000 0.000000
0.523350 1.584047 1.764651 0.000000 0.000000 0.000000
0.661579 1.596299 1.764160 0.000000 0.000000 0.000000
0.650596 1.619838 1.834853 0.000000 0.000000 0.000000
0.665305 1.600095 1.777026 0.000000 0.000000 0.000000
0.523211 1.575404 1.749820 0.000000 0.000000 0.000000
0.551248 1.554640 1.711732 0.000000 0.000000 0.000000
0.521882 1.596056 1.781376 0.000000 0.000000 0.000000
0.521470 1.584027 1.764660 0.000000 0.000000 0.000000
0.530160 1.585643 1.766309 0.000000 0.000000 0.000000
0.535573 1.625531 1.795257 0.000000 0.000000 0.000000
0.542871 1.692626 1.828204 0.000000 0.000000 0.000000
0.631118 1.633354 1.793439 0.000000 0.000000 0.000000
0.552258 1.676884 1.827443 0.000000 0.000000 0.000000
0.505654 1.603663 1.799316 0.000000 0.000000 0.000000
0.654969 1.614695 1.803413 0.000000 0.000000 0.000000
0.610911 1.572490 1.723481 0.000000 0.000000 0.000000
0.663521 1.604573 1.824059 0.000000 0.000000 0.000000
0.609493 1.596733 1.739984 0.000000 0.000000 0.000000
0.561259 1.636766 1.782043 0.000000 0.000000 0.000000
0.600844 1.641086 1.780957 0.000000 0.000000 0.000000
0.561731 1.649346 1.801480 0.000000 0.000000 0.000000
0.552108 1.569187 1.735656 0.000000 0.000000 0.000000
0.552388 1.639506 1.791434 0.000000 0.000000 0.000000
0.629275 1.620909 1.762979 0.000000 0.000000 0.000000
0.562825 1.605718 1.755099 0.000000 0.000000 0.000000
0.593169 1.636339 1.775248 0.000000 0.000000 0.000000
0.567934 1.677188 1.798139 0.000000 0.000000 0.000000
0.579158 1.589969 1.747380 0.000000 0.000000 0.000000
0.541501 1.641329 1.815382 0.000000 0.000000 0.000000
0.538705 1.632592 1.802459 0.000000 0.000000 0.000000
0.560819 1.613155 1.763715 0.000000 0.000000 0.000000
0.573481 1.566737 1.726072 0.000000 0.000000 0.000000
0.543632 1.572093 1.742289 0.000000 0.000000 0.000000
0.551217 1.612095 1.779137 0.000000 0.000000 0.000000
0.535897 1.667344 1.844611 0.000000 0.000000 0.000000
0.583821 1.593270 1.742259 0.000000 0.000000 0.000000
0.547398 1.650668 1.807383 0.000000 0.000000 0.000000
0.537141 1.697090 1.819204 0.000000 0.000000 0.000000
0.548759 1.628364 1.791478 0.000000 0.000000 0.000000
0.554352 1.590163 1.762044 0.000000 0.000000 0.000000
0.526369 1.656726 1.858046 0.000000 0.000000 0.000000
0.525751 1.579534 1.755538 0.000000 0.000000 0.000000
0.633022 1.634576 1.800728 0.000000 0.000000 0.000000
0.546720 1.686267 1.828214 0.000000 0.000000 0.000000
0.616136 1.579276 1.729585 0.000000 0.000000 0.000000
0.579718 1.568648 1.730513 0.000000 0.000000 0.000000
0.521171 1.564173 1.732029 0.000000 0.000000 0.000000
0.603543 1.564493 1.714384 0.000000 0.000000 0.000000
0.577394 1.555628 1.708846 0.000000 0.000000 0.000000
0.584114 1.569712 1.728251 0.000000 0.000000 0.000000
0.519748 1.587216 1.768652 0.000000 0.000000 0.000000
0.524312 1.623761 1.810038 0.000000 0.000000 0.000000
0.546870 1.649590 1.812011 0.000000 0.000000 0.000000
0.657753 1.608134 1.780375 0.000000 0.000000 0.000000
0.604686 1.561089 1.711157 0.000000 0.000000 0.000000
0.584846 1.616701 1.758279 0.000000 0.000000 0.000000
0.519197 1.698018 1.836727 0.000000 0.000000 0.000000
0.535761 1.579733 1.754721 0.000000 0.000000 0.000000
0.579808 1.639140 1.778506 0.000000 0.000000 0.000000
0.574915 1.592633 1.746513 0.000000 0.000000 0.000000
0.620531 1.569553 1.718122 0.000000 0.000000 0.000000
0.568778 1.558907 1.717872 0.000000 0.000000 0.000000
0.509854 1.589723 1.775490 0.000000 0.000000 0.000000
0.529597 1.613290 1.794866 0.000000 0.000000 0.000000
0.612568 1.645431 1.784444 0.000000 0.000000 0.000000
0.534076 1.635618 1.817716 0.000000 0.000000 0.000000
0.620743 1.626278 1.769126 0.000000 0.000000 0.000000
0.550166 1.560495 1.723244 0.000000 0.000000 0.000000
0.548541 1.593308 1.764720 0.000000 0.000000 0.000000
0.543171 1.592758 1.770296 0.000000 0.000000 0.000000
0.522376 1.697366 1.827113 0.000000 0.000000 0.000000
0.513167 1.615927 1.816697 0.000000 0.000000 0.000000
0.564544 1.587607 1.752146 0.000000 0.000000 0.000000
0.578800 1.561965 1.716213 0.000000 0.000000 0.000000
0.639302 1.593421 1.744122 0.000000 0.000000 0.000000
0.549721 1.578189 1.751152 0.000000 0.000000 0.000000
0.659919 1.688975 1.795169 0.000000 0.000000 0.000000
0.580639 1.574867 1.736331 0.000000 0.000000 0.000000
0.506637 1.616890 1.820841 0.000000 0.000000 0.000000
0.646238 1.587486 1.741275 0.000000 0.000000 0.000000
0.635977 1.618086 1.785487 0.000000 0.000000 0.000000
0.648930 1.593149 1.744383 0.000000 0.000000 0.000000
0.602636 1.708196 1.748767 0.000000 0.000000 0.000000
0.507812 1.585752 1.769495 0.000000 0.000000 0.000000
0.525799 1.606513 1.796309 0.000000 0.000000 0.000000
0.579452 1.729521 1.740650 0.000000 0.000000 0.000000
0.538871 1.650205 1.825011 0.000000 0.000000 0.000000
0.514763 1.634145 1.838779 0.000000 0.000000 0.000000
0.540075 1.741695 1.753309 0.000000 0.000000 0.000000
0.524485 1.634829 1.829073 0.000000 0.000000 0.000000
0.570919 1.569494 1.732567 0.000000 0.000000 0.000000
0.576569 1.733595 1.752744 0.000000 0.000000 0.000000
0.534477 1.668012 1.856185 0.000000 0.000000 0.000000
0.604335 1.572031 1.724887 0.000000 0.000000 0.000000
0.527130 1.567469 1.736579 0.000000 0.000000 0.000000
0.512891 1.611353 1.809631 0.000000 0.000000 0.000000
0.545967 1.557873 1.718506 0.000000 0.000000 0.000000
0.496952 1.611536 1.814057 0.000000 0.000000 0.000000
0.585052 1.632374 1.769102 0.000000 0.000000 0.000000
0.559546 1.621004 1.779901 0.000000 0.000000 0.000000
0.578178 1.632954 1.775487 0.000000 0.000000 0.000000
0.544789 1.565959 1.731153 0.000000 0.000000 0.000000
0.520372 1.708517 1.816834 0.000000 0.000000 0.000000
0.550503 1.633395 1.782459 0.000000 0.000000 0.000000
0.569584 1.563183 1.723780 0.000000 0.000000 0.000000
0.568261 1.620835 1.768113 0.000000 0.000000 0.000000
0.548359 1.633842 1.792750 0.000000 0.000000 0.000000
0.556032 1.663765 1.812768 0.000000 0.000000 0.000000
0.557235 1.599445 1.768259 0.000000 0.000000 0.000000
0.560923 1.571887 1.738137 0.000000 0.000000 0.000000
0.574878 1.582131 1.746509 0.000000 0.000000 0.000000
0.567950 1.668893 1.789048 0.000000 0.000000 0.000000
0.541722 1.619158 1.782021 0.000000 0.000000 0.000000
0.538992 1.658031 1.832715 0.000000 0.000000 0.000000
0.538316 1.588460 1.759730 0.000000 0.000000 0.000000
0.552662 1.644493 1.807252 0.000000 0.000000 0.000000
0.518615 1.622317 1.821973 0.000000 0.000000 0.000000
0.530696 1.634218 1.807690 0.000000 0.000000 0.000000
0.560125 1.675734 1.813826 0.000000 0.000000 0.000000
0.567631 1.561620 1.716746 0.000000 0.000000 0.000000
0.533827 1.569491 1.743233 0.000000 0.000000 0.000000
0.653408 1.615228 1.802664 0.000000 0.000000 0.000000
0.561210 1.662848 1.802955 0.000000 0.000000 0.000000
0.603759 1.575780 1.730433 0.000000 0.000000 0.000000
0.594610 1.584448 1.736134 0.000000 0.000000 0.000000
0.581287 1.555853 1.709120 0.000000 0.000000 0.000000
0.546001 1.669800 1.827270 0.000000 0.000000 0.000000
0.571918 1.650916 1.786204 0.000000 0.000000 0.000000
0.629810 1.578436 1.723931 0.000000 0.000000 0.000000
0.540578 1.572980 1.744915 0.000000 0.000000 0.000000
0.589625 1.572146 1.728966 0.000000 0.000000 0.000000
0.552077 1.686517 1.811519 0.000000 0.000000 0.000000
0.523022 1.630306 1.818644 0.000000 0.000000 0.000000
0.504759 1.601184 1.793806 0.000000 0.000000 0.000000
0.613184 1.576827 1.726310 0.000000 0.000000 0.000000
0.577709 1.641187 1.785955 0.000000 0.000000 0.000000
0.535620 1.597944 1.776005 0.000000 0.000000 0.000000
0.621596 1.643930 1.793623 0.000000 0.000000 0.000000
0.571489 1.600624 1.753766 0.000000 0.000000 0.000000
0.501935 1.587358 1.772468 0.000000 0.000000 0.000000
0.520402 1.597254 1.782675 0.000000 0.000000 0.000000
0.625691 1.663354 1.791370 0.000000 0.000000 0.000000
0.532042 1.659692 1.844491 0.000000 0.000000 0.000000
0.661986 1.601629 1.778455 0.000000 0.000000 0.000000
0.622231 1.575733 1.724080 0.000000 0.000000 0.000000
0.530769 1.596913 1.783423 0.000000 0.000000 0.000000
0.520746 1.603893 1.794902 0.000000 0.000000 0.000000
0.569711 1.573949 1.738322 0.000000 0.000000 0.000000
0.539338 1.591349 1.771565 0.000000 0.000000 0.000000
0.517472 1.650666 1.852717 0.000000 0.000000 0.000000
0.532283 1.730362 1.778663 0.000000 0.000000 0.000000
0.605598 1.566267 1.718363 0.000000 0.000000 0.000000
0.525890 1.564882 1.732409 0.000000 0.000000 0.000000
0.548198 1.633561 1.791530 0.000000 0.000000 0.000000
0.596022 1.595105 1.741466 0.000000 0.000000 0.000000
0.602572 1.637832 1.770500 0.000000 0.000000 0.000000
0.552251 1.695713 1.807795 0.000000 0.000000 0.000000
0.647400 1.617226 1.794953 0.000000 0.000000 0.000000
0.613006 1.698619 1.763126 0.000000 0.000000 0.000000
0.644143 1.600206 1.751308 0.000000 0.000000 0.000000
0.654542 1.601234 1.759975 0.000000 0.000000 0.000000
0.656818 1.612498 1.808429 0.000000 0.000000 0.000000
0.555468 1.737277 1.754416 0.000000 0.000000 0.000000
0.516328 1.635950 1.843069 0.000000 0.000000 0.000000
0.557278 1.735984 1.747582 0.000000 0.000000 0.000000
0.589864 1.564983 1.722336 0.000000 0.000000 0.000000
0.639630 1.715439 1.751752 0.000000 0.000000 0.000000
0.609150 1.562050 1.709842 0.000000 0.000000 0.000000
0.563221 1.564392 1.725142 0.000000 0.000000 0.000000
0.593818 1.562074 1.716685 0.000000 0.000000 0.000000
0.504784 1.606182 1.806054 0.000000 0.000000 0.000000
0.652025 1.611485 1.776519 0.000000 0.000000 0.000000
0.558053 1.674052 1.797522 0.000000 0.000000 0.000000
0.517579 1.657121 1.855456 0.000000 0.000000 0.000000
0.583181 1.677925 1.797051 0.000000 0.000000 0.000000
0.602620 1.657964 1.784387 0.000000 0.000000 0.000000
0.635655 1.623065 1.770617 0.000000 0.000000 0.000000
0.619236 1.667809 1.790415 0.000000 0.000000 0.000000
0.634563 1.630534 1.780679 0.000000 0.000000 0.000000
0.515483 1.576760 1.752780 0.000000 0.000000 0.000000
0.616359 1.561984 1.708267 0.000000 0.000000 0.000000
0.589655 1.715901 1.766979 0.000000 0.000000 0.000000
0.562258 1.578511 1.747130 0.000000 0.000000 0.000000
0.585218 1.655913 1.789747 0.000000 0.000000 0.000000
0.577240 1.627415 1.761013 0.000000 0.000000 0.000000
0.588431 1.625383 1.759969 0.000000 0.000000 0.000000
0.491947 1.599027 1.792184 0.000000 0.000000 0.000000
0.511842 1.588535 1.773497 0.000000 0.000000 0.000000
0.618025 1.617595 1.795445 0.000000 0.000000 0.000000
0.603556 1.618576 1.755411 0.000000 0.000000 0.000000
0.537508 1.551287 1.708069 0.000000 0.000000 0.000000
0.521058 1.655630 1.857830 0.000000 0.000000 0.000000
0.564080 1.675805 1.784007 0.000000 0.000000 0.000000
0.577760 1.691132 1.778701 0.000000 0.000000 0.000000
0.605455 1.633530 1.768144 0.000000 0.000000 0.000000
0.597020 1.682550 1.778562 0.000000 0.000000 0.000000
0.620869 1.640984 1.786595 0.000000 0.000000 0.000000
0.571194 1.662249 1.794626 0.000000 0.000000 0.000000
0.642440 1.623826 1.821959 0.000000 0.000000 0.000000
0.572293 1.675607 1.780573 0.000000 0.000000 0.000000
0.597552 1.626466 1.765187 0.000000 0.000000 0.000000
0.599412 1.645703 1.784479 0.000000 0.000000 0.000000
0.560865 1.672519 1.799071 0.000000 0.000000 0.000000
0.626594 1.622566 1.799051 0.000000 0.000000 0.000000
0.613876 1.612067 1.750682 0.000000 0.000000 0.000000
0.503010 1.583418 1.766067 0.000000 0.000000 0.000000
0.535475 1.567817 1.735234 0.000000 0.000000 0.000000
0.538383 1.685715 1.834656 0.000000 0.000000 0.000000
0.623269 1.613359 1.753524 0.000000 0.000000 0.000000
0.529602 1.647765 1.834406 0.000000 0.000000 0.000000
0.530432 1.607521 1.791350 0.000000 0.000000 0.000000
0.541141 1.664655 1.837740 0.000000 0.000000 0.000000
0.519847 1.643922 1.842313 0.000000 0.000000 0.000000
0.529174 1.570253 1.742627 0.000000 0.000000 0.000000
0.520185 1.648931 1.853756 0.000000 0.000000 0.000000
0.615634 1.712407 1.742208 0.000000 0.000000 0.000000
0.622074 1.720112 1.729016 0.000000 0.000000 0.000000
0.513713 1.591560 1.779570 0.000000 0.000000 0.000000
0.530501 1.582147 1.759696 0.000000 0.000000 0.000000
0.510466 1.633468 1.842698 0.000000 0.000000 0.000000
0.531698 1.665878 1.867286 0.000000 0.000000 0.000000
0.507785 1.637676 1.846254 0.000000 0.000000 0.000000
0.515184 1.567440 1.738968 0.000000 0.000000 0.000000
0.513632 1.576974 1.753288 0.000000 0.000000 0.000000
0.523798 1.579944 1.755613 0.000000 0.000000 0.000000
0.505269 1.582637 1.764665 0.000000 0.000000 0.000000
0.643693 1.611693 1.770539 0.000000 0.000000 0.000000
0.519917 1.584522 1.764263 0.000000 0.000000 0.000000
0.537822 1.586639 1.766472 0.000000 0.000000 0.000000
0.503196 1.624896 1.834215 0.000000 0.000000 0.000000
0.631859 1.630525 1.840118 0.000000 0.000000 0.000000
0.526068 1.649514 1.870845 0.000000 0.000000 0.000000
0.520355 1.640780 1.838099 0.000000 0.000000 0.000000
0.544031 1.677239 1.827380 0.000000 0.000000 0.000000
0.527821 1.598959 1.781857 0.000000 0.000000 0.000000
0.534031 1.687806 1.831298 0.000000 0.000000 0.000000
0.524172 1.690213 1.835702 0.000000 0.000000 0.000000
0.534653 1.726166 1.790904 0.000000 0.000000 0.000000
0.642991 1.715794 1.737585 0.000000 0.000000 0.000000
0.524656 1.641973 1.833918 0.000000 0.000000 0.000000
0.522339 1.656176 1.859450 0.000000 0.000000 0.000000
0.528701 1.655035 1.852772 0.000000 0.000000 0.000000
0.514364 1.572094 1.746007 0.000000 0.000000 0.000000
0.516633 1.575024 1.750087 0.000000 0.000000 0.000000
0.523281 1.645314 1.854431 0.000000 0.000000 0.000000
0.636165 1.639559 1.837047 0.000000 0.000000 0.000000
0.513585 1.596720 1.785429 0.000000 0.000000 0.000000
0.630078 1.716762 1.734534 0.000000 0.000000 0.000000
0.501104 1.614477 1.820447 0.000000 0.000000 0.000000
0.524951 1.652207 1.846094 0.000000 0.000000 0.000000
0.638309 1.658115 1.849815 0.000000 0.000000 0.000000
0.540065 1.613177 1.791365 0.000000 0.000000 0.000000
0.536507 1.653529 1.832292 0.000000 0.000000 0.000000
0.678359 1.597445 1.802527 0.000000 0.000000 0.000000
0.663838 1.595159 1.761433 0.000000 0.000000 0.000000
0.615328 1.565738 1.713958 0.000000 0.000000 0.000000
0.611886 1.568725 1.718972 0.000000 0.000000 0.000000
0.492488 1.593880 1.782166 0.000000 0.000000 0.000000
0.531846 1.575773 1.750293 0.000000 0.000000 0.000000
0.658165 1.677254 1.828488 0.000000 0.000000 0.000000
0.545557 1.597994 1.769426 0.000000 0.000000 0.000000
0.535476 1.612790 1.784631 0.000000 0.000000 0.000000
0.534964 1.658679 1.839860 0.000000 0.000000 0.000000
0.596822 1.564140 1.713219 0.000000 0.000000 0.000000
0.548030 1.583851 1.758350 0.000000 0.000000 0.000000
0.509209 1.572924 1.753725 0.000000 0.000000 0.000000
0.513061 1.633702 1.839377 0.000000 0.000000 0.000000
0.513774 1.572830 1.745297 0.000000 0.000000 0.000000
0.621223 1.693818 1.769988 0.000000 0.000000 0.000000
0.501054 1.609201 1.809441 0.000000 0.000000 0.000000
0.647703 1.711653 1.764807 0.000000 0.000000 0.000000
0.529299 1.567972 1.740772 0.000000 0.000000 0.000000
0.591465 1.638573 1.772092 0.000000 0.000000 0.000000
0.502297 1.597827 1.789584 0.000000 0.000000 0.000000
0.527280 1.665215 1.864411 0.000000 0.000000 0.000000
0.608431 1.724567 1.729799 0.000000 0.000000 0.000000
0.589437 1.691856 1.758564 0.000000 0.000000 0.000000
0.530151 1.573180 1.745938 0.000000 0.000000 0.000000
0.535096 1.570943 1.743888 0.000000 0.000000 0.000000
0.637490 1.700699 1.764457 0.000000 0.000000 0.000000
0.520294 1.571216 1.743325 0.000000 0.000000 0.000000
0.514189 1.569409 1.740602 0.000000 0.000000 0.000000
0.659431 1.707601 1.766352 0.000000 0.000000 0.000000
0.532775 1.675799 1.850943 0.000000 0.000000 0.000000
0.511339 1.584116 1.767099 0.000000 0.000000 0.000000
0.608545 1.728074 1.725165 0.000000 0.000000 0.000000
0.497509 1.616511 1.821893 0.000000 0.000000 0.000000
0.593683 1.732459 1.736008 0.000000 0.000000 0.000000
0.580598 1.559439 1.710710 0.000000 0.000000 0.000000
0.520653 1.600091 1.790878 0.000000 0.000000 0.000000
0.512619 1.608672 1.805178 0.000000 0.000000 0.000000
0.583191 1.730146 1.739622 0.000000 0.000000 0.000000
0.518560 1.595803 1.784276 0.000000 0.000000 0.000000
0.545158 1.642608 1.804134 0.000000 0.000000 0.000000
0.643717 1.683575 1.795407 0.000000 0.000000 0.000000
0.509280 1.621083 1.825297 0.000000 0.000000 0.000000
0.638310 1.706040 1.758347 0.000000 0.000000 0.000000
0.530080 1.602844 1.786702 0.000000 0.000000 0.000000
0.627576 1.631707 1.845109 0.000000 0.000000 0.000000
0.634509 1.629752 1.830738 0.000000 0.000000 0.000000
0.514211 1.580744 1.757538 0.000000 0.000000 0.000000
0.514652 1.583854 1.765738 0.000000 0.000000 0.000000
0.528298 1.560359 1.722887 0.000000 0.000000 0.000000
0.582002 1.561978 1.718298 0.000000 0.000000 0.000000
0.588088 1.561183 1.714107 0.000000 0.000000 0.000000
0.638216 1.640303 1.858219 0.000000 0.000000 0.000000
0.533185 1.560733 1.723149 0.000000 0.000000 0.000000
0.522969 1.689647 1.838703 0.000000 0.000000 0.000000
0.513629 1.567463 1.735148 0.000000 0.000000 0.000000
0.548930 1.557241 1.717637 0.000000 0.000000 0.000000
0.649174 1.668222 1.849436 0.000000 0.000000 0.000000
0.520494 1.646976 1.851114 0.000000 0.000000 0.000000
0.537651 1.568071 1.736525 0.000000 0.000000 0.000000
0.529625 1.558127 1.723037 0.000000 0.000000 0.000000
0.504946 1.619658 1.825178 0.000000 0.000000 0.000000
0.508451 1.634273 1.844571 0.000000 0.000000 0.000000
0.529661 1.561502 1.723711 0.000000 0.000000 0.000000
0.543567 1.560994 1.723739 0.000000 0.000000 0.000000
0.522144 1.568707 1.739219 0.000000 0.000000 0.000000
0.622944 1.710271 1.780327 0.000000 0.000000 0.000000
0.519962 1.582584 1.760044 0.000000 0.000000 0.000000
0.508542 1.617174 1.819106 0.000000 0.000000 0.000000
0.531889 1.737345 1.762107 0.000000 0.000000 0.000000
0.516941 1.578452 1.757002 0.000000 0.000000 0.000000
0.515259 1.632793 1.836466 0.000000 0.000000 0.000000
0.521946 1.563818 1.729715 0.000000 0.000000 0.000000
0.623060 1.714043 1.737308 0.000000 0.000000 0.000000
0.530291 1.659057 1.851413 0.000000 0.000000 0.000000
0.609981 1.722961 1.731810 0.000000 0.000000 0.000000
0.598589 1.726422 1.743319 0.000000 0.000000 0.000000
0.571586 1.712196 1.771142 0.000000 0.000000 0.000000
0.525060 1.712975 1.803852 0.000000 0.000000 0.000000
0.560445 1.728238 1.755729 0.000000 0.000000 0.000000
0.578575 1.713781 1.761557 0.000000 0.000000 0.000000
0.582884 1.731885 1.735561 0.000000 0.000000 0.000000
0.598171 1.731334 1.736146 0.000000 0.000000 0.000000
0.510600 1.606177 1.800642 0.000000 0.000000 0.000000
0.537660 1.736087 1.761796 0.000000 0.000000 0.000000
0.506085 1.600252 1.792935 0.000000 0.000000 0.000000
0.617502 1.723449 1.733694 0.000000 0.000000 0.000000
0.603589 1.730113 1.725849 0.000000 0.000000 0.000000
0.517471 1.713353 1.805699 0.000000 0.000000 0.000000
0.583878 1.724170 1.748749 0.000000 0.000000 0.000000
0.590506 1.713296 1.747819 0.000000 0.000000 0.000000
0.598387 1.729130 1.731833 0.000000 0.000000 0.000000
0.509223 1.599467 1.791795 0.000000 0.000000 0.000000
0.646234 1.624471 1.808394 0.000000 0.000000 0.000000
0.669126 1.601104 1.803583 0.000000 0.000000 0.000000
0.540015 1.552830 1.711513 0.000000 0.000000 0.000000
0.659974 1.608719 1.801301 0.000000 0.000000 0.000000
0.531108 1.559105 1.718878 0.000000 0.000000 0.000000
0.652159 1.616612 1.813976 0.000000 0.000000 0.000000
0.557370 1.552587 1.706639 0.000000 0.000000 0.000000
0.544001 1.555378 1.712877 0.000000 0.000000 0.000000
0.660359 1.606079 1.818051 0.000000 0.000000 0.000000
0.508846 1.600419 1.791807 0.000000 0.000000 0.000000
0.555954 1.566493 1.730804 0.000000 0.000000 0.000000
0.521905 1.561247 1.725798 0.000000 0.000000 0.000000
0.502266 1.621894 1.829232 0.000000 0.000000 0.000000
0.633068 1.632855 1.849754 0.000000 0.000000 0.000000
0.567585 1.557987 1.714979 0.000000 0.000000 0.000000
0.515560 1.614916 1.813344 0.000000 0.000000 0.000000
0.582444 1.558312 1.713312 0.000000 0.000000 0.000000
0.505616 1.580553 1.760184 0.000000 0.000000 0.000000
0.516084 1.565046 1.729932 0.000000 0.000000 0.000000
0.507688 1.626894 1.835459 0.000000 0.000000 0.000000
0.499183 1.612369 1.814543 0.000000 0.000000 0.000000
0.637402 1.643402 1.842616 0.000000 0.000000 0.000000
0.513992 1.700789 1.833475 0.000000 0.000000 0.000000
0.639379 1.710495 1.740868 0.000000 0.000000 0.000000
0.561287 1.550528 1.704357 0.000000 0.000000 0.000000
0.654243 1.712296 1.758624 0.000000 0.000000 0.000000
0.509631 1.592893 1.781200 0.000000 0.000000 0.000000
0.629429 1.658883 1.799403 0.000000 0.000000 0.000000
0.529130 1.670690 1.860901 0.000000 0.000000 0.000000
0.638690 1.626759 1.775989 0.000000 0.000000 0.000000
0.591258 1.555608 1.706900 0.000000 0.000000 0.000000
0.508567 1.610703 1.809901 0.000000 0.000000 0.000000
0.659218 1.625948 1.848286 0.000000 0.000000 0.000000
0.584270 1.697061 1.755943 0.000000 0.000000 0.000000
0.568424 1.733609 1.760145 0.000000 0.000000 0.000000
0.563631 1.552193 1.707030 0.000000 0.000000 0.000000
0.576423 1.728894 1.761849 0.000000 0.000000 0.000000
0.595128 1.667069 1.781159 0.000000 0.000000 0.000000
0.560067 1.739805 1.761498 0.000000 0.000000 0.000000
0.555565 1.740456 1.768736 0.000000 0.000000 0.000000
0.624792 1.692172 1.755751 0.000000 0.000000 0.000000
0.642172 1.622725 1.832125 0.000000 0.000000 0.000000
0.567608 1.713888 1.769926 0.000000 0.000000 0.000000
0.586130 1.706617 1.752660 0.000000 0.000000 0.000000
0.593996 1.694447 1.756565 0.000000 0.000000 0.000000
0.593875 1.685286 1.760430 0.000000 0.000000 0.000000
0.600201 1.696640 1.752380 0.000000 0.000000 0.000000
0.608492 1.705352 1.747449 0.000000 0.000000 0.000000
0.606915 1.692605 1.755690 0.000000 0.000000 0.000000
0.502999 1.610018 1.810364 0.000000 0.000000 0.000000
0.641309 1.584940 1.734447 0.000000 0.000000 0.000000
0.501956 1.613139 1.815375 0.000000 0.000000 0.000000
0.606811 1.564726 1.715482 0.000000 0.000000 0.000000
0.506215 1.569932 1.743885 0.000000 0.000000 0.000000
0.505608 1.574579 1.746289 0.000000 0.000000 0.000000
0.641502 1.676409 1.783345 0.000000 0.000000 0.000000
0.652364 1.710767 1.748409 0.000000 0.000000 0.000000
0.597785 1.563237 1.717255 0.000000 0.000000 0.000000
0.668353 1.708190 1.760360 0.000000 0.000000 0.000000
0.532929 1.733081 1.770169 0.000000 0.000000 0.000000
0.638108 1.673584 1.797559 0.000000 0.000000 0.000000
0.600092 1.567022 1.721567 0.000000 0.000000 0.000000
0.670081 1.695403 1.798686 0.000000 0.000000 0.000000
0.581136 1.723364 1.776100 0.000000 0.000000 0.000000
0.635769 1.690315 1.761646 0.000000 0.000000 0.000000
0.647247 1.614279 1.770845 0.000000 0.000000 0.000000
0.528960 1.664031 1.854795 0.000000 0.000000 0.000000
0.674496 1.596610 1.790549 0.000000 0.000000 0.000000
0.526528 1.671574 1.854916 0.000000 0.000000 0.000000
0.678932 1.596907 1.798276 0.000000 0.000000 0.000000
0.664471 1.606200 1.820017 0.000000 0.000000 0.000000
0.668002 1.600091 1.787138 0.000000 0.000000 0.000000
0.667516 1.703984 1.802726 0.000000 0.000000 0.000000
0.638405 1.604676 1.751631 0.000000 0.000000 0.000000
0.605872 1.627423 1.759180 0.000000 0.000000 0.000000
0.631343 1.720983 1.749982 0.000000 0.000000 0.000000
0.614398 1.723541 1.731417 0.000000 0.000000 0.000000
0.606719 1.595696 1.737712 0.000000 0.000000 0.000000
0.607703 1.620769 1.759521 0.000000 0.000000 0.000000
0.590510 1.622342 1.756856 0.000000 0.000000 0.000000
0.559390 1.620079 1.766013 0.000000 0.000000 0.000000
0.602899 1.653398 1.788682 0.000000 0.000000 0.000000
0.642107 1.632007 1.832735 0.000000 0.000000 0.000000
0.642903 1.598466 1.747877 0.000000 0.000000 0.000000
0.669029 1.601148 1.803070 0.000000 0.000000 0.000000
0.632299 1.679566 1.775300 0.000000 0.000000 0.000000
0.624276 1.588319 1.734523 0.000000 0.000000 0.000000
0.645737 1.587317 1.747196 0.000000 0.000000 0.000000
0.649344 1.610538 1.766476 0.000000 0.000000 0.000000
0.587195 1.732657 1.736407 0.000000 0.000000 0.000000
0.632411 1.593500 1.738062 0.000000 0.000000 0.000000
0.566097 1.631411 1.775934 0.000000 0.000000 0.000000
0.607970 1.624479 1.763099 0.000000 0.000000 0.000000
0.618345 1.613053 1.751431 0.000000 0.000000 0.000000
0.578658 1.622585 1.760521 0.000000 0.000000 0.000000
0.623945 1.632142 1.771561 0.000000 0.000000 0.000000
0.641568 1.693768 1.770194 0.000000 0.000000 0.000000
0.591410 1.631463 1.766340 0.000000 0.000000 0.000000
0.603714 1.723671 1.743606 0.000000 0.000000 0.000000
0.668968 1.599725 1.795681 0.000000 0.000000 0.000000
0.658555 1.698889 1.774756 0.000000 0.000000 0.000000
0.634693 1.715064 1.742571 0.000000 0.000000 0.000000
0.632908 1.635802 1.833841 0.000000 0.000000 0.000000
0.542097 1.671063 1.836824 0.000000 0.000000 0.000000
0.566545 1.551557 1.703710 0.000000 0.000000 0.000000
0.643155 1.662637 1.843143 0.000000 0.000000 0.000000
0.643539 1.629919 1.837769 0.000000 0.000000 0.000000
0.634619 1.657422 1.811303 0.000000 0.000000 0.000000
0.628426 1.638060 1.845388 0.000000 0.000000 0.000000
0.490249 1.608408 1.810250 0.000000 0.000000 0.000000
0.649180 1.623797 1.819338 0.000000 0.000000 0.000000
0.631864 1.639587 1.817405 0.000000 0.000000 0.000000
0.578746 1.554161 1.705625 0.000000 0.000000 0.000000
0.647268 1.667225 1.831975 0.000000 0.000000 0.000000
0.634581 1.612553 1.756770 0.000000 0.000000 0.000000
0.553830 1.555349 1.711344 0.000000 0.000000 0.000000
0.656748 1.598927 1.755239 0.000000 0.000000 0.000000
0.644326 1.613514 1.771966 0.000000 0.000000 0.000000
0.629521 1.616378 1.755810 0.000000 0.000000 0.000000
0.645507 1.607631 1.757192 0.000000 0.000000 0.000000
0.502414 1.601809 1.797128 0.000000 0.000000 0.000000
0.501938 1.605905 1.804424 0.000000 0.000000 0.000000
0.634502 1.624110 1.774918 0.000000 0.000000 0.000000
0.646912 1.716619 1.733834 0.000000 0.000000 0.000000
0.599197 1.700610 1.756709 0.000000 0.000000 0.000000
0.609465 1.612502 1.749462 0.000000 0.000000 0.000000
0.523671 1.728749 1.780709 0.000000 0.000000 0.000000
0.679003 1.589069 1.777628 0.000000 0.000000 0.000000
0.651345 1.599409 1.751865 0.000000 0.000000 0.000000
0.619425 1.716246 1.751133 0.000000 0.000000 0.000000
0.644527 1.615776 1.772430 0.000000 0.000000 0.000000
0.500992 1.580393 1.761023 0.000000 0.000000 0.000000
0.636830 1.600173 1.743705 0.000000 0.000000 0.000000
0.665510 1.599056 1.770227 0.000000 0.000000 0.000000
0.496752 1.599043 1.791331 0.000000 0.000000 0.000000
0.545275 1.729129 1.764920 0.000000 0.000000 0.000000
0.541166 1.552067 1.714411 0.000000 0.000000 0.000000
0.672052 1.590278 1.771642 0.000000 0.000000 0.000000
0.493121 1.610116 1.812714 0.000000 0.000000 0.000000
0.518859 1.567003 1.735073 0.000000 0.000000 0.000000
0.489623 1.600055 1.792486 0.000000 0.000000 0.000000
0.668516 1.601955 1.812303 0.000000 0.000000 0.000000
0.667758 1.690761 1.814019 0.000000 0.000000 0.000000
0.650225 1.674413 1.818056 0.000000 0.000000 0.000000
0.510051 1.570597 1.744440 0.000000 0.000000 0.000000
0.682838 1.702188 1.793229 0.000000 0.000000 0.000000
0.655676 1.617049 1.830377 0.000000 0.000000 0.000000
0.515583 1.566282 1.736905 0.000000 0.000000 0.000000
0.513089 1.708030 1.818506 0.000000 0.000000 0.000000
0.511457 1.577305 1.753104 0.000000 0.000000 0.000000
0.512105 1.720076 1.807887 0.000000 0.000000 0.000000
0.525187 1.678548 1.857569 0.000000 0.000000 0.000000
0.518534 1.707746 1.814189 0.000000 0.000000 0.000000
0.601270 1.647995 1.794847 0.000000 0.000000 0.000000
0.493860 1.620104 1.831648 0.000000 0.000000 0.000000
0.515218 1.699670 1.836788 0.000000 0.000000 0.000000
0.499360 1.614254 1.817578 0.000000 0.000000 0.000000
0.606612 1.695300 1.783118 0.000000 0.000000 0.000000
0.511184 1.724685 1.802714 0.000000 0.000000 0.000000
0.516519 1.722755 1.795613 0.000000 0.000000 0.000000
0.584979 1.702284 1.782975 0.000000 0.000000 0.000000
0.517492 1.720512 1.807835 0.000000 0.000000 0.000000
0.534818 1.677255 1.843510 0.000000 0.000000 0.000000
0.514830 1.698595 1.831763 0.000000 0.000000 0.000000
0.532563 1.701129 1.827670 0.000000 0.000000 0.000000
0.502267 1.621275 1.830742 0.000000 0.000000 0.000000
0.640291 1.685562 1.814438 0.000000 0.000000 0.000000
0.511732 1.719958 1.800613 0.000000 0.000000 0.000000
0.520740 1.719501 1.793234 0.000000 0.000000 0.000000
0.684276 1.601151 1.788175 0.000000 0.000000 0.000000
0.497458 1.625956 1.834886 0.000000 0.000000 0.000000
0.533412 1.716110 1.794744 0.000000 0.000000 0.000000
0.533174 1.556918 1.714574 0.000000 0.000000 0.000000
0.537155 1.555110 1.713803 0.000000 0.000000 0.000000
0.543944 1.552881 1.707828 0.000000 0.000000 0.000000
0.632149 1.571837 1.715817 0.000000 0.000000 0.000000
0.535681 1.574178 1.746724 0.000000 0.000000 0.000000
0.542225 1.553786 1.711308 0.000000 0.000000 0.000000
0.545510 1.554453 1.713574 0.000000 0.000000 0.000000
0.606090 1.731020 1.733017 0.000000 0.000000 0.000000
0.628865 1.722893 1.724741 0.000000 0.000000 0.000000
0.643254 1.715591 1.749580 0.000000 0.000000 0.000000
0.575822 1.551751 1.704344 0.000000 0.000000 0.000000
0.617472 1.661201 1.784416 0.000000 0.000000 0.000000
0.635760 1.719706 1.735617 0.000000 0.000000 0.000000
0.606631 1.635074 1.810396 0.000000 0.000000 0.000000
0.620187 1.627076 1.781775 0.000000 0.000000 0.000000
0.609965 1.729150 1.726637 0.000000 0.000000 0.000000
0.663220 1.603584 1.791625 0.000000 0.000000 0.000000
0.633224 1.707864 1.744229 0.000000 0.000000 0.000000
0.510240 1.573065 1.748266 0.000000 0.000000 0.000000
0.615945 1.562034 1.710590 0.000000 0.000000 0.000000
0.591697 1.733592 1.754250 0.000000 0.000000 0.000000
0.499862 1.578091 1.755157 0.000000 0.000000 0.000000
0.618683 1.644273 1.827695 0.000000 0.000000 0.000000
0.619524 1.723322 1.727123 0.000000 0.000000 0.000000
0.545156 1.550501 1.706537 0.000000 0.000000 0.000000
0.549261 1.734466 1.766119 0.000000 0.000000 0.000000
0.669074 1.600861 1.799974 0.000000 0.000000 0.000000
0.619729 1.565449 1.712184 0.000000 0.000000 0.000000
0.627385 1.682437 1.796002 0.000000 0.000000 0.000000
0.567670 1.729012 1.778866 0.000000 0.000000 0.000000
0.674031 1.588071 1.774636 0.000000 0.000000 0.000000
0.510944 1.638134 1.846380 0.000000 0.000000 0.000000
0.635532 1.634387 1.827005 0.000000 0.000000 0.000000
0.624988 1.571571 1.716256 0.000000 0.000000 0.000000
0.535694 1.562873 1.726420 0.000000 0.000000 0.000000
0.623491 1.627340 1.762940 0.000000 0.000000 0.000000
0.619723 1.720388 1.736736 0.000000 0.000000 0.000000
0.489760 1.586965 1.767227 0.000000 0.000000 0.000000
0.592943 1.600810 1.740552 0.000000 0.000000 0.000000
0.530267 1.553531 1.712247 0.000000 0.000000 0.000000
0.629491 1.719832 1.727892 0.000000 0.000000 0.000000
0.502780 1.635953 1.845204 0.000000 0.000000 0.000000
0.596026 1.558325 1.708477 0.000000 0.000000 0.000000
0.653901 1.613344 1.829443 0.000000 0.000000 0.000000
0.507249 1.590514 1.776513 0.000000 0.000000 0.000000
0.502485 1.633949 1.843674 0.000000 0.000000 0.000000
0.565819 1.556159 1.710338 0.000000 0.000000 0.000000
0.515042 1.643041 1.846534 0.000000 0.000000 0.000000
0.523354 1.646288 1.849540 0.000000 0.000000 0.000000
0.584414 1.558543 1.708838 0.000000 0.000000 0.000000
0.502796 1.592698 1.780556 0.000000 0.000000 0.000000
0.584458 1.554215 1.702704 0.000000 0.000000 0.000000
0.573621 1.553180 1.707819 0.000000 0.000000 0.000000
0.578789 1.551811 1.704603 0.000000 0.000000 0.000000
0.507956 1.624834 1.831328 0.000000 0.000000 0.000000
0.569837 1.554177 1.707335 0.000000 0.000000 0.000000
0.508252 1.629643 1.837899 0.000000 0.000000 0.000000
0.501401 1.626182 1.834837 0.000000 0.000000 0.000000
0.567926 1.559100 1.712250 0.000000 0.000000 0.000000
0.512884 1.638898 1.846674 0.000000 0.000000 0.000000
0.589680 1.551919 1.703029 0.000000 0.000000 0.000000
0.573851 1.550162 1.702722 0.000000 0.000000 0.000000
0.553141 1.553694 1.709970 0.000000 0.000000 0.000000
0.512515 1.632510 1.840529 0.000000 0.000000 0.000000
0.573694 1.552059 1.705417 0.000000 0.000000 0.000000
0.592648 1.552359 1.704125 0.000000 0.000000 0.000000
0.683410 1.597171 1.798279 0.000000 0.000000 0.000000
0.522178 1.652094 1.859897 0.000000 0.000000 0.000000
0.527240 1.739563 1.762706 0.000000 0.000000 0.000000
0.500112 1.625563 1.834739 0.000000 0.000000 0.000000
0.532419 1.665576 1.853169 0.000000 0.000000 0.000000
0.498895 1.622763 1.832610 0.000000 0.000000 0.000000
0.493745 1.603110 1.801132 0.000000 0.000000 0.000000
0.670395 1.601151 1.807925 0.000000 0.000000 0.000000
0.675519 1.595413 1.795027 0.000000 0.000000 0.000000
0.658097 1.705826 1.752461 0.000000 0.000000 0.000000
0.647421 1.708935 1.750041 0.000000 0.000000 0.000000
0.659881 1.604084 1.774100 0.000000 0.000000 0.000000
0.630366 1.644803 1.849816 0.000000 0.000000 0.000000
0.662074 1.590439 1.761975 0.000000 0.000000 0.000000
0.661714 1.709764 1.755698 0.000000 0.000000 0.000000
0.660903 1.584601 1.751151 0.000000 0.000000 0.000000
0.494448 1.617162 1.827717 0.000000 0.000000 0.000000
0.664805 1.585519 1.745715 0.000000 0.000000 0.000000
0.654794 1.593267 1.750100 0.000000 0.000000 0.000000
0.666543 1.587447 1.754572 0.000000 0.000000 0.000000
0.492284 1.620545 1.826798 0.000000 0.000000 0.000000
0.652300 1.587137 1.738813 0.000000 0.000000 0.000000
0.656400 1.589404 1.745080 0.000000 0.000000 0.000000
0.633564 1.639627 1.819401 0.000000 0.000000 0.000000
0.635308 1.649571 1.816606 0.000000 0.000000 0.000000
0.664673 1.582476 1.752401 0.000000 0.000000 0.000000
0.612651 1.724796 1.732971 0.000000 0.000000 0.000000
0.613181 1.725770 1.739404 0.000000 0.000000 0.000000
0.534421 1.563701 1.732571 0.000000 0.000000 0.000000
0.541411 1.557910 1.716408 0.000000 0.000000 0.000000
0.615859 1.725840 1.726146 0.000000 0.000000 0.000000
0.608608 1.730307 1.741962 0.000000 0.000000 0.000000
0.539119 1.558470 1.719572 0.000000 0.000000 0.000000
0.550965 1.553121 1.709828 0.000000 0.000000 0.000000
0.511137 1.724184 1.794088 0.000000 0.000000 0.000000
0.670654 1.597478 1.788260 0.000000 0.000000 0.000000
0.678293 1.597216 1.801552 0.000000 0.000000 0.000000
0.593676 1.734708 1.737997 0.000000 0.000000 0.000000
0.654247 1.622885 1.840255 0.000000 0.000000 0.000000
0.505425 1.571962 1.743683 0.000000 0.000000 0.000000
0.653616 1.611876 1.827151 0.000000 0.000000 0.000000
0.505838 1.698979 1.837245 0.000000 0.000000 0.000000
0.667664 1.696888 1.818521 0.000000 0.000000 0.000000
0.647081 1.631479 1.840197 0.000000 0.000000 0.000000
0.679829 1.596691 1.802097 0.000000 0.000000 0.000000
0.597439 1.733587 1.725013 0.000000 0.000000 0.000000
0.566156 1.646137 1.791276 0.000000 0.000000 0.000000
0.615021 1.643869 1.787570 0.000000 0.000000 0.000000
0.610136 1.645527 1.781122 0.000000 0.000000 0.000000
0.601204 1.638607 1.774843 0.000000 0.000000 0.000000
0.621438 1.652178 1.794591 0.000000 0.000000 0.000000
0.643798 1.668965 1.801367 0.000000 0.000000 0.000000
0.640873 1.718066 1.730839 0.000000 0.000000 0.000000
0.581754 1.645268 1.783616 0.000000 0.000000 0.000000
0.599550 1.644903 1.778095 0.000000 0.000000 0.000000
0.624571 1.634908 1.782634 0.000000 0.000000 0.000000
0.571961 1.630235 1.777183 0.000000 0.000000 0.000000
0.629119 1.655276 1.792975 0.000000 0.000000 0.000000
0.645237 1.666332 1.810562 0.000000 0.000000 0.000000
0.589796 1.733121 1.728850 0.000000 0.000000 0.000000
0.655436 1.584727 1.746930 0.000000 0.000000 0.000000
0.652985 1.693701 1.772328 0.000000 0.000000 0.000000
0.572631 1.699258 1.763376 0.000000 0.000000 0.000000
0.639244 1.635650 1.854995 0.000000 0.000000 0.000000
0.585563 1.689090 1.772053 0.000000 0.000000 0.000000
0.623049 1.648779 1.850917 0.000000 0.000000 0.000000
0.657964 1.705926 1.758638 0.000000 0.000000 0.000000
0.583130 1.677903 1.778659 0.000000 0.000000 0.000000
0.561346 1.713274 1.784226 0.000000 0.000000 0.000000
0.641561 1.636898 1.846982 0.000000 0.000000 0.000000
0.649633 1.617048 1.816866 0.000000 0.000000 0.000000
0.673283 1.592349 1.786708 0.000000 0.000000 0.000000
0.647606 1.687493 1.776917 0.000000 0.000000 0.000000
0.560226 1.688394 1.781083 0.000000 0.000000 0.000000
0.661514 1.702906 1.768040 0.000000 0.000000 0.000000
0.636633 1.643717 1.851057 0.000000 0.000000 0.000000
0.583471 1.683619 1.766092 0.000000 0.000000 0.000000
0.626893 1.636581 1.848336 0.000000 0.000000 0.000000
0.649643 1.711529 1.743322 0.000000 0.000000 0.000000
0.593750 1.686628 1.767096 0.000000 0.000000 0.000000
0.625484 1.723203 1.725762 0.000000 0.000000 0.000000
0.624158 1.637403 1.845749 0.000000 0.000000 0.000000
0.629984 1.631138 1.850010 0.000000 0.000000 0.000000
0.517825 1.560504 1.726659 0.000000 0.000000 0.000000
0.624646 1.651074 1.857139 0.000000 0.000000 0.000000
0.673609 1.599266 1.811201 0.000000 0.000000 0.000000
0.500823 1.633711 1.843243 0.000000 0.000000 0.000000
0.493410 1.619223 1.830351 0.000000 0.000000 0.000000
0.577823 1.736701 1.734537 0.000000 0.000000 0.000000
0.570532 1.739578 1.734773 0.000000 0.000000 0.000000
0.674663 1.600277 1.822580 0.000000 0.000000 0.000000
0.574738 1.735218 1.737203 0.000000 0.000000 0.000000
0.662732 1.583992 1.749302 0.000000 0.000000 0.000000
0.518916 1.725689 1.788901 0.000000 0.000000 0.000000
0.490773 1.591763 1.777457 0.000000 0.000000 0.000000
0.490140 1.608577 1.808299 0.000000 0.000000 0.000000
0.496598 1.590159 1.777829 0.000000 0.000000 0.000000
