ply
format ascii 1.0
comment VCGLIB generated
obj_info Generated by SPFormer!
element vertex 298
property float x
property float y
property float z
property float nx
property float ny
property float nz
end_header
1.237195 1.321484 1.136015 0.000000 0.000000 0.000000
1.228805 1.321878 1.135220 0.000000 0.000000 0.000000
1.230154 1.295683 1.159965 0.000000 0.000000 0.000000
1.221411 1.343199 1.138575 0.000000 0.000000 0.000000
1.234173 1.320135 1.125999 0.000000 0.000000 0.000000
1.234069 1.323494 1.128741 0.000000 0.000000 0.000000
1.242765 1.323587 1.120462 0.000000 0.000000 0.000000
1.242853 1.321048 1.128437 0.000000 0.000000 0.000000
1.222991 1.345914 1.132385 0.000000 0.000000 0.000000
1.217801 1.320179 1.141168 0.000000 0.000000 0.000000
1.221195 1.338688 1.143428 0.000000 0.000000 0.000000
1.220289 1.347287 1.129131 0.000000 0.000000 0.000000
1.231901 1.312639 1.131341 0.000000 0.000000 0.000000
1.227315 1.302897 1.141487 0.000000 0.000000 0.000000
1.220724 1.325268 1.134452 0.000000 0.000000 0.000000
1.245907 1.326365 1.124607 0.000000 0.000000 0.000000
1.238816 1.323657 1.121671 0.000000 0.000000 0.000000
1.221704 1.315679 1.138928 0.000000 0.000000 0.000000
1.218544 1.319242 1.134256 0.000000 0.000000 0.000000
1.217793 1.336179 1.137463 0.000000 0.000000 0.000000
1.240613 1.289127 1.145975 0.000000 0.000000 0.000000
1.223855 1.314708 1.134729 0.000000 0.000000 0.000000
1.230800 1.322816 1.139380 0.000000 0.000000 0.000000
1.224213 1.336007 1.133100 0.000000 0.000000 0.000000
1.227089 1.282692 1.152356 0.000000 0.000000 0.000000
1.241640 1.319577 1.121218 0.000000 0.000000 0.000000
1.226310 1.314527 1.141228 0.000000 0.000000 0.000000
1.220182 1.316950 1.137689 0.000000 0.000000 0.000000
1.222794 1.339960 1.133724 0.000000 0.000000 0.000000
1.222733 1.288419 1.159188 0.000000 0.000000 0.000000
1.239192 1.325795 1.122075 0.000000 0.000000 0.000000
1.246493 1.327161 1.135777 0.000000 0.000000 0.000000
1.232651 1.284794 1.147376 0.000000 0.000000 0.000000
1.219774 1.320830 1.137070 0.000000 0.000000 0.000000
1.220634 1.351703 1.135088 0.000000 0.000000 0.000000
1.237860 1.305561 1.140400 0.000000 0.000000 0.000000
1.234444 1.281052 1.129594 0.000000 0.000000 0.000000
1.231944 1.281692 1.142820 0.000000 0.000000 0.000000
1.219696 1.335710 1.136568 0.000000 0.000000 0.000000
1.247983 1.316506 1.115760 0.000000 0.000000 0.000000
1.245479 1.326591 1.125732 0.000000 0.000000 0.000000
1.218256 1.348146 1.146386 0.000000 0.000000 0.000000
1.241829 1.325600 1.134422 0.000000 0.000000 0.000000
1.242642 1.315644 1.138473 0.000000 0.000000 0.000000
1.218733 1.346640 1.138133 0.000000 0.000000 0.000000
1.239125 1.318306 1.125861 0.000000 0.000000 0.000000
1.215589 1.349524 1.137403 0.000000 0.000000 0.000000
1.219203 1.342958 1.139382 0.000000 0.000000 0.000000
1.248130 1.280978 1.157586 0.000000 0.000000 0.000000
1.241936 1.320487 1.125863 0.000000 0.000000 0.000000
1.230813 1.311086 1.144801 0.000000 0.000000 0.000000
1.248063 1.321591 1.120692 0.000000 0.000000 0.000000
1.236426 1.323378 1.134622 0.000000 0.000000 0.000000
1.244151 1.318191 1.118803 0.000000 0.000000 0.000000
1.249719 1.320226 1.128085 0.000000 0.000000 0.000000
1.245587 1.323314 1.137510 0.000000 0.000000 0.000000
1.220176 1.343071 1.138916 0.000000 0.000000 0.000000
1.218245 1.334799 1.131511 0.000000 0.000000 0.000000
1.222929 1.281016 1.134580 0.000000 0.000000 0.000000
1.245745 1.317601 1.121676 0.000000 0.000000 0.000000
1.237124 1.319739 1.128060 0.000000 0.000000 0.000000
1.251235 1.319839 1.132249 0.000000 0.000000 0.000000
1.245044 1.323325 1.131147 0.000000 0.000000 0.000000
1.232669 1.310928 1.145124 0.000000 0.000000 0.000000
1.235487 1.315085 1.128754 0.000000 0.000000 0.000000
1.240530 1.321835 1.120891 0.000000 0.000000 0.000000
1.254548 1.321704 1.128340 0.000000 0.000000 0.000000
1.246739 1.329252 1.123093 0.000000 0.000000 0.000000
1.224462 1.319079 1.145023 0.000000 0.000000 0.000000
1.244306 1.316842 1.115422 0.000000 0.000000 0.000000
1.218666 1.318001 1.139188 0.000000 0.000000 0.000000
1.253251 1.320982 1.124335 0.000000 0.000000 0.000000
1.221090 1.341792 1.136262 0.000000 0.000000 0.000000
1.224168 1.343630 1.139977 0.000000 0.000000 0.000000
1.242215 1.324867 1.126952 0.000000 0.000000 0.000000
1.255687 1.319749 1.123267 0.000000 0.000000 0.000000
1.220873 1.340188 1.143270 0.000000 0.000000 0.000000
1.222002 1.339525 1.142369 0.000000 0.000000 0.000000
1.246337 1.325463 1.131205 0.000000 0.000000 0.000000
1.250373 1.317057 1.116840 0.000000 0.000000 0.000000
1.222939 1.318927 1.135517 0.000000 0.000000 0.000000
1.244792 1.318772 1.123398 0.000000 0.000000 0.000000
1.230502 1.317019 1.143157 0.000000 0.000000 0.000000
1.238284 1.327043 1.127556 0.000000 0.000000 0.000000
1.249576 1.317737 1.118363 0.000000 0.000000 0.000000
1.215655 1.322014 1.135716 0.000000 0.000000 0.000000
1.221009 1.325275 1.141988 0.000000 0.000000 0.000000
1.222215 1.339095 1.142550 0.000000 0.000000 0.000000
1.222438 1.325521 1.135743 0.000000 0.000000 0.000000
1.224340 1.340596 1.133161 0.000000 0.000000 0.000000
1.258466 1.321053 1.118773 0.000000 0.000000 0.000000
1.220388 1.335940 1.143462 0.000000 0.000000 0.000000
1.221380 1.343153 1.133483 0.000000 0.000000 0.000000
1.253916 1.323871 1.132644 0.000000 0.000000 0.000000
1.227049 1.321856 1.141133 0.000000 0.000000 0.000000
1.216836 1.334534 1.136077 0.000000 0.000000 0.000000
1.245715 1.324139 1.123214 0.000000 0.000000 0.000000
1.254094 1.323260 1.129219 0.000000 0.000000 0.000000
1.238008 1.295528 1.152138 0.000000 0.000000 0.000000
1.219271 1.336196 1.133876 0.000000 0.000000 0.000000
1.250387 1.319828 1.124889 0.000000 0.000000 0.000000
1.232011 1.290982 1.143280 0.000000 0.000000 0.000000
1.230726 1.315829 1.122350 0.000000 0.000000 0.000000
1.254994 1.320872 1.124499 0.000000 0.000000 0.000000
1.248016 1.323277 1.126409 0.000000 0.000000 0.000000
1.223152 1.342505 1.134303 0.000000 0.000000 0.000000
1.220488 1.312413 1.137223 0.000000 0.000000 0.000000
1.224141 1.313481 1.136309 0.000000 0.000000 0.000000
1.218954 1.341309 1.143312 0.000000 0.000000 0.000000
1.216729 1.334931 1.133523 0.000000 0.000000 0.000000
1.215271 1.333612 1.136134 0.000000 0.000000 0.000000
1.219577 1.321335 1.141471 0.000000 0.000000 0.000000
1.219341 1.337713 1.134096 0.000000 0.000000 0.000000
1.229536 1.304534 1.136485 0.000000 0.000000 0.000000
1.225111 1.318273 1.140962 0.000000 0.000000 0.000000
1.212141 1.335464 1.139236 0.000000 0.000000 0.000000
1.219766 1.322410 1.134500 0.000000 0.000000 0.000000
1.231163 1.318162 1.140514 0.000000 0.000000 0.000000
1.225547 1.317612 1.143880 0.000000 0.000000 0.000000
1.220384 1.316923 1.140491 0.000000 0.000000 0.000000
1.215172 1.330305 1.138720 0.000000 0.000000 0.000000
1.244611 1.316772 1.118085 0.000000 0.000000 0.000000
1.255932 1.319607 1.118913 0.000000 0.000000 0.000000
1.216431 1.332839 1.133913 0.000000 0.000000 0.000000
1.216562 1.319953 1.138248 0.000000 0.000000 0.000000
1.239005 1.318347 1.133401 0.000000 0.000000 0.000000
1.229687 1.323841 1.146380 0.000000 0.000000 0.000000
1.218811 1.332282 1.140145 0.000000 0.000000 0.000000
1.222002 1.341026 1.134218 0.000000 0.000000 0.000000
1.227828 1.340636 1.136024 0.000000 0.000000 0.000000
1.251537 1.323788 1.132266 0.000000 0.000000 0.000000
1.223803 1.306829 1.143460 0.000000 0.000000 0.000000
1.252874 1.322262 1.122925 0.000000 0.000000 0.000000
1.224813 1.339167 1.139521 0.000000 0.000000 0.000000
1.219822 1.341647 1.140287 0.000000 0.000000 0.000000
1.249180 1.317070 1.117372 0.000000 0.000000 0.000000
1.231192 1.319554 1.134772 0.000000 0.000000 0.000000
1.230826 1.315942 1.134464 0.000000 0.000000 0.000000
1.229585 1.311113 1.121805 0.000000 0.000000 0.000000
1.230958 1.323021 1.150386 0.000000 0.000000 0.000000
1.240943 1.318071 1.142111 0.000000 0.000000 0.000000
1.242079 1.323941 1.119128 0.000000 0.000000 0.000000
1.219181 1.327533 1.144360 0.000000 0.000000 0.000000
1.217458 1.331657 1.132883 0.000000 0.000000 0.000000
1.219168 1.326638 1.137213 0.000000 0.000000 0.000000
1.233125 1.290824 1.153463 0.000000 0.000000 0.000000
1.236741 1.298422 1.148815 0.000000 0.000000 0.000000
1.236437 1.314181 1.122118 0.000000 0.000000 0.000000
1.239687 1.317917 1.125847 0.000000 0.000000 0.000000
1.229426 1.311742 1.126669 0.000000 0.000000 0.000000
1.227155 1.337634 1.139911 0.000000 0.000000 0.000000
1.215932 1.344233 1.139014 0.000000 0.000000 0.000000
1.213050 1.338671 1.140947 0.000000 0.000000 0.000000
1.217497 1.329659 1.133260 0.000000 0.000000 0.000000
1.246946 1.317107 1.121994 0.000000 0.000000 0.000000
1.247581 1.316641 1.116407 0.000000 0.000000 0.000000
1.219564 1.341580 1.132121 0.000000 0.000000 0.000000
1.226373 1.339727 1.142092 0.000000 0.000000 0.000000
1.251705 1.322119 1.126518 0.000000 0.000000 0.000000
1.237609 1.321255 1.127786 0.000000 0.000000 0.000000
1.240086 1.316385 1.123050 0.000000 0.000000 0.000000
1.236703 1.326051 1.126569 0.000000 0.000000 0.000000
1.245122 1.316951 1.120572 0.000000 0.000000 0.000000
1.226486 1.344753 1.132372 0.000000 0.000000 0.000000
1.220111 1.319993 1.141839 0.000000 0.000000 0.000000
1.220059 1.320419 1.136379 0.000000 0.000000 0.000000
1.240623 1.317032 1.123692 0.000000 0.000000 0.000000
1.234540 1.316078 1.138514 0.000000 0.000000 0.000000
1.219581 1.344690 1.139309 0.000000 0.000000 0.000000
1.223385 1.333239 1.140738 0.000000 0.000000 0.000000
1.227592 1.333754 1.145511 0.000000 0.000000 0.000000
1.227863 1.327552 1.144550 0.000000 0.000000 0.000000
1.220801 1.344506 1.140245 0.000000 0.000000 0.000000
1.218684 1.330762 1.147956 0.000000 0.000000 0.000000
1.225263 1.336473 1.142131 0.000000 0.000000 0.000000
1.223469 1.282022 1.141910 0.000000 0.000000 0.000000
1.253524 1.314696 1.111171 0.000000 0.000000 0.000000
1.225136 1.282675 1.128628 0.000000 0.000000 0.000000
1.229828 1.284750 1.120172 0.000000 0.000000 0.000000
1.233016 1.316086 1.123707 0.000000 0.000000 0.000000
1.220909 1.328266 1.133438 0.000000 0.000000 0.000000
1.242642 1.323569 1.124607 0.000000 0.000000 0.000000
1.241173 1.321934 1.119564 0.000000 0.000000 0.000000
1.218682 1.342660 1.136640 0.000000 0.000000 0.000000
1.246073 1.323842 1.120865 0.000000 0.000000 0.000000
1.238738 1.326910 1.120535 0.000000 0.000000 0.000000
1.239436 1.318571 1.124423 0.000000 0.000000 0.000000
1.239184 1.321789 1.120476 0.000000 0.000000 0.000000
1.219618 1.338088 1.148447 0.000000 0.000000 0.000000
1.242700 1.323070 1.119009 0.000000 0.000000 0.000000
1.256956 1.316765 1.116210 0.000000 0.000000 0.000000
1.244269 1.325957 1.121789 0.000000 0.000000 0.000000
1.243639 1.323734 1.118380 0.000000 0.000000 0.000000
1.235276 1.285156 1.142469 0.000000 0.000000 0.000000
1.218363 1.341214 1.130720 0.000000 0.000000 0.000000
1.253684 1.317798 1.117699 0.000000 0.000000 0.000000
1.257644 1.320909 1.119684 0.000000 0.000000 0.000000
1.219592 1.338219 1.136235 0.000000 0.000000 0.000000
1.251167 1.321943 1.120042 0.000000 0.000000 0.000000
1.250929 1.318872 1.116565 0.000000 0.000000 0.000000
1.223425 1.306917 1.138125 0.000000 0.000000 0.000000
1.223384 1.309262 1.136691 0.000000 0.000000 0.000000
1.222536 1.281458 1.132193 0.000000 0.000000 0.000000
1.221680 1.344486 1.139077 0.000000 0.000000 0.000000
1.246573 1.315163 1.112942 0.000000 0.000000 0.000000
1.224495 1.308023 1.144670 0.000000 0.000000 0.000000
1.244573 1.311599 1.108006 0.000000 0.000000 0.000000
1.246577 1.325494 1.134136 0.000000 0.000000 0.000000
1.221615 1.323295 1.137540 0.000000 0.000000 0.000000
1.235799 1.311966 1.129166 0.000000 0.000000 0.000000
1.225632 1.311001 1.134428 0.000000 0.000000 0.000000
1.221747 1.345772 1.137288 0.000000 0.000000 0.000000
1.218262 1.325793 1.134937 0.000000 0.000000 0.000000
1.234003 1.311277 1.125513 0.000000 0.000000 0.000000
1.224531 1.308357 1.134519 0.000000 0.000000 0.000000
1.227393 1.330717 1.143824 0.000000 0.000000 0.000000
1.227373 1.307500 1.134531 0.000000 0.000000 0.000000
1.227548 1.312048 1.136825 0.000000 0.000000 0.000000
1.224904 1.329004 1.144397 0.000000 0.000000 0.000000
1.247858 1.315808 1.114547 0.000000 0.000000 0.000000
1.231781 1.307760 1.135145 0.000000 0.000000 0.000000
1.225544 1.308680 1.135610 0.000000 0.000000 0.000000
1.223181 1.315756 1.133770 0.000000 0.000000 0.000000
1.227841 1.306695 1.141450 0.000000 0.000000 0.000000
1.229464 1.292024 1.140947 0.000000 0.000000 0.000000
1.223000 1.330598 1.134151 0.000000 0.000000 0.000000
1.224737 1.315349 1.132744 0.000000 0.000000 0.000000
1.225153 1.330831 1.146724 0.000000 0.000000 0.000000
1.250965 1.317761 1.117234 0.000000 0.000000 0.000000
1.255866 1.323109 1.127548 0.000000 0.000000 0.000000
1.248285 1.317891 1.118551 0.000000 0.000000 0.000000
1.243859 1.314017 1.111996 0.000000 0.000000 0.000000
1.243826 1.315147 1.114325 0.000000 0.000000 0.000000
1.254932 1.317128 1.116829 0.000000 0.000000 0.000000
1.237599 1.310375 1.147660 0.000000 0.000000 0.000000
1.238621 1.302899 1.149317 0.000000 0.000000 0.000000
1.249035 1.316573 1.117025 0.000000 0.000000 0.000000
1.244096 1.314197 1.109197 0.000000 0.000000 0.000000
1.254848 1.314369 1.109702 0.000000 0.000000 0.000000
1.220934 1.332374 1.140736 0.000000 0.000000 0.000000
1.223760 1.322042 1.134182 0.000000 0.000000 0.000000
1.226084 1.315986 1.135070 0.000000 0.000000 0.000000
1.223878 1.319356 1.130305 0.000000 0.000000 0.000000
1.223393 1.324538 1.130796 0.000000 0.000000 0.000000
1.218746 1.340763 1.138069 0.000000 0.000000 0.000000
1.219329 1.283902 1.135271 0.000000 0.000000 0.000000
1.219191 1.345962 1.141040 0.000000 0.000000 0.000000
1.217986 1.324867 1.135015 0.000000 0.000000 0.000000
1.230769 1.302429 1.136293 0.000000 0.000000 0.000000
1.250961 1.316021 1.113601 0.000000 0.000000 0.000000
1.220887 1.321346 1.134514 0.000000 0.000000 0.000000
1.228922 1.294557 1.141245 0.000000 0.000000 0.000000
1.249267 1.316977 1.117209 0.000000 0.000000 0.000000
1.242331 1.318768 1.137482 0.000000 0.000000 0.000000
1.237417 1.316905 1.139134 0.000000 0.000000 0.000000
1.220019 1.313760 1.142005 0.000000 0.000000 0.000000
1.202149 1.280382 1.158848 0.000000 0.000000 0.000000
1.222811 1.313517 1.145303 0.000000 0.000000 0.000000
1.226921 1.303490 1.140705 0.000000 0.000000 0.000000
1.228612 1.306988 1.146397 0.000000 0.000000 0.000000
1.220219 1.300548 1.144599 0.000000 0.000000 0.000000
1.222955 1.309520 1.140168 0.000000 0.000000 0.000000
1.228975 1.306757 1.144235 0.000000 0.000000 0.000000
1.228833 1.310051 1.144319 0.000000 0.000000 0.000000
1.234322 1.308992 1.144766 0.000000 0.000000 0.000000
1.218400 1.316888 1.137530 0.000000 0.000000 0.000000
1.233396 1.315619 1.141117 0.000000 0.000000 0.000000
1.248412 1.317484 1.119466 0.000000 0.000000 0.000000
1.243292 1.314858 1.117150 0.000000 0.000000 0.000000
1.235198 1.311800 1.122637 0.000000 0.000000 0.000000
1.243414 1.280257 1.094378 0.000000 0.000000 0.000000
1.221130 1.344301 1.139950 0.000000 0.000000 0.000000
1.218600 1.337814 1.141863 0.000000 0.000000 0.000000
1.220173 1.336447 1.146226 0.000000 0.000000 0.000000
1.234122 1.310736 1.124928 0.000000 0.000000 0.000000
1.238103 1.313795 1.135427 0.000000 0.000000 0.000000
1.233189 1.320765 1.118757 0.000000 0.000000 0.000000
1.234298 1.311382 1.120267 0.000000 0.000000 0.000000
1.241487 1.314304 1.122344 0.000000 0.000000 0.000000
1.237617 1.311796 1.121400 0.000000 0.000000 0.000000
1.218626 1.323553 1.131526 0.000000 0.000000 0.000000
1.226132 1.326891 1.141454 0.000000 0.000000 0.000000
1.218729 1.335648 1.139269 0.000000 0.000000 0.000000
1.216936 1.322743 1.136036 0.000000 0.000000 0.000000
1.217178 1.325230 1.141571 0.000000 0.000000 0.000000
1.218943 1.335108 1.142030 0.000000 0.000000 0.000000
1.219749 1.319204 1.134241 0.000000 0.000000 0.000000
1.219875 1.321899 1.142751 0.000000 0.000000 0.000000
1.238268 1.311926 1.120142 0.000000 0.000000 0.000000
1.240952 1.312580 1.120459 0.000000 0.000000 0.000000
1.230426 1.317249 1.126802 0.000000 0.000000 0.000000
1.250164 1.316954 1.116519 0.000000 0.000000 0.000000
1.241929 1.313162 1.113981 0.000000 0.000000 0.000000
1.216859 1.338517 1.135232 0.000000 0.000000 0.000000
1.228836 1.323670 1.145684 0.000000 0.000000 0.000000
1.241888 1.322911 1.124123 0.000000 0.000000 0.000000
1.250365 1.314765 1.111150 0.000000 0.000000 0.000000
1.203605 1.280584 1.148849 0.000000 0.000000 0.000000
