ply
format ascii 1.0
comment VCGLIB generated
obj_info Generated by SPFormer!
element vertex 884
property float x
property float y
property float z
property float nx
property float ny
property float nz
end_header
0.205794 1.029728 2.730175 0.000000 0.000000 0.000000
0.265723 0.956979 2.951880 0.000000 0.000000 0.000000
0.256162 0.968731 2.908583 0.000000 0.000000 0.000000
0.239226 0.918213 2.991493 0.000000 0.000000 0.000000
0.129249 0.917873 2.863163 0.000000 0.000000 0.000000
0.103552 0.921838 2.820321 0.000000 0.000000 0.000000
0.153070 0.961409 2.809063 0.000000 0.000000 0.000000
0.266393 0.966892 2.918778 0.000000 0.000000 0.000000
0.260911 0.914441 3.015954 0.000000 0.000000 0.000000
0.267250 0.997591 2.853723 0.000000 0.000000 0.000000
0.187367 0.978609 2.832880 0.000000 0.000000 0.000000
0.171488 0.967056 2.829484 0.000000 0.000000 0.000000
0.106307 0.947739 2.788243 0.000000 0.000000 0.000000
0.146876 0.945033 2.832124 0.000000 0.000000 0.000000
0.169726 0.921035 2.903326 0.000000 0.000000 0.000000
0.115593 0.953334 2.783644 0.000000 0.000000 0.000000
0.180507 0.898605 2.947887 0.000000 0.000000 0.000000
0.290887 0.908728 3.036400 0.000000 0.000000 0.000000
0.190110 0.924410 2.918933 0.000000 0.000000 0.000000
0.313525 0.936731 3.011004 0.000000 0.000000 0.000000
0.108076 0.910003 2.847599 0.000000 0.000000 0.000000
0.185379 0.985075 2.820276 0.000000 0.000000 0.000000
0.229692 0.935733 2.955550 0.000000 0.000000 0.000000
0.244025 0.985425 2.847533 0.000000 0.000000 0.000000
0.265981 0.907631 3.020346 0.000000 0.000000 0.000000
0.250791 0.896514 3.011914 0.000000 0.000000 0.000000
0.171016 0.947992 2.860129 0.000000 0.000000 0.000000
0.153500 0.967328 2.797872 0.000000 0.000000 0.000000
0.305433 0.973147 2.936208 0.000000 0.000000 0.000000
0.176732 0.889616 2.960838 0.000000 0.000000 0.000000
0.251367 0.909262 3.014754 0.000000 0.000000 0.000000
0.284329 0.976315 2.910523 0.000000 0.000000 0.000000
0.204594 0.874384 2.994445 0.000000 0.000000 0.000000
0.140693 0.940252 2.832667 0.000000 0.000000 0.000000
0.146306 0.952909 2.832743 0.000000 0.000000 0.000000
0.118077 0.932492 2.821164 0.000000 0.000000 0.000000
0.196288 0.981676 2.831743 0.000000 0.000000 0.000000
0.266590 0.929996 3.004306 0.000000 0.000000 0.000000
0.232626 1.008603 2.791675 0.000000 0.000000 0.000000
0.111935 0.936603 2.801021 0.000000 0.000000 0.000000
0.137105 0.968143 2.783051 0.000000 0.000000 0.000000
0.158106 0.954581 2.830620 0.000000 0.000000 0.000000
0.161388 0.934291 2.875287 0.000000 0.000000 0.000000
0.282217 0.942843 2.988562 0.000000 0.000000 0.000000
0.256689 0.933909 2.986342 0.000000 0.000000 0.000000
0.282485 0.986503 2.866777 0.000000 0.000000 0.000000
0.226226 0.940909 2.946810 0.000000 0.000000 0.000000
0.208442 1.004914 2.792295 0.000000 0.000000 0.000000
0.122820 0.942734 2.803595 0.000000 0.000000 0.000000
0.175890 0.915830 2.913408 0.000000 0.000000 0.000000
0.302408 0.916347 3.032222 0.000000 0.000000 0.000000
0.242104 0.894864 3.013584 0.000000 0.000000 0.000000
0.178491 0.914514 2.920960 0.000000 0.000000 0.000000
0.089312 0.949339 2.775594 0.000000 0.000000 0.000000
0.198172 0.896296 2.978614 0.000000 0.000000 0.000000
0.114792 0.907848 2.853153 0.000000 0.000000 0.000000
0.163206 0.892596 2.935321 0.000000 0.000000 0.000000
0.184021 0.957104 2.860352 0.000000 0.000000 0.000000
0.188870 0.904023 2.950169 0.000000 0.000000 0.000000
0.188030 0.896505 2.965894 0.000000 0.000000 0.000000
0.249966 0.888259 3.021818 0.000000 0.000000 0.000000
0.104398 0.910172 2.838249 0.000000 0.000000 0.000000
0.281021 0.970310 2.921319 0.000000 0.000000 0.000000
0.290453 0.908915 3.035519 0.000000 0.000000 0.000000
0.153179 0.898887 2.917733 0.000000 0.000000 0.000000
0.257624 0.881753 3.036787 0.000000 0.000000 0.000000
0.294827 0.916685 3.030746 0.000000 0.000000 0.000000
0.215681 0.961460 2.886303 0.000000 0.000000 0.000000
0.093192 0.927837 2.817188 0.000000 0.000000 0.000000
0.169623 0.950755 2.845085 0.000000 0.000000 0.000000
0.224684 0.878689 2.997565 0.000000 0.000000 0.000000
0.268082 0.885251 3.044650 0.000000 0.000000 0.000000
0.221921 0.947274 2.937289 0.000000 0.000000 0.000000
0.239602 0.868556 3.013901 0.000000 0.000000 0.000000
0.196893 0.961968 2.868233 0.000000 0.000000 0.000000
0.141390 0.949596 2.809924 0.000000 0.000000 0.000000
0.213883 0.944279 2.931266 0.000000 0.000000 0.000000
0.314997 0.934338 3.014230 0.000000 0.000000 0.000000
0.182739 0.941619 2.876722 0.000000 0.000000 0.000000
0.210656 1.043136 2.712039 0.000000 0.000000 0.000000
0.104078 0.971622 2.757089 0.000000 0.000000 0.000000
0.175507 0.905357 2.935627 0.000000 0.000000 0.000000
0.223191 1.040314 2.716783 0.000000 0.000000 0.000000
0.317484 0.966566 2.958925 0.000000 0.000000 0.000000
0.307500 0.966439 2.957944 0.000000 0.000000 0.000000
0.252647 1.042881 2.713355 0.000000 0.000000 0.000000
0.306379 0.954469 2.985690 0.000000 0.000000 0.000000
0.350413 1.009271 2.838953 0.000000 0.000000 0.000000
0.292630 1.022604 2.751715 0.000000 0.000000 0.000000
0.162957 1.034042 2.718579 0.000000 0.000000 0.000000
0.242884 0.964987 2.916803 0.000000 0.000000 0.000000
0.109774 0.958432 2.797666 0.000000 0.000000 0.000000
0.186399 0.966725 2.841442 0.000000 0.000000 0.000000
0.177446 0.933868 2.889170 0.000000 0.000000 0.000000
0.257285 0.978173 2.874943 0.000000 0.000000 0.000000
0.241606 0.944642 2.953634 0.000000 0.000000 0.000000
0.129861 0.935974 2.827855 0.000000 0.000000 0.000000
0.219436 0.993759 2.806381 0.000000 0.000000 0.000000
0.188276 0.927391 2.919921 0.000000 0.000000 0.000000
0.136288 0.934801 2.842204 0.000000 0.000000 0.000000
0.199002 0.932922 2.916599 0.000000 0.000000 0.000000
0.155509 1.004030 2.740102 0.000000 0.000000 0.000000
0.259137 0.960198 2.934797 0.000000 0.000000 0.000000
0.147456 0.890129 2.919446 0.000000 0.000000 0.000000
0.249907 0.893453 3.013005 0.000000 0.000000 0.000000
0.234787 0.991540 2.838143 0.000000 0.000000 0.000000
0.265050 0.930888 2.997382 0.000000 0.000000 0.000000
0.185442 0.993240 2.769024 0.000000 0.000000 0.000000
0.230742 0.933475 2.963688 0.000000 0.000000 0.000000
0.272091 0.914856 3.021950 0.000000 0.000000 0.000000
0.257213 0.965502 2.919608 0.000000 0.000000 0.000000
0.100745 0.950177 2.774500 0.000000 0.000000 0.000000
0.241503 0.970769 2.891277 0.000000 0.000000 0.000000
0.142031 0.917351 2.874587 0.000000 0.000000 0.000000
0.123856 0.946371 2.796193 0.000000 0.000000 0.000000
0.127074 0.965624 2.785474 0.000000 0.000000 0.000000
0.266171 0.964886 2.939245 0.000000 0.000000 0.000000
0.263159 0.892501 3.031184 0.000000 0.000000 0.000000
0.263012 0.922312 3.009935 0.000000 0.000000 0.000000
0.162477 0.947569 2.854318 0.000000 0.000000 0.000000
0.285702 0.905695 3.037502 0.000000 0.000000 0.000000
0.249863 0.929096 2.986491 0.000000 0.000000 0.000000
0.216874 0.930257 2.948106 0.000000 0.000000 0.000000
0.090766 0.930367 2.799804 0.000000 0.000000 0.000000
0.261912 1.025918 2.745470 0.000000 0.000000 0.000000
0.159436 0.911832 2.901864 0.000000 0.000000 0.000000
0.233868 0.921025 2.980367 0.000000 0.000000 0.000000
0.180531 0.913587 2.926509 0.000000 0.000000 0.000000
0.282425 0.908199 3.036910 0.000000 0.000000 0.000000
0.188245 0.909629 2.939473 0.000000 0.000000 0.000000
0.290927 0.965111 2.948547 0.000000 0.000000 0.000000
0.267609 0.882528 3.050613 0.000000 0.000000 0.000000
0.235626 0.949637 2.944616 0.000000 0.000000 0.000000
0.244997 0.904225 3.007306 0.000000 0.000000 0.000000
0.161558 1.017062 2.740974 0.000000 0.000000 0.000000
0.251523 0.874711 3.024742 0.000000 0.000000 0.000000
0.191943 0.951316 2.875041 0.000000 0.000000 0.000000
0.294567 0.964067 2.953601 0.000000 0.000000 0.000000
0.239364 0.900280 3.002803 0.000000 0.000000 0.000000
0.254710 0.891820 3.022085 0.000000 0.000000 0.000000
0.266350 0.978810 2.892077 0.000000 0.000000 0.000000
0.216862 0.876597 2.997424 0.000000 0.000000 0.000000
0.243063 1.013267 2.779732 0.000000 0.000000 0.000000
0.167343 0.965092 2.827727 0.000000 0.000000 0.000000
0.288707 0.984662 2.864201 0.000000 0.000000 0.000000
0.266825 1.012095 2.785468 0.000000 0.000000 0.000000
0.235002 0.866340 3.017799 0.000000 0.000000 0.000000
0.275165 0.918735 3.019171 0.000000 0.000000 0.000000
0.166887 0.888167 2.946922 0.000000 0.000000 0.000000
0.238660 1.005658 2.805875 0.000000 0.000000 0.000000
0.078946 0.944393 2.766287 0.000000 0.000000 0.000000
0.161236 0.963588 2.820971 0.000000 0.000000 0.000000
0.210676 0.918443 2.955582 0.000000 0.000000 0.000000
0.135158 0.956755 2.809435 0.000000 0.000000 0.000000
0.259929 0.889881 3.025982 0.000000 0.000000 0.000000
0.105001 0.950969 2.781233 0.000000 0.000000 0.000000
0.170510 0.939555 2.874207 0.000000 0.000000 0.000000
0.270717 0.930656 3.000821 0.000000 0.000000 0.000000
0.261573 0.935535 2.989429 0.000000 0.000000 0.000000
0.253507 0.953893 2.951317 0.000000 0.000000 0.000000
0.106533 0.915157 2.835358 0.000000 0.000000 0.000000
0.166602 0.900366 2.927152 0.000000 0.000000 0.000000
0.298961 0.911769 3.036864 0.000000 0.000000 0.000000
0.177270 0.905712 2.932214 0.000000 0.000000 0.000000
0.096972 0.908224 2.844591 0.000000 0.000000 0.000000
0.186573 0.895480 2.966615 0.000000 0.000000 0.000000
0.136672 0.926171 2.857766 0.000000 0.000000 0.000000
0.174329 0.895330 2.945574 0.000000 0.000000 0.000000
0.150758 0.930615 2.867574 0.000000 0.000000 0.000000
0.186154 0.892861 2.967940 0.000000 0.000000 0.000000
0.233155 0.890393 3.002910 0.000000 0.000000 0.000000
0.247667 0.917644 3.002443 0.000000 0.000000 0.000000
0.108618 0.917634 2.836212 0.000000 0.000000 0.000000
0.267642 0.895448 3.035445 0.000000 0.000000 0.000000
0.112429 0.940574 2.795660 0.000000 0.000000 0.000000
0.249893 0.975254 2.896425 0.000000 0.000000 0.000000
0.297747 0.905540 3.040830 0.000000 0.000000 0.000000
0.163925 0.898654 2.928147 0.000000 0.000000 0.000000
0.245012 1.019334 2.765498 0.000000 0.000000 0.000000
0.205490 0.946373 2.904526 0.000000 0.000000 0.000000
0.097447 0.955417 2.774975 0.000000 0.000000 0.000000
0.217112 0.950215 2.919315 0.000000 0.000000 0.000000
0.197789 0.971669 2.852194 0.000000 0.000000 0.000000
0.223020 0.953563 2.924032 0.000000 0.000000 0.000000
0.287828 0.935821 3.002155 0.000000 0.000000 0.000000
0.176210 0.933381 2.885779 0.000000 0.000000 0.000000
0.179555 0.914825 2.919990 0.000000 0.000000 0.000000
0.113229 0.980024 2.743808 0.000000 0.000000 0.000000
0.121039 0.889690 2.891615 0.000000 0.000000 0.000000
0.153545 0.896729 2.919838 0.000000 0.000000 0.000000
0.274229 0.945980 2.977138 0.000000 0.000000 0.000000
0.343727 1.006626 2.836395 0.000000 0.000000 0.000000
0.272098 0.884987 3.048748 0.000000 0.000000 0.000000
0.329801 1.010424 2.828415 0.000000 0.000000 0.000000
0.105088 0.995109 2.717799 0.000000 0.000000 0.000000
0.267055 0.976200 2.887634 0.000000 0.000000 0.000000
0.144920 1.036753 2.699362 0.000000 0.000000 0.000000
0.161209 0.951945 2.852710 0.000000 0.000000 0.000000
0.314172 0.972323 2.946582 0.000000 0.000000 0.000000
0.144634 0.988284 2.756556 0.000000 0.000000 0.000000
0.271801 0.886595 3.061028 0.000000 0.000000 0.000000
0.301343 1.014363 2.750885 0.000000 0.000000 0.000000
0.334870 0.985956 2.918181 0.000000 0.000000 0.000000
0.178389 1.046019 2.703658 0.000000 0.000000 0.000000
0.309975 1.019437 2.786332 0.000000 0.000000 0.000000
0.105562 0.892326 2.873905 0.000000 0.000000 0.000000
0.323849 0.962142 2.975294 0.000000 0.000000 0.000000
0.084490 0.943176 2.777474 0.000000 0.000000 0.000000
0.336733 0.973900 2.939836 0.000000 0.000000 0.000000
0.107763 0.991017 2.722973 0.000000 0.000000 0.000000
0.104955 0.977070 2.743233 0.000000 0.000000 0.000000
0.194811 0.940818 2.899171 0.000000 0.000000 0.000000
0.201215 0.974134 2.842585 0.000000 0.000000 0.000000
0.147310 0.969612 2.777533 0.000000 0.000000 0.000000
0.252137 0.905079 3.010899 0.000000 0.000000 0.000000
0.180922 0.922715 2.907414 0.000000 0.000000 0.000000
0.265191 0.985877 2.866335 0.000000 0.000000 0.000000
0.086507 0.941920 2.783984 0.000000 0.000000 0.000000
0.276222 1.030754 2.731791 0.000000 0.000000 0.000000
0.159249 0.877913 2.953705 0.000000 0.000000 0.000000
0.198809 0.943594 2.890668 0.000000 0.000000 0.000000
0.165482 1.057930 2.702047 0.000000 0.000000 0.000000
0.261865 1.010938 2.789285 0.000000 0.000000 0.000000
0.165392 0.934131 2.903631 0.000000 0.000000 0.000000
0.142562 1.036315 2.706136 0.000000 0.000000 0.000000
0.204828 0.944690 2.907800 0.000000 0.000000 0.000000
0.305661 0.989469 2.889327 0.000000 0.000000 0.000000
0.088509 0.960980 2.750645 0.000000 0.000000 0.000000
0.297314 1.001482 2.825118 0.000000 0.000000 0.000000
0.279700 0.890370 3.056949 0.000000 0.000000 0.000000
0.331692 0.996830 2.877888 0.000000 0.000000 0.000000
0.313125 1.001146 2.839993 0.000000 0.000000 0.000000
0.173611 1.057915 2.697300 0.000000 0.000000 0.000000
0.112025 0.994724 2.724612 0.000000 0.000000 0.000000
0.213537 1.034078 2.742381 0.000000 0.000000 0.000000
0.333612 1.010748 2.834985 0.000000 0.000000 0.000000
0.085646 0.903681 2.827051 0.000000 0.000000 0.000000
0.176311 0.928160 2.889671 0.000000 0.000000 0.000000
0.154797 0.953243 2.809574 0.000000 0.000000 0.000000
0.213115 0.910265 2.971094 0.000000 0.000000 0.000000
0.230701 0.899009 2.985172 0.000000 0.000000 0.000000
0.144028 0.928561 2.863853 0.000000 0.000000 0.000000
0.219203 1.004530 2.795075 0.000000 0.000000 0.000000
0.276653 1.030829 2.716218 0.000000 0.000000 0.000000
0.193516 0.901927 2.963934 0.000000 0.000000 0.000000
0.172342 1.067554 2.697881 0.000000 0.000000 0.000000
0.136820 0.965855 2.778972 0.000000 0.000000 0.000000
0.157097 0.901333 2.913848 0.000000 0.000000 0.000000
0.158750 1.063626 2.691944 0.000000 0.000000 0.000000
0.167172 0.898023 2.931024 0.000000 0.000000 0.000000
0.125154 1.026724 2.714902 0.000000 0.000000 0.000000
0.113380 1.016070 2.704909 0.000000 0.000000 0.000000
0.136999 0.990186 2.748293 0.000000 0.000000 0.000000
0.280857 0.916833 3.029048 0.000000 0.000000 0.000000
0.244589 0.869613 3.020800 0.000000 0.000000 0.000000
0.296735 0.908686 3.037790 0.000000 0.000000 0.000000
0.193815 0.877152 2.992276 0.000000 0.000000 0.000000
0.164459 0.879091 2.975343 0.000000 0.000000 0.000000
0.091792 0.916606 2.826400 0.000000 0.000000 0.000000
0.242133 0.883684 3.018711 0.000000 0.000000 0.000000
0.344612 1.010369 2.838271 0.000000 0.000000 0.000000
0.254169 0.879978 3.025658 0.000000 0.000000 0.000000
0.201887 0.878459 2.990790 0.000000 0.000000 0.000000
0.295685 0.909065 3.039637 0.000000 0.000000 0.000000
0.301712 0.917614 3.031345 0.000000 0.000000 0.000000
0.186780 0.876480 2.991455 0.000000 0.000000 0.000000
0.319576 1.011054 2.820573 0.000000 0.000000 0.000000
0.102458 0.988629 2.724110 0.000000 0.000000 0.000000
0.235446 0.882177 3.003424 0.000000 0.000000 0.000000
0.283584 0.897058 3.053092 0.000000 0.000000 0.000000
0.163201 1.091549 2.694088 0.000000 0.000000 0.000000
0.091976 0.920922 2.813739 0.000000 0.000000 0.000000
0.339877 0.999686 2.861936 0.000000 0.000000 0.000000
0.292174 1.027964 2.766608 0.000000 0.000000 0.000000
0.127309 1.016028 2.710180 0.000000 0.000000 0.000000
0.121412 0.871671 2.908778 0.000000 0.000000 0.000000
0.074953 0.912162 2.805277 0.000000 0.000000 0.000000
0.122645 1.019938 2.702843 0.000000 0.000000 0.000000
0.209721 0.885025 2.988205 0.000000 0.000000 0.000000
0.136736 1.035131 2.701491 0.000000 0.000000 0.000000
0.228854 0.902343 2.993418 0.000000 0.000000 0.000000
0.093626 0.968247 2.748152 0.000000 0.000000 0.000000
0.128968 1.034735 2.706480 0.000000 0.000000 0.000000
0.337654 0.987257 2.895010 0.000000 0.000000 0.000000
0.273194 1.033101 2.718517 0.000000 0.000000 0.000000
0.082175 0.922704 2.804772 0.000000 0.000000 0.000000
0.139613 1.021449 2.713140 0.000000 0.000000 0.000000
0.099292 0.933325 2.814925 0.000000 0.000000 0.000000
0.302061 1.022379 2.756803 0.000000 0.000000 0.000000
0.197160 0.893866 2.979257 0.000000 0.000000 0.000000
0.081586 0.915464 2.806178 0.000000 0.000000 0.000000
0.132710 1.041488 2.690576 0.000000 0.000000 0.000000
0.340005 1.014499 2.818593 0.000000 0.000000 0.000000
0.161916 1.070845 2.697875 0.000000 0.000000 0.000000
0.137467 1.035362 2.705011 0.000000 0.000000 0.000000
0.345618 1.013286 2.832033 0.000000 0.000000 0.000000
0.226449 0.865580 3.011851 0.000000 0.000000 0.000000
0.191082 0.874844 2.999547 0.000000 0.000000 0.000000
0.295210 1.028564 2.764666 0.000000 0.000000 0.000000
0.091975 0.958403 2.760584 0.000000 0.000000 0.000000
0.091067 0.943420 2.787437 0.000000 0.000000 0.000000
0.143915 0.890560 2.911530 0.000000 0.000000 0.000000
0.110588 0.969120 2.753663 0.000000 0.000000 0.000000
0.087583 0.951226 2.768035 0.000000 0.000000 0.000000
0.082998 0.917850 2.805936 0.000000 0.000000 0.000000
0.092490 0.901439 2.845949 0.000000 0.000000 0.000000
0.344249 1.017177 2.821073 0.000000 0.000000 0.000000
0.326239 1.009791 2.815601 0.000000 0.000000 0.000000
0.143122 1.049021 2.692401 0.000000 0.000000 0.000000
0.307222 0.979898 2.894084 0.000000 0.000000 0.000000
0.339117 1.015383 2.809951 0.000000 0.000000 0.000000
0.122638 1.014139 2.711131 0.000000 0.000000 0.000000
0.222142 0.891162 2.988410 0.000000 0.000000 0.000000
0.331925 1.012441 2.817998 0.000000 0.000000 0.000000
0.316949 1.019547 2.787327 0.000000 0.000000 0.000000
0.076705 0.933126 2.782886 0.000000 0.000000 0.000000
0.129298 0.886770 2.909122 0.000000 0.000000 0.000000
0.126041 0.876673 2.907497 0.000000 0.000000 0.000000
0.076230 0.932496 2.780842 0.000000 0.000000 0.000000
0.126627 0.872002 2.911647 0.000000 0.000000 0.000000
0.102347 0.982354 2.735238 0.000000 0.000000 0.000000
0.091720 0.936924 2.805188 0.000000 0.000000 0.000000
0.085264 0.904180 2.831634 0.000000 0.000000 0.000000
0.199863 0.869414 3.004905 0.000000 0.000000 0.000000
0.293919 1.024208 2.737992 0.000000 0.000000 0.000000
0.195504 0.920898 2.939711 0.000000 0.000000 0.000000
0.138294 0.882019 2.919187 0.000000 0.000000 0.000000
0.124745 1.011020 2.731126 0.000000 0.000000 0.000000
0.290403 1.008569 2.795131 0.000000 0.000000 0.000000
0.110159 1.007083 2.706383 0.000000 0.000000 0.000000
0.081080 0.928539 2.790512 0.000000 0.000000 0.000000
0.086661 0.908982 2.822304 0.000000 0.000000 0.000000
0.320749 0.985718 2.913121 0.000000 0.000000 0.000000
0.087381 0.906002 2.832350 0.000000 0.000000 0.000000
0.199596 0.877035 2.991856 0.000000 0.000000 0.000000
0.078938 0.940529 2.772921 0.000000 0.000000 0.000000
0.131199 0.877114 2.911717 0.000000 0.000000 0.000000
0.200156 0.918494 2.947167 0.000000 0.000000 0.000000
0.084796 0.915559 2.814424 0.000000 0.000000 0.000000
0.093687 0.911974 2.822276 0.000000 0.000000 0.000000
0.212981 0.883745 2.997632 0.000000 0.000000 0.000000
0.344725 1.006252 2.840425 0.000000 0.000000 0.000000
0.327336 0.967236 2.956357 0.000000 0.000000 0.000000
0.114363 0.891400 2.883405 0.000000 0.000000 0.000000
0.086686 0.903168 2.831615 0.000000 0.000000 0.000000
0.331871 1.006421 2.836047 0.000000 0.000000 0.000000
0.337852 0.969645 2.947098 0.000000 0.000000 0.000000
0.103233 0.889581 2.873278 0.000000 0.000000 0.000000
0.314573 1.013195 2.817472 0.000000 0.000000 0.000000
0.086782 0.921353 2.810758 0.000000 0.000000 0.000000
0.102977 0.913672 2.828357 0.000000 0.000000 0.000000
0.119772 1.014442 2.705332 0.000000 0.000000 0.000000
0.213459 0.870773 3.004900 0.000000 0.000000 0.000000
0.111174 1.012946 2.701009 0.000000 0.000000 0.000000
0.192125 0.884422 2.987858 0.000000 0.000000 0.000000
0.131695 0.886240 2.909309 0.000000 0.000000 0.000000
0.159552 1.012177 2.745040 0.000000 0.000000 0.000000
0.103955 0.893956 2.868137 0.000000 0.000000 0.000000
0.132132 1.025784 2.721135 0.000000 0.000000 0.000000
0.083914 0.908142 2.825666 0.000000 0.000000 0.000000
0.155796 1.058048 2.694030 0.000000 0.000000 0.000000
0.075703 0.923593 2.796349 0.000000 0.000000 0.000000
0.334424 1.013058 2.828899 0.000000 0.000000 0.000000
0.280055 0.892932 3.056656 0.000000 0.000000 0.000000
0.108152 0.891645 2.873424 0.000000 0.000000 0.000000
0.082546 0.960518 2.744829 0.000000 0.000000 0.000000
0.080152 0.911438 2.809148 0.000000 0.000000 0.000000
0.268618 0.887424 3.046941 0.000000 0.000000 0.000000
0.338006 0.992030 2.898836 0.000000 0.000000 0.000000
0.343550 1.005967 2.848470 0.000000 0.000000 0.000000
0.335500 1.013411 2.823144 0.000000 0.000000 0.000000
0.287026 1.025543 2.741297 0.000000 0.000000 0.000000
0.153578 1.046741 2.706538 0.000000 0.000000 0.000000
0.102842 0.904693 2.846957 0.000000 0.000000 0.000000
0.123421 0.904277 2.870014 0.000000 0.000000 0.000000
0.311605 0.996870 2.870030 0.000000 0.000000 0.000000
0.328179 0.962664 2.971336 0.000000 0.000000 0.000000
0.223808 0.886032 2.995311 0.000000 0.000000 0.000000
0.170999 0.879800 2.981948 0.000000 0.000000 0.000000
0.107190 0.915290 2.846831 0.000000 0.000000 0.000000
0.337461 0.996665 2.877856 0.000000 0.000000 0.000000
0.093786 0.971971 2.738217 0.000000 0.000000 0.000000
0.178651 0.889615 2.967616 0.000000 0.000000 0.000000
0.345175 0.989662 2.905205 0.000000 0.000000 0.000000
0.322531 1.018499 2.779989 0.000000 0.000000 0.000000
0.102387 0.898666 2.856182 0.000000 0.000000 0.000000
0.219416 0.872314 3.005742 0.000000 0.000000 0.000000
0.083870 0.928883 2.804364 0.000000 0.000000 0.000000
0.106197 0.897419 2.863004 0.000000 0.000000 0.000000
0.288590 0.991216 2.880399 0.000000 0.000000 0.000000
0.276571 0.942768 2.988989 0.000000 0.000000 0.000000
0.155100 0.873287 2.954167 0.000000 0.000000 0.000000
0.320889 1.017281 2.767977 0.000000 0.000000 0.000000
0.085891 0.911284 2.822139 0.000000 0.000000 0.000000
0.289394 1.025345 2.730165 0.000000 0.000000 0.000000
0.086781 0.903080 2.833950 0.000000 0.000000 0.000000
0.091159 0.897466 2.846564 0.000000 0.000000 0.000000
0.337341 1.018203 2.791121 0.000000 0.000000 0.000000
0.285575 1.023657 2.728597 0.000000 0.000000 0.000000
0.081397 0.904588 2.821455 0.000000 0.000000 0.000000
0.218668 0.882143 3.002442 0.000000 0.000000 0.000000
0.342627 0.997049 2.884015 0.000000 0.000000 0.000000
0.132603 1.022883 2.706323 0.000000 0.000000 0.000000
0.346314 0.997899 2.886070 0.000000 0.000000 0.000000
0.095482 0.902111 2.844574 0.000000 0.000000 0.000000
0.088471 0.902160 2.842373 0.000000 0.000000 0.000000
0.285115 0.891134 3.062279 0.000000 0.000000 0.000000
0.107459 0.998848 2.713876 0.000000 0.000000 0.000000
0.082289 0.933990 2.795466 0.000000 0.000000 0.000000
0.154651 1.059291 2.698167 0.000000 0.000000 0.000000
0.323724 1.003636 2.849365 0.000000 0.000000 0.000000
0.117506 1.006837 2.722385 0.000000 0.000000 0.000000
0.098539 0.984041 2.720645 0.000000 0.000000 0.000000
0.071423 0.931090 2.778486 0.000000 0.000000 0.000000
0.102532 0.990909 2.717216 0.000000 0.000000 0.000000
0.277214 1.030902 2.724349 0.000000 0.000000 0.000000
0.115076 1.009568 2.713625 0.000000 0.000000 0.000000
0.106595 0.995482 2.717644 0.000000 0.000000 0.000000
0.147541 1.045880 2.699581 0.000000 0.000000 0.000000
0.222414 0.878439 3.001470 0.000000 0.000000 0.000000
0.088202 0.913096 2.815863 0.000000 0.000000 0.000000
0.311439 1.013834 2.807298 0.000000 0.000000 0.000000
0.114435 0.994470 2.731893 0.000000 0.000000 0.000000
0.100634 0.988251 2.719925 0.000000 0.000000 0.000000
0.141914 1.013792 2.726802 0.000000 0.000000 0.000000
0.330023 0.964864 2.969014 0.000000 0.000000 0.000000
0.110731 1.003912 2.710490 0.000000 0.000000 0.000000
0.102223 0.985917 2.722140 0.000000 0.000000 0.000000
0.107613 0.994101 2.725020 0.000000 0.000000 0.000000
0.103225 0.991374 2.718308 0.000000 0.000000 0.000000
0.099468 0.970004 2.749332 0.000000 0.000000 0.000000
0.108305 1.002939 2.718559 0.000000 0.000000 0.000000
0.099534 0.897222 2.857154 0.000000 0.000000 0.000000
0.107962 1.006964 2.706439 0.000000 0.000000 0.000000
0.145545 1.048249 2.699351 0.000000 0.000000 0.000000
0.164270 1.052920 2.694652 0.000000 0.000000 0.000000
0.149496 1.028976 2.715887 0.000000 0.000000 0.000000
0.208908 0.862458 3.001737 0.000000 0.000000 0.000000
0.278007 0.895973 3.050751 0.000000 0.000000 0.000000
0.120070 0.882797 2.898787 0.000000 0.000000 0.000000
0.332294 0.992030 2.885004 0.000000 0.000000 0.000000
0.156587 1.059102 2.687957 0.000000 0.000000 0.000000
0.266824 1.022634 2.756753 0.000000 0.000000 0.000000
0.295130 0.927385 3.021472 0.000000 0.000000 0.000000
0.310887 1.018860 2.784441 0.000000 0.000000 0.000000
0.120481 0.877353 2.906208 0.000000 0.000000 0.000000
0.319368 0.931721 3.023985 0.000000 0.000000 0.000000
0.205933 1.060230 2.694878 0.000000 0.000000 0.000000
0.342432 0.990923 2.896552 0.000000 0.000000 0.000000
0.345985 0.989976 2.902757 0.000000 0.000000 0.000000
0.300630 0.943338 2.999146 0.000000 0.000000 0.000000
0.309311 0.929235 3.021577 0.000000 0.000000 0.000000
0.129136 0.875370 2.917207 0.000000 0.000000 0.000000
0.254850 1.041164 2.706634 0.000000 0.000000 0.000000
0.213152 1.052304 2.704965 0.000000 0.000000 0.000000
0.211372 1.061975 2.690998 0.000000 0.000000 0.000000
0.122317 0.885395 2.898431 0.000000 0.000000 0.000000
0.307837 1.008745 2.806867 0.000000 0.000000 0.000000
0.119353 0.873718 2.909128 0.000000 0.000000 0.000000
0.308293 1.014082 2.752517 0.000000 0.000000 0.000000
0.152772 1.052447 2.690861 0.000000 0.000000 0.000000
0.320822 1.020496 2.757216 0.000000 0.000000 0.000000
0.094337 0.977886 2.728680 0.000000 0.000000 0.000000
0.171916 1.061081 2.700624 0.000000 0.000000 0.000000
0.100243 0.987235 2.718060 0.000000 0.000000 0.000000
0.231765 0.877735 3.010360 0.000000 0.000000 0.000000
0.265790 1.023878 2.749565 0.000000 0.000000 0.000000
0.247302 0.878428 3.018940 0.000000 0.000000 0.000000
0.114326 0.897732 2.871218 0.000000 0.000000 0.000000
0.208528 0.872370 3.000274 0.000000 0.000000 0.000000
0.238402 1.051550 2.695756 0.000000 0.000000 0.000000
0.245578 1.048195 2.694675 0.000000 0.000000 0.000000
0.111988 0.888758 2.886397 0.000000 0.000000 0.000000
0.264334 1.035589 2.732501 0.000000 0.000000 0.000000
0.245857 1.049251 2.700153 0.000000 0.000000 0.000000
0.113677 0.887477 2.888798 0.000000 0.000000 0.000000
0.267047 1.024583 2.753178 0.000000 0.000000 0.000000
0.117098 0.895718 2.870282 0.000000 0.000000 0.000000
0.337655 0.972320 2.948971 0.000000 0.000000 0.000000
0.081868 0.903263 2.826249 0.000000 0.000000 0.000000
0.285491 0.899135 3.044027 0.000000 0.000000 0.000000
0.340798 0.965694 2.952883 0.000000 0.000000 0.000000
0.101647 0.903544 2.844760 0.000000 0.000000 0.000000
0.249138 0.864542 3.023471 0.000000 0.000000 0.000000
0.086454 0.912326 2.821662 0.000000 0.000000 0.000000
0.095753 0.981215 2.720518 0.000000 0.000000 0.000000
0.089653 0.909547 2.829273 0.000000 0.000000 0.000000
0.085815 0.904159 2.829240 0.000000 0.000000 0.000000
0.270377 0.890113 3.046488 0.000000 0.000000 0.000000
0.335320 0.968869 2.937896 0.000000 0.000000 0.000000
0.101943 0.907104 2.849919 0.000000 0.000000 0.000000
0.089529 0.913792 2.820109 0.000000 0.000000 0.000000
0.215603 0.867989 3.007531 0.000000 0.000000 0.000000
0.085238 0.901140 2.835201 0.000000 0.000000 0.000000
0.096428 0.982496 2.726324 0.000000 0.000000 0.000000
0.101260 0.890502 2.873223 0.000000 0.000000 0.000000
0.125015 0.879554 2.904620 0.000000 0.000000 0.000000
0.090832 0.907969 2.831204 0.000000 0.000000 0.000000
0.342981 0.971965 2.936633 0.000000 0.000000 0.000000
0.338561 0.978396 2.921343 0.000000 0.000000 0.000000
0.089875 0.961471 2.741830 0.000000 0.000000 0.000000
0.112500 1.004263 2.712281 0.000000 0.000000 0.000000
0.327852 0.961965 2.981867 0.000000 0.000000 0.000000
0.136508 1.045815 2.689050 0.000000 0.000000 0.000000
0.342402 0.981669 2.919660 0.000000 0.000000 0.000000
0.336773 1.013282 2.816874 0.000000 0.000000 0.000000
0.271336 1.034772 2.711635 0.000000 0.000000 0.000000
0.105169 0.990943 2.719028 0.000000 0.000000 0.000000
0.128528 1.037557 2.690542 0.000000 0.000000 0.000000
0.336460 0.982076 2.913038 0.000000 0.000000 0.000000
0.345430 1.010272 2.834705 0.000000 0.000000 0.000000
0.168096 1.070950 2.687597 0.000000 0.000000 0.000000
0.131093 0.879022 2.911399 0.000000 0.000000 0.000000
0.343625 0.976864 2.937522 0.000000 0.000000 0.000000
0.139066 0.894249 2.907923 0.000000 0.000000 0.000000
0.073388 0.919715 2.794302 0.000000 0.000000 0.000000
0.073456 0.934398 2.781593 0.000000 0.000000 0.000000
0.142823 0.899676 2.906719 0.000000 0.000000 0.000000
0.128934 1.028912 2.698604 0.000000 0.000000 0.000000
0.087122 0.928735 2.798879 0.000000 0.000000 0.000000
0.076752 0.929103 2.791756 0.000000 0.000000 0.000000
0.136060 0.876724 2.916605 0.000000 0.000000 0.000000
0.229729 0.884880 3.001157 0.000000 0.000000 0.000000
0.240089 0.890205 3.009158 0.000000 0.000000 0.000000
0.186245 0.879764 2.981477 0.000000 0.000000 0.000000
0.136225 0.884164 2.911024 0.000000 0.000000 0.000000
0.142150 0.872945 2.927361 0.000000 0.000000 0.000000
0.276425 1.029110 2.738266 0.000000 0.000000 0.000000
0.134608 0.873024 2.919183 0.000000 0.000000 0.000000
0.113665 0.879489 2.895671 0.000000 0.000000 0.000000
0.186228 0.879168 2.984811 0.000000 0.000000 0.000000
0.137522 0.886497 2.910542 0.000000 0.000000 0.000000
0.129489 0.871150 2.914223 0.000000 0.000000 0.000000
0.126899 0.865645 2.913332 0.000000 0.000000 0.000000
0.211275 0.872418 3.005670 0.000000 0.000000 0.000000
0.088330 0.956719 2.755145 0.000000 0.000000 0.000000
0.274233 0.887614 3.058970 0.000000 0.000000 0.000000
0.097432 0.979575 2.732567 0.000000 0.000000 0.000000
0.286391 1.026165 2.723777 0.000000 0.000000 0.000000
0.348203 0.981461 2.929051 0.000000 0.000000 0.000000
0.083964 0.962193 2.742670 0.000000 0.000000 0.000000
0.097367 0.982000 2.720902 0.000000 0.000000 0.000000
0.083108 0.951669 2.765367 0.000000 0.000000 0.000000
0.085505 0.939966 2.778612 0.000000 0.000000 0.000000
0.078749 0.959597 2.749222 0.000000 0.000000 0.000000
0.082168 0.958877 2.747726 0.000000 0.000000 0.000000
0.119289 0.994205 2.735799 0.000000 0.000000 0.000000
0.098873 0.981030 2.723331 0.000000 0.000000 0.000000
0.075394 0.938455 2.770092 0.000000 0.000000 0.000000
0.089057 0.965260 2.744724 0.000000 0.000000 0.000000
0.307821 1.017766 2.779186 0.000000 0.000000 0.000000
0.232006 1.050779 2.696269 0.000000 0.000000 0.000000
0.270137 0.890959 3.054583 0.000000 0.000000 0.000000
0.240123 1.048800 2.699733 0.000000 0.000000 0.000000
0.212200 1.050095 2.705510 0.000000 0.000000 0.000000
0.183700 0.881461 2.984525 0.000000 0.000000 0.000000
0.338234 1.013665 2.818326 0.000000 0.000000 0.000000
0.294027 1.024222 2.742061 0.000000 0.000000 0.000000
0.112385 0.982787 2.750357 0.000000 0.000000 0.000000
0.104697 0.996582 2.715204 0.000000 0.000000 0.000000
0.096646 0.983425 2.720396 0.000000 0.000000 0.000000
0.222139 1.036389 2.778533 0.000000 0.000000 0.000000
0.201892 1.038685 2.717618 0.000000 0.000000 0.000000
0.159273 0.924190 2.886875 0.000000 0.000000 0.000000
0.115219 0.926712 2.827530 0.000000 0.000000 0.000000
0.158273 0.978549 2.786754 0.000000 0.000000 0.000000
0.168454 0.997669 2.769290 0.000000 0.000000 0.000000
0.157995 0.976751 2.792025 0.000000 0.000000 0.000000
0.154316 1.034533 2.711420 0.000000 0.000000 0.000000
0.278967 1.011005 2.787073 0.000000 0.000000 0.000000
0.254251 1.021569 2.761431 0.000000 0.000000 0.000000
0.190291 0.901511 2.971045 0.000000 0.000000 0.000000
0.221482 1.017825 2.762330 0.000000 0.000000 0.000000
0.162389 1.092039 2.688730 0.000000 0.000000 0.000000
0.212604 0.943073 2.910016 0.000000 0.000000 0.000000
0.164211 0.991457 2.831087 0.000000 0.000000 0.000000
0.248571 0.989070 2.836890 0.000000 0.000000 0.000000
0.312667 1.015630 2.789730 0.000000 0.000000 0.000000
0.265110 0.881039 3.040665 0.000000 0.000000 0.000000
0.161801 1.001028 2.773898 0.000000 0.000000 0.000000
0.111235 0.951121 2.795626 0.000000 0.000000 0.000000
0.210196 1.041962 2.717204 0.000000 0.000000 0.000000
0.089864 0.950151 2.766564 0.000000 0.000000 0.000000
0.277280 0.891015 3.063459 0.000000 0.000000 0.000000
0.227512 1.047143 2.720380 0.000000 0.000000 0.000000
0.134729 1.036976 2.692749 0.000000 0.000000 0.000000
0.120520 1.026219 2.698157 0.000000 0.000000 0.000000
0.344965 1.008250 2.839556 0.000000 0.000000 0.000000
0.326724 0.971187 2.938086 0.000000 0.000000 0.000000
0.246126 0.881495 3.015258 0.000000 0.000000 0.000000
0.171700 1.059852 2.707440 0.000000 0.000000 0.000000
0.340226 0.994000 2.885754 0.000000 0.000000 0.000000
0.266763 1.018848 2.763058 0.000000 0.000000 0.000000
0.160248 0.884046 2.941232 0.000000 0.000000 0.000000
0.108195 0.881648 2.890291 0.000000 0.000000 0.000000
0.191999 1.016822 2.767797 0.000000 0.000000 0.000000
0.181163 1.026249 2.726091 0.000000 0.000000 0.000000
0.184754 0.933374 2.899761 0.000000 0.000000 0.000000
0.137547 0.975833 2.773800 0.000000 0.000000 0.000000
0.152155 0.976602 2.782526 0.000000 0.000000 0.000000
0.171234 1.006580 2.758218 0.000000 0.000000 0.000000
0.164135 0.988616 2.778607 0.000000 0.000000 0.000000
0.141671 1.005464 2.741480 0.000000 0.000000 0.000000
0.261485 1.033139 2.743329 0.000000 0.000000 0.000000
0.218227 0.874227 2.993193 0.000000 0.000000 0.000000
0.220557 1.022268 2.756470 0.000000 0.000000 0.000000
0.213797 0.972946 2.867840 0.000000 0.000000 0.000000
0.175329 0.984661 2.836708 0.000000 0.000000 0.000000
0.286518 1.014527 2.800497 0.000000 0.000000 0.000000
0.249678 1.009601 2.792567 0.000000 0.000000 0.000000
0.113916 0.992955 2.751161 0.000000 0.000000 0.000000
0.198792 0.994749 2.801829 0.000000 0.000000 0.000000
0.105921 0.966043 2.775669 0.000000 0.000000 0.000000
0.271025 1.018702 2.762275 0.000000 0.000000 0.000000
0.093462 0.959555 2.760825 0.000000 0.000000 0.000000
0.239969 1.032756 2.743675 0.000000 0.000000 0.000000
0.192366 1.052987 2.698956 0.000000 0.000000 0.000000
0.077816 0.948590 2.770104 0.000000 0.000000 0.000000
0.124656 1.028425 2.698688 0.000000 0.000000 0.000000
0.100785 0.990286 2.714141 0.000000 0.000000 0.000000
0.110273 1.000669 2.713032 0.000000 0.000000 0.000000
0.342930 0.994995 2.885648 0.000000 0.000000 0.000000
0.347610 0.989914 2.904198 0.000000 0.000000 0.000000
0.246272 0.869944 3.026986 0.000000 0.000000 0.000000
0.190141 1.055754 2.713982 0.000000 0.000000 0.000000
0.317798 1.020281 2.770214 0.000000 0.000000 0.000000
0.184348 0.870822 2.990208 0.000000 0.000000 0.000000
0.167386 0.880842 2.961264 0.000000 0.000000 0.000000
0.283551 0.898252 3.048578 0.000000 0.000000 0.000000
0.336396 0.990650 2.895928 0.000000 0.000000 0.000000
0.174757 1.009531 2.758998 0.000000 0.000000 0.000000
0.179195 1.005245 2.773800 0.000000 0.000000 0.000000
0.090165 0.952305 2.764295 0.000000 0.000000 0.000000
0.162047 1.010684 2.734934 0.000000 0.000000 0.000000
0.161347 1.083640 2.695838 0.000000 0.000000 0.000000
0.350137 0.985904 2.896059 0.000000 0.000000 0.000000
0.090016 0.973832 2.728727 0.000000 0.000000 0.000000
0.253312 0.919487 3.004160 0.000000 0.000000 0.000000
0.187621 0.984779 2.809618 0.000000 0.000000 0.000000
0.276739 1.011831 2.782505 0.000000 0.000000 0.000000
0.134938 0.870859 2.920877 0.000000 0.000000 0.000000
0.214504 0.985171 2.842415 0.000000 0.000000 0.000000
0.338708 1.015651 2.806860 0.000000 0.000000 0.000000
0.189648 0.882519 2.983808 0.000000 0.000000 0.000000
0.107399 0.997712 2.713284 0.000000 0.000000 0.000000
0.107955 0.897829 2.863271 0.000000 0.000000 0.000000
0.247407 0.871623 3.020592 0.000000 0.000000 0.000000
0.082577 0.970904 2.733632 0.000000 0.000000 0.000000
0.259607 0.871127 3.035466 0.000000 0.000000 0.000000
0.288957 1.021952 2.766118 0.000000 0.000000 0.000000
0.209708 0.874332 2.999105 0.000000 0.000000 0.000000
0.333727 0.965224 2.960839 0.000000 0.000000 0.000000
0.258518 0.876796 3.029306 0.000000 0.000000 0.000000
0.255614 0.869465 3.028551 0.000000 0.000000 0.000000
0.236781 0.876238 3.007039 0.000000 0.000000 0.000000
0.239573 0.865760 3.019727 0.000000 0.000000 0.000000
0.342346 1.017988 2.785569 0.000000 0.000000 0.000000
0.163242 1.081730 2.689485 0.000000 0.000000 0.000000
0.263001 0.875107 3.037623 0.000000 0.000000 0.000000
0.269824 0.882095 3.057240 0.000000 0.000000 0.000000
0.336158 0.993418 2.881784 0.000000 0.000000 0.000000
0.347416 1.017592 2.805167 0.000000 0.000000 0.000000
0.251146 0.866038 3.025902 0.000000 0.000000 0.000000
0.294084 1.021551 2.766390 0.000000 0.000000 0.000000
0.339434 0.969286 2.960205 0.000000 0.000000 0.000000
0.296058 1.023892 2.739875 0.000000 0.000000 0.000000
0.237810 0.878693 3.020051 0.000000 0.000000 0.000000
0.258526 0.872238 3.031865 0.000000 0.000000 0.000000
0.312063 0.928820 3.025566 0.000000 0.000000 0.000000
0.269149 0.878104 3.049487 0.000000 0.000000 0.000000
0.246040 0.867187 3.022120 0.000000 0.000000 0.000000
0.082156 0.948019 2.782789 0.000000 0.000000 0.000000
0.160820 1.093905 2.687372 0.000000 0.000000 0.000000
0.267007 0.890683 3.029213 0.000000 0.000000 0.000000
0.268209 0.884858 3.059457 0.000000 0.000000 0.000000
0.338307 0.996395 2.876471 0.000000 0.000000 0.000000
0.340684 1.020479 2.793129 0.000000 0.000000 0.000000
0.347140 1.014507 2.805259 0.000000 0.000000 0.000000
0.329390 1.018234 2.768589 0.000000 0.000000 0.000000
0.340791 0.971398 2.951808 0.000000 0.000000 0.000000
0.201310 0.876937 3.001706 0.000000 0.000000 0.000000
0.122116 1.017822 2.712319 0.000000 0.000000 0.000000
0.332313 0.972564 2.953370 0.000000 0.000000 0.000000
0.329828 0.977607 2.946885 0.000000 0.000000 0.000000
0.342169 0.969647 2.943215 0.000000 0.000000 0.000000
0.324338 0.977877 2.930563 0.000000 0.000000 0.000000
0.333146 0.970910 2.949746 0.000000 0.000000 0.000000
0.330536 0.959400 2.978828 0.000000 0.000000 0.000000
0.285243 1.025686 2.708764 0.000000 0.000000 0.000000
0.230436 0.864170 3.013388 0.000000 0.000000 0.000000
0.113326 1.014335 2.700799 0.000000 0.000000 0.000000
0.331330 0.963449 2.972350 0.000000 0.000000 0.000000
0.306170 1.019683 2.737664 0.000000 0.000000 0.000000
0.101570 0.992226 2.722012 0.000000 0.000000 0.000000
0.352700 0.994805 2.899273 0.000000 0.000000 0.000000
0.350788 0.997339 2.890325 0.000000 0.000000 0.000000
0.273602 0.893869 3.054383 0.000000 0.000000 0.000000
0.332588 0.971152 2.950772 0.000000 0.000000 0.000000
0.332605 0.971447 2.945977 0.000000 0.000000 0.000000
0.312302 0.964618 2.968657 0.000000 0.000000 0.000000
0.282883 1.028861 2.716914 0.000000 0.000000 0.000000
0.220962 0.955649 2.914669 0.000000 0.000000 0.000000
0.340309 0.969645 2.956884 0.000000 0.000000 0.000000
0.264138 1.038552 2.709409 0.000000 0.000000 0.000000
0.099836 0.882754 2.879535 0.000000 0.000000 0.000000
0.089212 0.969844 2.739276 0.000000 0.000000 0.000000
0.188983 1.011504 2.776512 0.000000 0.000000 0.000000
0.127350 0.877246 2.910182 0.000000 0.000000 0.000000
0.105691 0.896572 2.868656 0.000000 0.000000 0.000000
0.204344 0.877959 2.990407 0.000000 0.000000 0.000000
0.199054 1.059449 2.691369 0.000000 0.000000 0.000000
0.261363 1.040523 2.711183 0.000000 0.000000 0.000000
0.202989 0.872876 2.999133 0.000000 0.000000 0.000000
0.206597 0.870437 3.003809 0.000000 0.000000 0.000000
0.215315 0.867114 3.002658 0.000000 0.000000 0.000000
0.229419 1.050889 2.699152 0.000000 0.000000 0.000000
0.213229 1.055948 2.690617 0.000000 0.000000 0.000000
0.197928 1.053780 2.709230 0.000000 0.000000 0.000000
0.346080 1.001342 2.857109 0.000000 0.000000 0.000000
0.319033 1.019124 2.767946 0.000000 0.000000 0.000000
0.335287 0.974091 2.931555 0.000000 0.000000 0.000000
0.205258 0.872467 2.993888 0.000000 0.000000 0.000000
0.228953 1.052725 2.692593 0.000000 0.000000 0.000000
0.225851 1.051026 2.701191 0.000000 0.000000 0.000000
0.182741 0.877285 2.987757 0.000000 0.000000 0.000000
0.260771 1.042137 2.703454 0.000000 0.000000 0.000000
0.268790 1.026712 2.740210 0.000000 0.000000 0.000000
0.101401 0.888343 2.880905 0.000000 0.000000 0.000000
0.227680 1.050247 2.708061 0.000000 0.000000 0.000000
0.342530 0.990110 2.898850 0.000000 0.000000 0.000000
0.352739 0.993599 2.905216 0.000000 0.000000 0.000000
0.242395 0.869633 3.016324 0.000000 0.000000 0.000000
0.234191 0.865783 3.013362 0.000000 0.000000 0.000000
0.215181 0.873254 3.005090 0.000000 0.000000 0.000000
0.299049 1.013610 2.841303 0.000000 0.000000 0.000000
0.328195 0.996837 2.857124 0.000000 0.000000 0.000000
0.082685 0.922915 2.795715 0.000000 0.000000 0.000000
0.078319 0.926451 2.787978 0.000000 0.000000 0.000000
0.079482 0.917562 2.801092 0.000000 0.000000 0.000000
0.078570 0.956812 2.747694 0.000000 0.000000 0.000000
0.298218 1.002352 2.840698 0.000000 0.000000 0.000000
0.157698 1.048914 2.704567 0.000000 0.000000 0.000000
0.150161 1.051879 2.690160 0.000000 0.000000 0.000000
0.353175 1.010771 2.853314 0.000000 0.000000 0.000000
0.341041 0.987420 2.913224 0.000000 0.000000 0.000000
0.081124 0.909204 2.813119 0.000000 0.000000 0.000000
0.343853 0.975802 2.940958 0.000000 0.000000 0.000000
0.349340 1.003072 2.866743 0.000000 0.000000 0.000000
0.246042 1.050343 2.691236 0.000000 0.000000 0.000000
0.293552 1.002139 2.835957 0.000000 0.000000 0.000000
0.335654 0.964265 2.967837 0.000000 0.000000 0.000000
0.339906 1.003846 2.860682 0.000000 0.000000 0.000000
0.074748 0.940310 2.769913 0.000000 0.000000 0.000000
0.076874 0.953292 2.750456 0.000000 0.000000 0.000000
0.325989 1.015962 2.812427 0.000000 0.000000 0.000000
0.126263 1.020235 2.712373 0.000000 0.000000 0.000000
0.106184 0.884625 2.889208 0.000000 0.000000 0.000000
0.353560 0.990469 2.915828 0.000000 0.000000 0.000000
0.197508 0.871787 2.999376 0.000000 0.000000 0.000000
0.349034 0.992006 2.899886 0.000000 0.000000 0.000000
0.245257 1.048061 2.695006 0.000000 0.000000 0.000000
0.266225 0.876491 3.041776 0.000000 0.000000 0.000000
0.257085 0.876411 3.030269 0.000000 0.000000 0.000000
0.273812 1.035705 2.701787 0.000000 0.000000 0.000000
0.248796 1.050546 2.693048 0.000000 0.000000 0.000000
0.127185 1.034016 2.701507 0.000000 0.000000 0.000000
0.122612 0.873338 2.913000 0.000000 0.000000 0.000000
0.303975 1.019891 2.729449 0.000000 0.000000 0.000000
0.262677 0.882754 3.032411 0.000000 0.000000 0.000000
0.267045 1.037294 2.703859 0.000000 0.000000 0.000000
0.234811 1.047892 2.703285 0.000000 0.000000 0.000000
0.127658 0.870679 2.913410 0.000000 0.000000 0.000000
0.259491 0.880191 3.030168 0.000000 0.000000 0.000000
0.260391 0.875982 3.032587 0.000000 0.000000 0.000000
0.118400 1.024803 2.694613 0.000000 0.000000 0.000000
0.339878 1.017467 2.793314 0.000000 0.000000 0.000000
0.324318 1.003901 2.838408 0.000000 0.000000 0.000000
0.343692 1.014959 2.792639 0.000000 0.000000 0.000000
0.350134 1.010407 2.833450 0.000000 0.000000 0.000000
0.302633 1.021338 2.760196 0.000000 0.000000 0.000000
0.348121 1.014704 2.826883 0.000000 0.000000 0.000000
0.347983 1.015792 2.806299 0.000000 0.000000 0.000000
0.199804 1.006887 2.786031 0.000000 0.000000 0.000000
0.353738 1.006804 2.851649 0.000000 0.000000 0.000000
0.239911 0.864348 3.017743 0.000000 0.000000 0.000000
0.097554 0.899230 2.851336 0.000000 0.000000 0.000000
0.326838 1.020082 2.796496 0.000000 0.000000 0.000000
0.332591 0.970232 2.961723 0.000000 0.000000 0.000000
0.201826 0.998481 2.807979 0.000000 0.000000 0.000000
0.097867 0.894954 2.859516 0.000000 0.000000 0.000000
0.212139 0.875208 3.008962 0.000000 0.000000 0.000000
0.165228 1.067076 2.700904 0.000000 0.000000 0.000000
0.351393 1.003895 2.864989 0.000000 0.000000 0.000000
0.348190 1.006538 2.850692 0.000000 0.000000 0.000000
0.083952 0.955056 2.756433 0.000000 0.000000 0.000000
0.345272 1.016626 2.795438 0.000000 0.000000 0.000000
0.077992 0.942198 2.778035 0.000000 0.000000 0.000000
0.091969 0.887483 2.859002 0.000000 0.000000 0.000000
0.322012 1.018176 2.785488 0.000000 0.000000 0.000000
0.226333 1.054832 2.690816 0.000000 0.000000 0.000000
0.079522 0.952344 2.763637 0.000000 0.000000 0.000000
0.341181 1.016958 2.801562 0.000000 0.000000 0.000000
0.142729 0.865099 2.938946 0.000000 0.000000 0.000000
0.241235 1.051137 2.693115 0.000000 0.000000 0.000000
0.344746 1.016693 2.811490 0.000000 0.000000 0.000000
0.091478 0.960155 2.756030 0.000000 0.000000 0.000000
0.077355 0.943953 2.769748 0.000000 0.000000 0.000000
0.091265 0.903532 2.844851 0.000000 0.000000 0.000000
0.220352 1.051802 2.699165 0.000000 0.000000 0.000000
0.076662 0.949597 2.762661 0.000000 0.000000 0.000000
0.327684 1.018313 2.788108 0.000000 0.000000 0.000000
0.235782 1.045521 2.712033 0.000000 0.000000 0.000000
0.345248 1.015910 2.808819 0.000000 0.000000 0.000000
0.337592 1.022564 2.804443 0.000000 0.000000 0.000000
0.202816 0.882414 2.990907 0.000000 0.000000 0.000000
0.114478 1.020988 2.694292 0.000000 0.000000 0.000000
0.346001 1.009822 2.841697 0.000000 0.000000 0.000000
0.107033 0.985810 2.734319 0.000000 0.000000 0.000000
0.178915 1.060541 2.687700 0.000000 0.000000 0.000000
0.304748 0.918325 3.034851 0.000000 0.000000 0.000000
0.309817 0.922952 3.032801 0.000000 0.000000 0.000000
0.352769 0.997148 2.895895 0.000000 0.000000 0.000000
0.163192 1.054823 2.690608 0.000000 0.000000 0.000000
0.192339 1.061865 2.690231 0.000000 0.000000 0.000000
0.287508 1.029651 2.728971 0.000000 0.000000 0.000000
0.342695 0.997270 2.870821 0.000000 0.000000 0.000000
0.343423 1.010251 2.845784 0.000000 0.000000 0.000000
0.160030 1.084540 2.690447 0.000000 0.000000 0.000000
0.298663 0.916916 3.038131 0.000000 0.000000 0.000000
0.120767 1.020152 2.699955 0.000000 0.000000 0.000000
0.304688 0.912556 3.036829 0.000000 0.000000 0.000000
0.349254 0.989252 2.916095 0.000000 0.000000 0.000000
0.187429 1.060369 2.690086 0.000000 0.000000 0.000000
0.350957 1.002946 2.868935 0.000000 0.000000 0.000000
0.315909 1.017818 2.749806 0.000000 0.000000 0.000000
0.324318 1.014724 2.798512 0.000000 0.000000 0.000000
0.162612 1.073691 2.695600 0.000000 0.000000 0.000000
0.267939 0.880305 3.045600 0.000000 0.000000 0.000000
0.318082 1.018761 2.774057 0.000000 0.000000 0.000000
0.302195 0.911756 3.041268 0.000000 0.000000 0.000000
0.309077 0.925300 3.025715 0.000000 0.000000 0.000000
0.297161 0.920745 3.031606 0.000000 0.000000 0.000000
0.121523 0.893207 2.885634 0.000000 0.000000 0.000000
0.110794 0.896555 2.867568 0.000000 0.000000 0.000000
0.236845 0.860424 3.020948 0.000000 0.000000 0.000000
0.107676 0.905066 2.857007 0.000000 0.000000 0.000000
0.335234 1.015718 2.814671 0.000000 0.000000 0.000000
0.138613 1.006522 2.730040 0.000000 0.000000 0.000000
0.159672 1.026437 2.728981 0.000000 0.000000 0.000000
0.228030 1.022532 2.752056 0.000000 0.000000 0.000000
0.117742 0.905435 2.864110 0.000000 0.000000 0.000000
0.264590 1.038318 2.707337 0.000000 0.000000 0.000000
0.247822 0.940131 2.975684 0.000000 0.000000 0.000000
0.120486 0.896652 2.880054 0.000000 0.000000 0.000000
0.102284 0.887958 2.876085 0.000000 0.000000 0.000000
0.351469 0.999471 2.874589 0.000000 0.000000 0.000000
0.208563 0.870081 3.002142 0.000000 0.000000 0.000000
0.097198 0.891663 2.867426 0.000000 0.000000 0.000000
0.346064 0.999279 2.880630 0.000000 0.000000 0.000000
0.094724 0.891112 2.863578 0.000000 0.000000 0.000000
0.328194 1.006440 2.842335 0.000000 0.000000 0.000000
0.187806 1.058713 2.693870 0.000000 0.000000 0.000000
0.165778 1.013327 2.756303 0.000000 0.000000 0.000000
0.161627 1.007322 2.751412 0.000000 0.000000 0.000000
0.159497 1.018589 2.736394 0.000000 0.000000 0.000000
0.212013 1.020318 2.762995 0.000000 0.000000 0.000000
0.092469 0.897785 2.847665 0.000000 0.000000 0.000000
0.228272 1.024492 2.746119 0.000000 0.000000 0.000000
0.240795 0.943312 2.962409 0.000000 0.000000 0.000000
0.106048 0.885423 2.882524 0.000000 0.000000 0.000000
0.099680 0.890247 2.868092 0.000000 0.000000 0.000000
0.343829 0.997201 2.883528 0.000000 0.000000 0.000000
0.204033 0.881917 2.998484 0.000000 0.000000 0.000000
0.089716 0.974461 2.731924 0.000000 0.000000 0.000000
0.097959 0.894076 2.862632 0.000000 0.000000 0.000000
0.205748 0.872890 3.006212 0.000000 0.000000 0.000000
0.351995 1.005762 2.865050 0.000000 0.000000 0.000000
0.337634 1.012929 2.822836 0.000000 0.000000 0.000000
0.106967 0.889746 2.878568 0.000000 0.000000 0.000000
0.344182 1.007555 2.840609 0.000000 0.000000 0.000000
0.121161 1.030654 2.691735 0.000000 0.000000 0.000000
0.140648 1.049955 2.687265 0.000000 0.000000 0.000000
0.315490 0.965318 2.972323 0.000000 0.000000 0.000000
0.337682 1.015249 2.785587 0.000000 0.000000 0.000000
