ply
format ascii 1.0
comment VCGLIB generated
obj_info Generated by SPFormer!
element vertex 884
property float x
property float y
property float z
property float nx
property float ny
property float nz
end_header
0.845418 0.580603 0.987522 0.000000 0.000000 0.000000
0.866355 0.956776 0.993550 0.000000 0.000000 0.000000
0.878904 0.623388 0.965515 0.000000 0.000000 0.000000
0.682425 0.570628 1.074079 0.000000 0.000000 0.000000
0.681627 0.609382 1.074471 0.000000 0.000000 0.000000
0.848352 0.570223 0.991435 0.000000 0.000000 0.000000
0.888859 0.627493 0.963993 0.000000 0.000000 0.000000
0.641919 0.540960 1.102644 0.000000 0.000000 0.000000
0.867938 0.626391 0.961939 0.000000 0.000000 0.000000
0.910599 0.640525 0.964111 0.000000 0.000000 0.000000
0.813891 0.790923 0.970960 0.000000 0.000000 0.000000
0.859754 0.615254 0.972279 0.000000 0.000000 0.000000
0.677409 0.590539 1.075448 0.000000 0.000000 0.000000
0.858422 0.574933 1.000452 0.000000 0.000000 0.000000
0.698593 0.833164 0.981719 0.000000 0.000000 0.000000
0.637256 0.544511 1.100180 0.000000 0.000000 0.000000
0.698136 0.533882 1.101858 0.000000 0.000000 0.000000
0.691126 0.535137 1.100445 0.000000 0.000000 0.000000
0.939238 0.656482 0.955128 0.000000 0.000000 0.000000
0.769431 0.543762 1.011450 0.000000 0.000000 0.000000
0.772483 0.533998 1.016866 0.000000 0.000000 0.000000
0.768158 0.542870 1.018194 0.000000 0.000000 0.000000
0.737402 0.880178 0.989883 0.000000 0.000000 0.000000
0.838907 0.591390 0.969225 0.000000 0.000000 0.000000
0.697107 0.534444 1.100033 0.000000 0.000000 0.000000
0.860054 0.600998 0.968447 0.000000 0.000000 0.000000
0.796824 0.537784 1.000967 0.000000 0.000000 0.000000
0.995538 0.780695 0.960296 0.000000 0.000000 0.000000
0.771087 0.796342 0.972053 0.000000 0.000000 0.000000
0.784348 0.565286 1.011435 0.000000 0.000000 0.000000
0.782698 0.537012 1.009567 0.000000 0.000000 0.000000
0.774699 0.535904 1.010462 0.000000 0.000000 0.000000
0.837093 0.613789 0.964395 0.000000 0.000000 0.000000
0.659903 0.728195 1.010336 0.000000 0.000000 0.000000
0.671628 0.644155 1.060299 0.000000 0.000000 0.000000
0.636229 0.544183 1.090280 0.000000 0.000000 0.000000
0.667045 0.654658 1.063394 0.000000 0.000000 0.000000
0.675618 0.656472 1.064887 0.000000 0.000000 0.000000
0.632456 0.553717 1.089448 0.000000 0.000000 0.000000
0.658994 0.609095 1.074936 0.000000 0.000000 0.000000
0.967898 0.715831 0.962197 0.000000 0.000000 0.000000
0.712994 0.541656 1.076884 0.000000 0.000000 0.000000
0.955762 0.875430 0.973810 0.000000 0.000000 0.000000
0.664824 0.634966 1.071150 0.000000 0.000000 0.000000
0.950973 0.891442 0.972241 0.000000 0.000000 0.000000
0.925326 0.686026 0.960823 0.000000 0.000000 0.000000
0.670674 0.650730 1.060670 0.000000 0.000000 0.000000
0.690010 0.607538 1.073413 0.000000 0.000000 0.000000
0.667082 0.642408 1.066169 0.000000 0.000000 0.000000
0.952283 0.690088 0.962622 0.000000 0.000000 0.000000
0.910883 0.636007 0.956529 0.000000 0.000000 0.000000
0.991082 0.786650 0.958646 0.000000 0.000000 0.000000
0.945181 0.691319 0.970227 0.000000 0.000000 0.000000
0.714958 0.527478 1.081183 0.000000 0.000000 0.000000
0.969119 0.875724 0.967175 0.000000 0.000000 0.000000
0.659548 0.627245 1.071545 0.000000 0.000000 0.000000
0.959826 0.890899 0.975514 0.000000 0.000000 0.000000
0.825783 0.936449 1.004030 0.000000 0.000000 0.000000
0.912612 0.675267 0.952239 0.000000 0.000000 0.000000
0.667650 0.639809 1.063541 0.000000 0.000000 0.000000
0.667353 0.655798 1.062346 0.000000 0.000000 0.000000
0.963018 0.692001 0.958193 0.000000 0.000000 0.000000
0.994461 0.764916 0.961588 0.000000 0.000000 0.000000
0.808098 0.850639 0.972090 0.000000 0.000000 0.000000
0.657218 0.544589 1.099347 0.000000 0.000000 0.000000
0.655181 0.534444 1.107924 0.000000 0.000000 0.000000
0.844037 0.951254 0.991752 0.000000 0.000000 0.000000
0.966752 0.881567 0.969435 0.000000 0.000000 0.000000
0.997088 0.781960 0.957606 0.000000 0.000000 0.000000
0.904584 0.837201 0.965868 0.000000 0.000000 0.000000
0.828836 0.554990 1.003718 0.000000 0.000000 0.000000
0.899791 0.819869 0.961171 0.000000 0.000000 0.000000
0.858860 0.613466 0.967388 0.000000 0.000000 0.000000
0.871831 0.593182 0.984073 0.000000 0.000000 0.000000
0.851215 0.942689 0.991891 0.000000 0.000000 0.000000
0.811200 0.556224 0.997134 0.000000 0.000000 0.000000
0.878805 0.603320 0.974036 0.000000 0.000000 0.000000
0.891213 0.824394 0.960013 0.000000 0.000000 0.000000
0.878500 0.589714 0.980272 0.000000 0.000000 0.000000
0.801779 0.603687 0.975614 0.000000 0.000000 0.000000
0.797692 0.537332 1.003286 0.000000 0.000000 0.000000
0.917539 0.644137 0.956058 0.000000 0.000000 0.000000
0.813395 0.762263 0.978205 0.000000 0.000000 0.000000
0.884509 0.596367 0.982773 0.000000 0.000000 0.000000
0.982059 0.808162 0.954895 0.000000 0.000000 0.000000
0.873965 0.910325 0.987007 0.000000 0.000000 0.000000
0.972944 0.703013 0.951859 0.000000 0.000000 0.000000
0.863829 0.606488 0.973583 0.000000 0.000000 0.000000
0.766897 0.895383 0.992787 0.000000 0.000000 0.000000
0.654649 0.610738 1.075051 0.000000 0.000000 0.000000
0.942339 0.769712 0.952608 0.000000 0.000000 0.000000
0.862701 0.598933 0.973952 0.000000 0.000000 0.000000
0.867798 0.602653 0.970376 0.000000 0.000000 0.000000
0.844634 0.612361 0.972818 0.000000 0.000000 0.000000
0.926169 0.767413 0.956417 0.000000 0.000000 0.000000
0.833177 0.599674 0.976341 0.000000 0.000000 0.000000
0.904629 0.824142 0.964575 0.000000 0.000000 0.000000
0.885067 0.597502 0.981323 0.000000 0.000000 0.000000
0.869190 0.585138 0.990381 0.000000 0.000000 0.000000
0.884415 0.612242 0.967332 0.000000 0.000000 0.000000
0.811598 0.559492 0.997420 0.000000 0.000000 0.000000
0.891563 0.609249 0.978917 0.000000 0.000000 0.000000
0.879680 0.593533 0.986657 0.000000 0.000000 0.000000
0.837124 0.577470 0.983250 0.000000 0.000000 0.000000
0.880648 0.794933 0.967919 0.000000 0.000000 0.000000
0.840590 0.599880 0.971931 0.000000 0.000000 0.000000
0.883619 0.592722 0.981740 0.000000 0.000000 0.000000
0.887094 0.844463 0.973638 0.000000 0.000000 0.000000
0.974180 0.818269 0.961570 0.000000 0.000000 0.000000
0.865113 0.920739 0.987857 0.000000 0.000000 0.000000
0.915816 0.788292 0.956530 0.000000 0.000000 0.000000
0.825184 0.759449 0.973042 0.000000 0.000000 0.000000
0.983539 0.721942 0.961846 0.000000 0.000000 0.000000
0.848431 0.599118 0.972156 0.000000 0.000000 0.000000
0.880643 0.598263 0.974089 0.000000 0.000000 0.000000
0.913325 0.792872 0.961425 0.000000 0.000000 0.000000
0.962794 0.865875 0.979581 0.000000 0.000000 0.000000
0.831679 0.594146 0.975585 0.000000 0.000000 0.000000
0.642768 0.541723 1.100376 0.000000 0.000000 0.000000
0.712891 0.833694 0.976501 0.000000 0.000000 0.000000
0.991688 0.798740 0.961456 0.000000 0.000000 0.000000
0.635683 0.553487 1.089809 0.000000 0.000000 0.000000
0.849284 0.567027 1.007156 0.000000 0.000000 0.000000
0.994303 0.784810 0.957439 0.000000 0.000000 0.000000
0.767876 0.656471 0.979366 0.000000 0.000000 0.000000
0.788132 0.812244 0.975941 0.000000 0.000000 0.000000
0.826653 0.680164 0.963255 0.000000 0.000000 0.000000
0.727521 0.816225 0.976478 0.000000 0.000000 0.000000
0.702231 0.827280 0.984936 0.000000 0.000000 0.000000
0.733382 0.839257 0.971769 0.000000 0.000000 0.000000
0.696244 0.817319 0.980762 0.000000 0.000000 0.000000
0.693190 0.769514 0.982622 0.000000 0.000000 0.000000
0.997608 0.802856 0.958112 0.000000 0.000000 0.000000
0.993043 0.815105 0.959179 0.000000 0.000000 0.000000
0.992594 0.811518 0.957157 0.000000 0.000000 0.000000
0.698053 0.825912 0.978296 0.000000 0.000000 0.000000
0.992483 0.806291 0.958129 0.000000 0.000000 0.000000
0.983966 0.823073 0.969174 0.000000 0.000000 0.000000
0.852981 0.602418 0.976598 0.000000 0.000000 0.000000
0.712981 0.781537 0.972416 0.000000 0.000000 0.000000
0.985098 0.797304 0.953388 0.000000 0.000000 0.000000
0.779527 0.666618 0.962304 0.000000 0.000000 0.000000
0.735847 0.836964 0.975884 0.000000 0.000000 0.000000
0.727663 0.784713 0.975675 0.000000 0.000000 0.000000
0.824938 0.680710 0.969723 0.000000 0.000000 0.000000
0.711157 0.825667 0.984880 0.000000 0.000000 0.000000
0.712928 0.794288 0.977207 0.000000 0.000000 0.000000
0.722882 0.826399 0.974963 0.000000 0.000000 0.000000
0.753908 0.806683 0.975578 0.000000 0.000000 0.000000
0.977430 0.840927 0.967175 0.000000 0.000000 0.000000
0.653114 0.592907 1.076297 0.000000 0.000000 0.000000
0.993646 0.819452 0.957149 0.000000 0.000000 0.000000
0.718444 0.835589 0.982825 0.000000 0.000000 0.000000
0.988234 0.811216 0.963387 0.000000 0.000000 0.000000
0.971054 0.883313 0.972735 0.000000 0.000000 0.000000
0.853689 0.612320 0.970525 0.000000 0.000000 0.000000
0.993315 0.796898 0.956436 0.000000 0.000000 0.000000
0.995075 0.775385 0.956157 0.000000 0.000000 0.000000
0.693175 0.535844 1.098112 0.000000 0.000000 0.000000
0.907974 0.618724 0.971613 0.000000 0.000000 0.000000
0.664475 0.636516 1.073241 0.000000 0.000000 0.000000
0.667532 0.542134 1.094945 0.000000 0.000000 0.000000
0.800294 0.617525 0.970023 0.000000 0.000000 0.000000
0.921158 0.748178 0.946339 0.000000 0.000000 0.000000
0.830725 0.942256 1.003133 0.000000 0.000000 0.000000
0.880041 0.595885 0.985790 0.000000 0.000000 0.000000
0.662179 0.536129 1.105816 0.000000 0.000000 0.000000
0.666443 0.635720 1.072514 0.000000 0.000000 0.000000
0.759558 0.824808 0.977038 0.000000 0.000000 0.000000
0.667172 0.625859 1.073777 0.000000 0.000000 0.000000
0.668124 0.646327 1.068975 0.000000 0.000000 0.000000
0.665602 0.632620 1.071043 0.000000 0.000000 0.000000
0.722585 0.835257 0.972543 0.000000 0.000000 0.000000
0.713698 0.826418 0.982784 0.000000 0.000000 0.000000
0.778214 0.806545 0.979122 0.000000 0.000000 0.000000
0.810951 0.603355 0.979509 0.000000 0.000000 0.000000
0.896157 0.610328 0.979777 0.000000 0.000000 0.000000
0.852481 0.579257 0.978687 0.000000 0.000000 0.000000
0.922764 0.722192 0.954203 0.000000 0.000000 0.000000
0.980106 0.720767 0.953604 0.000000 0.000000 0.000000
0.678419 0.636832 1.068075 0.000000 0.000000 0.000000
0.678955 0.642534 1.066114 0.000000 0.000000 0.000000
0.676485 0.640641 1.071346 0.000000 0.000000 0.000000
0.663729 0.635513 1.077648 0.000000 0.000000 0.000000
0.739468 0.849634 0.980901 0.000000 0.000000 0.000000
0.965066 0.732126 0.955515 0.000000 0.000000 0.000000
0.775631 0.904221 0.993371 0.000000 0.000000 0.000000
0.851051 0.572940 0.997631 0.000000 0.000000 0.000000
0.641749 0.552668 1.090854 0.000000 0.000000 0.000000
0.941398 0.908679 0.985545 0.000000 0.000000 0.000000
0.972464 0.865502 0.966795 0.000000 0.000000 0.000000
0.927271 0.742189 0.964537 0.000000 0.000000 0.000000
0.882088 0.763742 0.961467 0.000000 0.000000 0.000000
0.814484 0.865788 0.979103 0.000000 0.000000 0.000000
0.707093 0.614855 1.040053 0.000000 0.000000 0.000000
0.808419 0.774941 0.971306 0.000000 0.000000 0.000000
0.830251 0.638223 0.999766 0.000000 0.000000 0.000000
0.808764 0.913756 0.993924 0.000000 0.000000 0.000000
0.761755 0.572582 1.014736 0.000000 0.000000 0.000000
0.970111 0.790516 0.952745 0.000000 0.000000 0.000000
0.815048 0.835428 0.979229 0.000000 0.000000 0.000000
0.822808 0.814476 0.974345 0.000000 0.000000 0.000000
0.844325 0.876629 0.977500 0.000000 0.000000 0.000000
0.693948 0.646370 1.030781 0.000000 0.000000 0.000000
0.785252 0.737819 0.983909 0.000000 0.000000 0.000000
0.759740 0.565080 1.026825 0.000000 0.000000 0.000000
0.946673 0.837263 0.969211 0.000000 0.000000 0.000000
0.935313 0.915374 0.989039 0.000000 0.000000 0.000000
0.869834 0.766767 0.970023 0.000000 0.000000 0.000000
0.966118 0.763730 0.956594 0.000000 0.000000 0.000000
0.673039 0.607702 1.057581 0.000000 0.000000 0.000000
0.844252 0.927424 0.992492 0.000000 0.000000 0.000000
0.713890 0.634488 1.015773 0.000000 0.000000 0.000000
0.862157 0.810131 0.972632 0.000000 0.000000 0.000000
0.677426 0.620464 1.050297 0.000000 0.000000 0.000000
0.867741 0.815975 0.963925 0.000000 0.000000 0.000000
0.910359 0.668854 0.972294 0.000000 0.000000 0.000000
0.765686 0.703600 0.998028 0.000000 0.000000 0.000000
0.904631 0.866231 0.974854 0.000000 0.000000 0.000000
0.858431 0.849039 0.981389 0.000000 0.000000 0.000000
0.723116 0.711966 0.998146 0.000000 0.000000 0.000000
0.825053 0.676926 0.977308 0.000000 0.000000 0.000000
0.721308 0.613648 1.025487 0.000000 0.000000 0.000000
0.755812 0.535517 1.036803 0.000000 0.000000 0.000000
0.864041 0.613804 0.972802 0.000000 0.000000 0.000000
0.981126 0.722353 0.956297 0.000000 0.000000 0.000000
0.951181 0.887009 0.967615 0.000000 0.000000 0.000000
0.880791 0.679538 0.964647 0.000000 0.000000 0.000000
0.901112 0.643098 0.975124 0.000000 0.000000 0.000000
0.954602 0.738153 0.949904 0.000000 0.000000 0.000000
0.768272 0.605834 1.000595 0.000000 0.000000 0.000000
0.885240 0.689702 0.965050 0.000000 0.000000 0.000000
0.806552 0.881363 0.973438 0.000000 0.000000 0.000000
0.743080 0.724424 0.982949 0.000000 0.000000 0.000000
0.951412 0.821510 0.962370 0.000000 0.000000 0.000000
0.670852 0.615231 1.056404 0.000000 0.000000 0.000000
0.929597 0.852025 0.972952 0.000000 0.000000 0.000000
0.857386 0.817885 0.974675 0.000000 0.000000 0.000000
0.749807 0.769991 0.970361 0.000000 0.000000 0.000000
0.805368 0.849693 0.975641 0.000000 0.000000 0.000000
0.888114 0.770914 0.957931 0.000000 0.000000 0.000000
0.770888 0.908993 0.993902 0.000000 0.000000 0.000000
0.859491 0.950126 0.996478 0.000000 0.000000 0.000000
0.936640 0.693868 0.951651 0.000000 0.000000 0.000000
0.860385 0.842446 0.980634 0.000000 0.000000 0.000000
0.800909 0.869250 0.981783 0.000000 0.000000 0.000000
0.873224 0.803514 0.964409 0.000000 0.000000 0.000000
0.805520 0.617040 0.980104 0.000000 0.000000 0.000000
0.789563 0.756341 0.960969 0.000000 0.000000 0.000000
0.960111 0.695941 0.967892 0.000000 0.000000 0.000000
0.795309 0.912758 0.975569 0.000000 0.000000 0.000000
0.940061 0.906439 0.985867 0.000000 0.000000 0.000000
0.902071 0.887165 0.988043 0.000000 0.000000 0.000000
0.839994 0.856094 0.985181 0.000000 0.000000 0.000000
0.671836 0.635630 1.053908 0.000000 0.000000 0.000000
0.845278 0.894060 0.986027 0.000000 0.000000 0.000000
0.931003 0.867300 0.974699 0.000000 0.000000 0.000000
0.778644 0.535509 1.011346 0.000000 0.000000 0.000000
0.980112 0.753087 0.958053 0.000000 0.000000 0.000000
0.843155 0.699124 0.970489 0.000000 0.000000 0.000000
0.848207 0.703956 0.967575 0.000000 0.000000 0.000000
0.938389 0.866961 0.980088 0.000000 0.000000 0.000000
0.931285 0.709153 0.952956 0.000000 0.000000 0.000000
0.820019 0.924187 0.980892 0.000000 0.000000 0.000000
0.973170 0.709302 0.957615 0.000000 0.000000 0.000000
0.813670 0.721025 0.980232 0.000000 0.000000 0.000000
0.947681 0.902074 0.968018 0.000000 0.000000 0.000000
0.890284 0.949392 0.998268 0.000000 0.000000 0.000000
0.818781 0.932697 0.994535 0.000000 0.000000 0.000000
0.864492 0.921159 0.982556 0.000000 0.000000 0.000000
0.838042 0.832847 0.977648 0.000000 0.000000 0.000000
0.874283 0.901223 0.987106 0.000000 0.000000 0.000000
0.946776 0.880864 0.974148 0.000000 0.000000 0.000000
0.781843 0.556477 1.010956 0.000000 0.000000 0.000000
0.972897 0.719551 0.967413 0.000000 0.000000 0.000000
0.669891 0.753179 0.992034 0.000000 0.000000 0.000000
0.912542 0.764529 0.961096 0.000000 0.000000 0.000000
0.669942 0.592179 1.084172 0.000000 0.000000 0.000000
0.779459 0.708941 0.973523 0.000000 0.000000 0.000000
0.943530 0.911840 0.986248 0.000000 0.000000 0.000000
0.666274 0.757117 0.990098 0.000000 0.000000 0.000000
0.803823 0.812385 0.968032 0.000000 0.000000 0.000000
0.966982 0.727479 0.950907 0.000000 0.000000 0.000000
0.983128 0.741089 0.953235 0.000000 0.000000 0.000000
0.779991 0.897181 0.987818 0.000000 0.000000 0.000000
0.841182 0.835603 0.965949 0.000000 0.000000 0.000000
0.881772 0.948630 0.997375 0.000000 0.000000 0.000000
0.946007 0.906790 0.984669 0.000000 0.000000 0.000000
0.645449 0.565128 1.086304 0.000000 0.000000 0.000000
0.869123 0.919810 0.978830 0.000000 0.000000 0.000000
0.866285 0.883174 0.977093 0.000000 0.000000 0.000000
0.647809 0.584901 1.080260 0.000000 0.000000 0.000000
0.676954 0.672791 1.047752 0.000000 0.000000 0.000000
0.971798 0.702534 0.957580 0.000000 0.000000 0.000000
0.650443 0.589306 1.080605 0.000000 0.000000 0.000000
0.766237 0.841470 0.976349 0.000000 0.000000 0.000000
0.986422 0.736207 0.953396 0.000000 0.000000 0.000000
0.902368 0.739979 0.968781 0.000000 0.000000 0.000000
0.682556 0.595714 1.056861 0.000000 0.000000 0.000000
0.797114 0.784338 0.971062 0.000000 0.000000 0.000000
0.850601 0.647706 0.988382 0.000000 0.000000 0.000000
0.812739 0.892116 0.988562 0.000000 0.000000 0.000000
0.774059 0.555447 1.018841 0.000000 0.000000 0.000000
0.956545 0.791162 0.956617 0.000000 0.000000 0.000000
0.784908 0.872488 0.985601 0.000000 0.000000 0.000000
0.931693 0.794603 0.966152 0.000000 0.000000 0.000000
0.879391 0.856947 0.973997 0.000000 0.000000 0.000000
0.711236 0.664249 1.018332 0.000000 0.000000 0.000000
0.804714 0.758663 0.976852 0.000000 0.000000 0.000000
0.755690 0.556104 1.025163 0.000000 0.000000 0.000000
0.859308 0.806795 0.970023 0.000000 0.000000 0.000000
0.940770 0.896569 0.985036 0.000000 0.000000 0.000000
0.926101 0.768117 0.965882 0.000000 0.000000 0.000000
0.671158 0.639328 1.051418 0.000000 0.000000 0.000000
0.793083 0.803135 0.970656 0.000000 0.000000 0.000000
0.861273 0.910685 0.987485 0.000000 0.000000 0.000000
0.704366 0.623131 1.028428 0.000000 0.000000 0.000000
0.869823 0.839523 0.977868 0.000000 0.000000 0.000000
0.872220 0.774532 0.960458 0.000000 0.000000 0.000000
0.920141 0.714485 0.961661 0.000000 0.000000 0.000000
0.792376 0.708248 0.988966 0.000000 0.000000 0.000000
0.855755 0.825814 0.975688 0.000000 0.000000 0.000000
0.910703 0.869796 0.975055 0.000000 0.000000 0.000000
0.810013 0.758581 0.977172 0.000000 0.000000 0.000000
0.745579 0.843908 0.984747 0.000000 0.000000 0.000000
0.835497 0.755074 0.975663 0.000000 0.000000 0.000000
0.768374 0.673965 0.980098 0.000000 0.000000 0.000000
0.732833 0.720095 0.988167 0.000000 0.000000 0.000000
0.977345 0.720995 0.951569 0.000000 0.000000 0.000000
0.955447 0.875565 0.972575 0.000000 0.000000 0.000000
0.876510 0.730947 0.960533 0.000000 0.000000 0.000000
0.962007 0.883184 0.972458 0.000000 0.000000 0.000000
0.920529 0.641912 0.968673 0.000000 0.000000 0.000000
0.762088 0.592290 1.010210 0.000000 0.000000 0.000000
0.901748 0.737353 0.957846 0.000000 0.000000 0.000000
0.803256 0.859088 0.977703 0.000000 0.000000 0.000000
0.745789 0.740695 0.973012 0.000000 0.000000 0.000000
0.924129 0.759854 0.965921 0.000000 0.000000 0.000000
0.682376 0.634513 1.035625 0.000000 0.000000 0.000000
0.930713 0.760687 0.966126 0.000000 0.000000 0.000000
0.831010 0.813522 0.969035 0.000000 0.000000 0.000000
0.734529 0.750412 0.971498 0.000000 0.000000 0.000000
0.777922 0.834622 0.977658 0.000000 0.000000 0.000000
0.887305 0.773205 0.957179 0.000000 0.000000 0.000000
0.827371 0.694172 0.970570 0.000000 0.000000 0.000000
0.765373 0.869986 0.981728 0.000000 0.000000 0.000000
0.864549 0.950953 0.994976 0.000000 0.000000 0.000000
0.941332 0.733591 0.954131 0.000000 0.000000 0.000000
0.869889 0.866247 0.978497 0.000000 0.000000 0.000000
0.788574 0.863691 0.978243 0.000000 0.000000 0.000000
0.842709 0.769420 0.967103 0.000000 0.000000 0.000000
0.865375 0.878166 0.982307 0.000000 0.000000 0.000000
0.952903 0.705887 0.961022 0.000000 0.000000 0.000000
0.804662 0.912777 0.976643 0.000000 0.000000 0.000000
0.790945 0.817603 0.974891 0.000000 0.000000 0.000000
0.867198 0.892978 0.983575 0.000000 0.000000 0.000000
0.663175 0.709942 1.027200 0.000000 0.000000 0.000000
0.670722 0.624211 1.051778 0.000000 0.000000 0.000000
0.825958 0.922769 0.994355 0.000000 0.000000 0.000000
0.820325 0.884875 0.980710 0.000000 0.000000 0.000000
0.931307 0.857723 0.971521 0.000000 0.000000 0.000000
0.768998 0.529496 1.019122 0.000000 0.000000 0.000000
0.744264 0.719887 1.004028 0.000000 0.000000 0.000000
0.828339 0.672574 0.973518 0.000000 0.000000 0.000000
0.782614 0.808648 0.974961 0.000000 0.000000 0.000000
0.981465 0.839588 0.960783 0.000000 0.000000 0.000000
0.942617 0.830681 0.966896 0.000000 0.000000 0.000000
0.935180 0.887057 0.984486 0.000000 0.000000 0.000000
0.915998 0.704387 0.964439 0.000000 0.000000 0.000000
0.802114 0.923392 0.980335 0.000000 0.000000 0.000000
0.979466 0.717506 0.955222 0.000000 0.000000 0.000000
0.941388 0.905380 0.983591 0.000000 0.000000 0.000000
0.830500 0.933666 0.993243 0.000000 0.000000 0.000000
0.872804 0.912299 0.990051 0.000000 0.000000 0.000000
0.881129 0.853261 0.980594 0.000000 0.000000 0.000000
0.841534 0.906382 0.984377 0.000000 0.000000 0.000000
0.982634 0.728343 0.949114 0.000000 0.000000 0.000000
0.946125 0.884249 0.969978 0.000000 0.000000 0.000000
0.859258 0.575416 1.000675 0.000000 0.000000 0.000000
0.784492 0.534336 1.008703 0.000000 0.000000 0.000000
0.688027 0.769368 0.986283 0.000000 0.000000 0.000000
0.905484 0.761563 0.960917 0.000000 0.000000 0.000000
0.685895 0.576132 1.079114 0.000000 0.000000 0.000000
0.769658 0.687384 0.981116 0.000000 0.000000 0.000000
0.784101 0.783766 0.965840 0.000000 0.000000 0.000000
0.756435 0.556097 1.013186 0.000000 0.000000 0.000000
0.985468 0.751468 0.951949 0.000000 0.000000 0.000000
0.966680 0.715859 0.950685 0.000000 0.000000 0.000000
0.978082 0.855392 0.964145 0.000000 0.000000 0.000000
0.875085 0.742829 0.967349 0.000000 0.000000 0.000000
0.845792 0.789849 0.971075 0.000000 0.000000 0.000000
0.662401 0.625366 1.071502 0.000000 0.000000 0.000000
0.866048 0.581751 0.999484 0.000000 0.000000 0.000000
0.764392 0.592004 1.004607 0.000000 0.000000 0.000000
0.940456 0.795329 0.959659 0.000000 0.000000 0.000000
0.651687 0.583501 1.085942 0.000000 0.000000 0.000000
0.971505 0.722675 0.951953 0.000000 0.000000 0.000000
0.978049 0.722615 0.958746 0.000000 0.000000 0.000000
0.724018 0.539892 1.070415 0.000000 0.000000 0.000000
0.668999 0.539239 1.101385 0.000000 0.000000 0.000000
0.666321 0.536495 1.104741 0.000000 0.000000 0.000000
0.668678 0.533845 1.105701 0.000000 0.000000 0.000000
0.984731 0.756265 0.951391 0.000000 0.000000 0.000000
0.660381 0.535310 1.106031 0.000000 0.000000 0.000000
0.635020 0.560168 1.080515 0.000000 0.000000 0.000000
0.802414 0.537309 1.007459 0.000000 0.000000 0.000000
0.640759 0.557731 1.088677 0.000000 0.000000 0.000000
0.909338 0.761596 0.958346 0.000000 0.000000 0.000000
0.814465 0.546944 1.003050 0.000000 0.000000 0.000000
0.770691 0.565884 1.000021 0.000000 0.000000 0.000000
0.922755 0.843413 0.970444 0.000000 0.000000 0.000000
0.814482 0.768406 0.972257 0.000000 0.000000 0.000000
0.813071 0.550810 1.003633 0.000000 0.000000 0.000000
0.792425 0.933946 0.997146 0.000000 0.000000 0.000000
0.967678 0.698334 0.946324 0.000000 0.000000 0.000000
0.981074 0.720548 0.963933 0.000000 0.000000 0.000000
0.736793 0.635730 1.008013 0.000000 0.000000 0.000000
0.954774 0.773162 0.948958 0.000000 0.000000 0.000000
0.722582 0.527606 1.084163 0.000000 0.000000 0.000000
0.773924 0.597329 1.000118 0.000000 0.000000 0.000000
0.783883 0.545314 1.012789 0.000000 0.000000 0.000000
0.977150 0.759871 0.951315 0.000000 0.000000 0.000000
0.985195 0.763464 0.949383 0.000000 0.000000 0.000000
0.947507 0.841924 0.954343 0.000000 0.000000 0.000000
0.945690 0.810227 0.959996 0.000000 0.000000 0.000000
0.790183 0.640791 0.971370 0.000000 0.000000 0.000000
0.871932 0.792240 0.961985 0.000000 0.000000 0.000000
0.861007 0.836199 0.978875 0.000000 0.000000 0.000000
0.788891 0.854046 0.982235 0.000000 0.000000 0.000000
0.830518 0.777607 0.975827 0.000000 0.000000 0.000000
0.984155 0.757499 0.951070 0.000000 0.000000 0.000000
0.867696 0.712455 0.965602 0.000000 0.000000 0.000000
0.880774 0.878416 0.987581 0.000000 0.000000 0.000000
0.814743 0.564924 1.009406 0.000000 0.000000 0.000000
0.924346 0.864754 0.978214 0.000000 0.000000 0.000000
0.743558 0.531182 1.053926 0.000000 0.000000 0.000000
0.780391 0.917630 0.993400 0.000000 0.000000 0.000000
0.969240 0.699145 0.952213 0.000000 0.000000 0.000000
0.974838 0.705867 0.953594 0.000000 0.000000 0.000000
0.978878 0.773394 0.950676 0.000000 0.000000 0.000000
0.962347 0.808129 0.957620 0.000000 0.000000 0.000000
0.737690 0.525995 1.056535 0.000000 0.000000 0.000000
0.734556 0.586786 1.022019 0.000000 0.000000 0.000000
0.722407 0.528807 1.079463 0.000000 0.000000 0.000000
0.978564 0.770558 0.951179 0.000000 0.000000 0.000000
0.988202 0.762706 0.953222 0.000000 0.000000 0.000000
0.969085 0.762659 0.973965 0.000000 0.000000 0.000000
0.902413 0.792174 0.953845 0.000000 0.000000 0.000000
0.889681 0.888621 0.987107 0.000000 0.000000 0.000000
0.805152 0.860156 0.981246 0.000000 0.000000 0.000000
0.833514 0.810094 0.973281 0.000000 0.000000 0.000000
0.984481 0.755585 0.964710 0.000000 0.000000 0.000000
0.858676 0.705624 0.967775 0.000000 0.000000 0.000000
0.880376 0.903790 0.999591 0.000000 0.000000 0.000000
0.642837 0.541633 1.100590 0.000000 0.000000 0.000000
0.644295 0.581352 1.080168 0.000000 0.000000 0.000000
0.637472 0.554289 1.091695 0.000000 0.000000 0.000000
0.963448 0.893164 0.984607 0.000000 0.000000 0.000000
0.745639 0.881037 0.993488 0.000000 0.000000 0.000000
0.665681 0.758043 0.985964 0.000000 0.000000 0.000000
0.659435 0.751647 0.994278 0.000000 0.000000 0.000000
0.740658 0.889281 0.993450 0.000000 0.000000 0.000000
0.728594 0.846504 0.987268 0.000000 0.000000 0.000000
0.777224 0.718739 0.958711 0.000000 0.000000 0.000000
0.720144 0.859681 0.987423 0.000000 0.000000 0.000000
0.944840 0.665027 0.948028 0.000000 0.000000 0.000000
0.941036 0.656930 0.948778 0.000000 0.000000 0.000000
0.845056 0.568197 0.999769 0.000000 0.000000 0.000000
0.934990 0.720107 0.955009 0.000000 0.000000 0.000000
0.927043 0.918944 0.998003 0.000000 0.000000 0.000000
0.758671 0.850194 0.981485 0.000000 0.000000 0.000000
0.753339 0.870383 0.986423 0.000000 0.000000 0.000000
0.960538 0.682264 0.946497 0.000000 0.000000 0.000000
0.727494 0.832146 0.983675 0.000000 0.000000 0.000000
0.743403 0.837429 0.981683 0.000000 0.000000 0.000000
0.696232 0.770160 0.988119 0.000000 0.000000 0.000000
0.685215 0.761851 0.990496 0.000000 0.000000 0.000000
0.745129 0.638154 1.007409 0.000000 0.000000 0.000000
0.967509 0.688924 0.946125 0.000000 0.000000 0.000000
0.717936 0.812476 0.982441 0.000000 0.000000 0.000000
0.932475 0.911778 0.994761 0.000000 0.000000 0.000000
0.661117 0.719591 1.015631 0.000000 0.000000 0.000000
0.662498 0.694439 1.042919 0.000000 0.000000 0.000000
0.662122 0.706990 1.028196 0.000000 0.000000 0.000000
0.986914 0.732617 0.955130 0.000000 0.000000 0.000000
0.688560 0.759811 0.991315 0.000000 0.000000 0.000000
0.689178 0.564248 1.070469 0.000000 0.000000 0.000000
0.945225 0.674009 0.947851 0.000000 0.000000 0.000000
0.660349 0.717866 1.019372 0.000000 0.000000 0.000000
0.909350 0.906572 0.997289 0.000000 0.000000 0.000000
0.966899 0.692922 0.946559 0.000000 0.000000 0.000000
0.660239 0.715120 1.022490 0.000000 0.000000 0.000000
0.831912 0.703319 0.968590 0.000000 0.000000 0.000000
0.668900 0.726025 1.009214 0.000000 0.000000 0.000000
0.662440 0.698583 1.038882 0.000000 0.000000 0.000000
0.667674 0.755493 0.993446 0.000000 0.000000 0.000000
0.659596 0.716582 1.023523 0.000000 0.000000 0.000000
0.967128 0.697263 0.949759 0.000000 0.000000 0.000000
0.726900 0.599596 1.017566 0.000000 0.000000 0.000000
0.894712 0.782159 0.962179 0.000000 0.000000 0.000000
0.989890 0.767543 0.953808 0.000000 0.000000 0.000000
0.968778 0.690261 0.945651 0.000000 0.000000 0.000000
0.989297 0.777742 0.956630 0.000000 0.000000 0.000000
0.760732 0.905700 0.992656 0.000000 0.000000 0.000000
0.994293 0.764242 0.954628 0.000000 0.000000 0.000000
0.690075 0.811996 0.981203 0.000000 0.000000 0.000000
0.670186 0.769141 0.988635 0.000000 0.000000 0.000000
0.674601 0.717772 1.029411 0.000000 0.000000 0.000000
0.985011 0.779900 0.957084 0.000000 0.000000 0.000000
0.639161 0.568921 1.082882 0.000000 0.000000 0.000000
0.922437 0.738258 0.960787 0.000000 0.000000 0.000000
0.883150 0.882454 0.988849 0.000000 0.000000 0.000000
0.666648 0.708375 1.024888 0.000000 0.000000 0.000000
0.993679 0.821178 0.959831 0.000000 0.000000 0.000000
0.960817 0.688304 0.940895 0.000000 0.000000 0.000000
0.677137 0.571079 1.074389 0.000000 0.000000 0.000000
0.937321 0.690216 0.954800 0.000000 0.000000 0.000000
0.664576 0.716674 1.018325 0.000000 0.000000 0.000000
0.969964 0.708172 0.955171 0.000000 0.000000 0.000000
0.668943 0.708432 1.024268 0.000000 0.000000 0.000000
0.851183 0.729650 0.955001 0.000000 0.000000 0.000000
0.674142 0.738673 1.003685 0.000000 0.000000 0.000000
0.953569 0.682074 0.953539 0.000000 0.000000 0.000000
0.662669 0.695864 1.041690 0.000000 0.000000 0.000000
0.661369 0.712948 1.028932 0.000000 0.000000 0.000000
0.675010 0.765275 0.990046 0.000000 0.000000 0.000000
0.661594 0.704607 1.035283 0.000000 0.000000 0.000000
0.659590 0.716552 1.022923 0.000000 0.000000 0.000000
0.731483 0.592562 1.019460 0.000000 0.000000 0.000000
0.984356 0.765287 0.953284 0.000000 0.000000 0.000000
0.685657 0.719642 1.009102 0.000000 0.000000 0.000000
0.993696 0.771039 0.962491 0.000000 0.000000 0.000000
0.661259 0.728974 1.013226 0.000000 0.000000 0.000000
0.842979 0.635465 0.963283 0.000000 0.000000 0.000000
0.666493 0.764458 0.988669 0.000000 0.000000 0.000000
0.667643 0.765519 0.985134 0.000000 0.000000 0.000000
0.638363 0.583519 1.082357 0.000000 0.000000 0.000000
0.909316 0.724054 0.964166 0.000000 0.000000 0.000000
0.869242 0.854314 0.982494 0.000000 0.000000 0.000000
0.665638 0.716698 1.018268 0.000000 0.000000 0.000000
0.971913 0.691233 0.944279 0.000000 0.000000 0.000000
0.883005 0.656351 0.959716 0.000000 0.000000 0.000000
0.652337 0.570186 1.080186 0.000000 0.000000 0.000000
0.896393 0.607245 0.975649 0.000000 0.000000 0.000000
0.732987 0.878172 0.987596 0.000000 0.000000 0.000000
0.636790 0.557589 1.081470 0.000000 0.000000 0.000000
0.639452 0.567108 1.077507 0.000000 0.000000 0.000000
0.891958 0.608430 0.973390 0.000000 0.000000 0.000000
0.728440 0.878800 0.990424 0.000000 0.000000 0.000000
0.888714 0.605575 0.974499 0.000000 0.000000 0.000000
0.734253 0.881607 0.990891 0.000000 0.000000 0.000000
0.736879 0.875326 0.991614 0.000000 0.000000 0.000000
0.670418 0.769288 0.987512 0.000000 0.000000 0.000000
0.774940 0.860224 0.984474 0.000000 0.000000 0.000000
0.799540 0.895651 0.990236 0.000000 0.000000 0.000000
0.733803 0.856035 0.988967 0.000000 0.000000 0.000000
0.970527 0.700150 0.948730 0.000000 0.000000 0.000000
0.823462 0.544944 1.010508 0.000000 0.000000 0.000000
0.922316 0.650049 0.953184 0.000000 0.000000 0.000000
0.894613 0.601339 0.981841 0.000000 0.000000 0.000000
0.941014 0.875164 0.979108 0.000000 0.000000 0.000000
0.756160 0.881408 0.989781 0.000000 0.000000 0.000000
0.727684 0.860372 0.988175 0.000000 0.000000 0.000000
0.730350 0.863233 0.991430 0.000000 0.000000 0.000000
0.734907 0.873156 0.989132 0.000000 0.000000 0.000000
0.883832 0.593625 0.978947 0.000000 0.000000 0.000000
0.869353 0.590363 0.969323 0.000000 0.000000 0.000000
0.747762 0.884029 0.989455 0.000000 0.000000 0.000000
0.783740 0.923385 0.997051 0.000000 0.000000 0.000000
0.725357 0.850509 0.985331 0.000000 0.000000 0.000000
0.664687 0.745226 1.000119 0.000000 0.000000 0.000000
0.776092 0.863029 0.986501 0.000000 0.000000 0.000000
0.780127 0.885612 0.989603 0.000000 0.000000 0.000000
0.891245 0.595638 0.986483 0.000000 0.000000 0.000000
0.768498 0.900559 0.989829 0.000000 0.000000 0.000000
0.808801 0.535755 1.005105 0.000000 0.000000 0.000000
0.915935 0.653162 0.951103 0.000000 0.000000 0.000000
0.871801 0.585741 0.988368 0.000000 0.000000 0.000000
0.968192 0.871399 0.966854 0.000000 0.000000 0.000000
0.764944 0.878830 0.990483 0.000000 0.000000 0.000000
0.724505 0.867457 0.989855 0.000000 0.000000 0.000000
0.740991 0.887772 0.991140 0.000000 0.000000 0.000000
0.914518 0.653556 0.946245 0.000000 0.000000 0.000000
0.894103 0.612129 0.969822 0.000000 0.000000 0.000000
0.879241 0.599960 0.971265 0.000000 0.000000 0.000000
0.746532 0.861573 0.986744 0.000000 0.000000 0.000000
0.736851 0.877617 0.987602 0.000000 0.000000 0.000000
0.667847 0.738621 1.007333 0.000000 0.000000 0.000000
0.864036 0.572871 0.994462 0.000000 0.000000 0.000000
0.928443 0.658053 0.946774 0.000000 0.000000 0.000000
0.949431 0.907225 0.979327 0.000000 0.000000 0.000000
0.985062 0.736206 0.965741 0.000000 0.000000 0.000000
0.951794 0.667326 0.950241 0.000000 0.000000 0.000000
0.916063 0.624165 0.968585 0.000000 0.000000 0.000000
0.930190 0.653484 0.951991 0.000000 0.000000 0.000000
0.982980 0.729738 0.955413 0.000000 0.000000 0.000000
0.682820 0.783719 0.983104 0.000000 0.000000 0.000000
0.862476 0.577329 0.995742 0.000000 0.000000 0.000000
0.935561 0.675608 0.943710 0.000000 0.000000 0.000000
0.932670 0.662842 0.947877 0.000000 0.000000 0.000000
0.708229 0.801671 0.983039 0.000000 0.000000 0.000000
0.878151 0.647375 0.962933 0.000000 0.000000 0.000000
0.669525 0.772741 0.990832 0.000000 0.000000 0.000000
0.666073 0.763796 0.992283 0.000000 0.000000 0.000000
0.929197 0.649938 0.951954 0.000000 0.000000 0.000000
0.935764 0.907233 0.980304 0.000000 0.000000 0.000000
0.975542 0.727581 0.951501 0.000000 0.000000 0.000000
0.953179 0.669813 0.950134 0.000000 0.000000 0.000000
0.926082 0.657257 0.951665 0.000000 0.000000 0.000000
0.982939 0.726776 0.961385 0.000000 0.000000 0.000000
0.684237 0.778666 0.984265 0.000000 0.000000 0.000000
0.856050 0.571720 0.999422 0.000000 0.000000 0.000000
0.915034 0.667178 0.946849 0.000000 0.000000 0.000000
0.897069 0.735027 0.951082 0.000000 0.000000 0.000000
0.933868 0.655607 0.948931 0.000000 0.000000 0.000000
0.708668 0.818835 0.975004 0.000000 0.000000 0.000000
0.982612 0.765047 0.962299 0.000000 0.000000 0.000000
0.896092 0.671251 0.954345 0.000000 0.000000 0.000000
0.666424 0.768692 0.989234 0.000000 0.000000 0.000000
0.667186 0.772634 0.988514 0.000000 0.000000 0.000000
0.768697 0.895179 0.985664 0.000000 0.000000 0.000000
0.658665 0.533780 1.108901 0.000000 0.000000 0.000000
0.655515 0.727490 1.012855 0.000000 0.000000 0.000000
0.761790 0.911320 0.995156 0.000000 0.000000 0.000000
0.657636 0.727968 1.009745 0.000000 0.000000 0.000000
0.780036 0.863374 1.003721 0.000000 0.000000 0.000000
0.927797 0.644807 0.964861 0.000000 0.000000 0.000000
0.987792 0.836552 0.963417 0.000000 0.000000 0.000000
0.775837 0.805304 0.973160 0.000000 0.000000 0.000000
0.906869 0.665704 0.971454 0.000000 0.000000 0.000000
0.902494 0.613690 0.971768 0.000000 0.000000 0.000000
0.748499 0.907456 0.996326 0.000000 0.000000 0.000000
0.923086 0.635092 0.975943 0.000000 0.000000 0.000000
0.795830 0.797839 0.967996 0.000000 0.000000 0.000000
0.767421 0.532125 1.016865 0.000000 0.000000 0.000000
0.893075 0.814159 0.965035 0.000000 0.000000 0.000000
0.919913 0.816593 0.960853 0.000000 0.000000 0.000000
0.896347 0.844274 0.969412 0.000000 0.000000 0.000000
0.903983 0.814714 0.961637 0.000000 0.000000 0.000000
0.925037 0.763030 0.960068 0.000000 0.000000 0.000000
0.986848 0.830960 0.957488 0.000000 0.000000 0.000000
0.936604 0.817205 0.966570 0.000000 0.000000 0.000000
0.828065 0.840199 0.969772 0.000000 0.000000 0.000000
0.715652 0.858611 0.990044 0.000000 0.000000 0.000000
0.764782 0.911691 0.994877 0.000000 0.000000 0.000000
0.781085 0.854644 1.002928 0.000000 0.000000 0.000000
0.923827 0.640891 0.966867 0.000000 0.000000 0.000000
0.772812 0.531567 1.015549 0.000000 0.000000 0.000000
0.934341 0.647153 0.959528 0.000000 0.000000 0.000000
0.757974 0.917417 0.998207 0.000000 0.000000 0.000000
0.987892 0.835241 0.960180 0.000000 0.000000 0.000000
0.897654 0.785079 0.960014 0.000000 0.000000 0.000000
0.911444 0.813640 0.961212 0.000000 0.000000 0.000000
0.917707 0.827562 0.963280 0.000000 0.000000 0.000000
0.958589 0.853015 0.969768 0.000000 0.000000 0.000000
0.993376 0.829667 0.957016 0.000000 0.000000 0.000000
0.935364 0.749933 0.960988 0.000000 0.000000 0.000000
0.712736 0.854902 0.988668 0.000000 0.000000 0.000000
0.770311 0.911003 0.994141 0.000000 0.000000 0.000000
0.777418 0.926965 0.997556 0.000000 0.000000 0.000000
0.636495 0.550665 1.092579 0.000000 0.000000 0.000000
0.649595 0.532476 1.114263 0.000000 0.000000 0.000000
0.991387 0.751177 0.952651 0.000000 0.000000 0.000000
0.653738 0.597289 1.074975 0.000000 0.000000 0.000000
0.633127 0.555915 1.088781 0.000000 0.000000 0.000000
0.668804 0.683145 1.053376 0.000000 0.000000 0.000000
0.680894 0.531239 1.098873 0.000000 0.000000 0.000000
0.640038 0.548973 1.094116 0.000000 0.000000 0.000000
0.636085 0.551087 1.092823 0.000000 0.000000 0.000000
0.840265 0.935457 1.004121 0.000000 0.000000 0.000000
0.669604 0.681305 1.049023 0.000000 0.000000 0.000000
0.636619 0.550790 1.091927 0.000000 0.000000 0.000000
0.813727 0.549351 1.002917 0.000000 0.000000 0.000000
0.670521 0.661732 1.060271 0.000000 0.000000 0.000000
0.668141 0.678069 1.055527 0.000000 0.000000 0.000000
0.855095 0.940009 0.990080 0.000000 0.000000 0.000000
0.693192 0.696813 1.034491 0.000000 0.000000 0.000000
0.832776 0.930389 1.001733 0.000000 0.000000 0.000000
0.915799 0.634356 0.961895 0.000000 0.000000 0.000000
0.994106 0.758261 0.956011 0.000000 0.000000 0.000000
0.776844 0.895278 0.972824 0.000000 0.000000 0.000000
0.809198 0.544620 1.000383 0.000000 0.000000 0.000000
0.931263 0.777122 0.963778 0.000000 0.000000 0.000000
0.811412 0.832838 0.976420 0.000000 0.000000 0.000000
0.792783 0.536529 1.004954 0.000000 0.000000 0.000000
0.833357 0.957895 1.000048 0.000000 0.000000 0.000000
0.682157 0.667186 1.049291 0.000000 0.000000 0.000000
0.674112 0.682439 1.045945 0.000000 0.000000 0.000000
0.804300 0.925673 0.996594 0.000000 0.000000 0.000000
0.679747 0.706606 1.033709 0.000000 0.000000 0.000000
0.822013 0.554111 1.001249 0.000000 0.000000 0.000000
0.978378 0.744775 0.950710 0.000000 0.000000 0.000000
0.811197 0.550310 0.998137 0.000000 0.000000 0.000000
0.803586 0.540869 1.004940 0.000000 0.000000 0.000000
0.927369 0.738726 0.957513 0.000000 0.000000 0.000000
0.804350 0.830528 0.972081 0.000000 0.000000 0.000000
0.789876 0.531121 1.000540 0.000000 0.000000 0.000000
0.787839 0.535258 1.004636 0.000000 0.000000 0.000000
0.664927 0.624796 1.078145 0.000000 0.000000 0.000000
0.701360 0.532675 1.096076 0.000000 0.000000 0.000000
0.781611 0.533147 1.008040 0.000000 0.000000 0.000000
0.636678 0.556647 1.089880 0.000000 0.000000 0.000000
0.787234 0.536002 1.005666 0.000000 0.000000 0.000000
0.843442 0.951053 0.996639 0.000000 0.000000 0.000000
0.781749 0.533396 1.007867 0.000000 0.000000 0.000000
0.722280 0.861651 0.987720 0.000000 0.000000 0.000000
0.781624 0.540182 1.009111 0.000000 0.000000 0.000000
0.858168 0.956031 0.994105 0.000000 0.000000 0.000000
0.788967 0.534710 1.003234 0.000000 0.000000 0.000000
0.772762 0.729057 0.959812 0.000000 0.000000 0.000000
0.721538 0.846530 0.985807 0.000000 0.000000 0.000000
0.717428 0.851056 0.989141 0.000000 0.000000 0.000000
0.661010 0.701430 1.037934 0.000000 0.000000 0.000000
0.633998 0.554016 1.088406 0.000000 0.000000 0.000000
0.786971 0.536548 1.003026 0.000000 0.000000 0.000000
0.961837 0.684904 0.954100 0.000000 0.000000 0.000000
0.963209 0.677823 0.948497 0.000000 0.000000 0.000000
0.944679 0.658453 0.954276 0.000000 0.000000 0.000000
0.887823 0.601253 0.969977 0.000000 0.000000 0.000000
0.657169 0.698711 1.042791 0.000000 0.000000 0.000000
0.835903 0.950567 0.996345 0.000000 0.000000 0.000000
0.860599 0.952290 1.000545 0.000000 0.000000 0.000000
0.839805 0.952493 0.996746 0.000000 0.000000 0.000000
0.946724 0.660453 0.951413 0.000000 0.000000 0.000000
0.956485 0.673787 0.949431 0.000000 0.000000 0.000000
0.653956 0.588752 1.080557 0.000000 0.000000 0.000000
0.801867 0.939717 0.999937 0.000000 0.000000 0.000000
0.937053 0.651193 0.958842 0.000000 0.000000 0.000000
0.895628 0.606640 0.964675 0.000000 0.000000 0.000000
0.830144 0.947614 0.999789 0.000000 0.000000 0.000000
0.661586 0.532838 1.109783 0.000000 0.000000 0.000000
0.717220 0.528546 1.073620 0.000000 0.000000 0.000000
0.807155 0.944779 1.000216 0.000000 0.000000 0.000000
0.761446 0.531382 1.016410 0.000000 0.000000 0.000000
0.721481 0.531639 1.072342 0.000000 0.000000 0.000000
0.688294 0.529386 1.100527 0.000000 0.000000 0.000000
0.967095 0.695954 0.947425 0.000000 0.000000 0.000000
0.638887 0.548927 1.095393 0.000000 0.000000 0.000000
0.712633 0.572816 1.050461 0.000000 0.000000 0.000000
0.708898 0.542502 1.082717 0.000000 0.000000 0.000000
0.729913 0.527487 1.061936 0.000000 0.000000 0.000000
0.731880 0.559260 1.061731 0.000000 0.000000 0.000000
0.718607 0.527974 1.082889 0.000000 0.000000 0.000000
0.807644 0.937490 0.998458 0.000000 0.000000 0.000000
0.956599 0.850004 0.965305 0.000000 0.000000 0.000000
0.650434 0.589551 1.080235 0.000000 0.000000 0.000000
0.711468 0.529842 1.088800 0.000000 0.000000 0.000000
0.724056 0.530251 1.071763 0.000000 0.000000 0.000000
0.979006 0.839907 0.968708 0.000000 0.000000 0.000000
0.736475 0.535237 1.062871 0.000000 0.000000 0.000000
0.971520 0.709045 0.952593 0.000000 0.000000 0.000000
0.963656 0.700605 0.962758 0.000000 0.000000 0.000000
0.715128 0.578558 1.044415 0.000000 0.000000 0.000000
0.712780 0.537504 1.085988 0.000000 0.000000 0.000000
0.731937 0.532583 1.064556 0.000000 0.000000 0.000000
0.708249 0.550680 1.065991 0.000000 0.000000 0.000000
0.714198 0.528596 1.080153 0.000000 0.000000 0.000000
0.790847 0.933507 0.999944 0.000000 0.000000 0.000000
0.964959 0.845374 0.963335 0.000000 0.000000 0.000000
0.640777 0.574316 1.079727 0.000000 0.000000 0.000000
0.700874 0.531658 1.094601 0.000000 0.000000 0.000000
0.765512 0.528401 1.026309 0.000000 0.000000 0.000000
0.725817 0.524693 1.069900 0.000000 0.000000 0.000000
0.717204 0.536676 1.088655 0.000000 0.000000 0.000000
0.988751 0.821550 0.961288 0.000000 0.000000 0.000000
0.723394 0.533235 1.074710 0.000000 0.000000 0.000000
0.968064 0.762144 0.951025 0.000000 0.000000 0.000000
0.971627 0.712216 0.953091 0.000000 0.000000 0.000000
0.971188 0.707012 0.955026 0.000000 0.000000 0.000000
0.968724 0.885832 0.970951 0.000000 0.000000 0.000000
0.914903 0.905843 1.004434 0.000000 0.000000 0.000000
0.651201 0.536845 1.110506 0.000000 0.000000 0.000000
0.821319 0.945065 0.995128 0.000000 0.000000 0.000000
0.825420 0.955949 0.997993 0.000000 0.000000 0.000000
0.667317 0.682795 1.052299 0.000000 0.000000 0.000000
0.746937 0.881463 0.987066 0.000000 0.000000 0.000000
0.633324 0.553940 1.090690 0.000000 0.000000 0.000000
0.669814 0.671777 1.056580 0.000000 0.000000 0.000000
0.883058 0.648282 0.952223 0.000000 0.000000 0.000000
0.878977 0.678461 0.961946 0.000000 0.000000 0.000000
0.774818 0.920209 0.996531 0.000000 0.000000 0.000000
0.835126 0.934008 0.994570 0.000000 0.000000 0.000000
0.830612 0.938996 0.992401 0.000000 0.000000 0.000000
0.840173 0.947761 0.994065 0.000000 0.000000 0.000000
0.703280 0.532180 1.095523 0.000000 0.000000 0.000000
0.740378 0.870035 0.989126 0.000000 0.000000 0.000000
0.895002 0.676914 0.962232 0.000000 0.000000 0.000000
0.845696 0.699571 0.951425 0.000000 0.000000 0.000000
0.847256 0.946894 0.998954 0.000000 0.000000 0.000000
0.849813 0.937266 0.998447 0.000000 0.000000 0.000000
0.913200 0.645348 0.954376 0.000000 0.000000 0.000000
0.895874 0.692001 0.960964 0.000000 0.000000 0.000000
0.891259 0.621056 0.960177 0.000000 0.000000 0.000000
0.767610 0.917384 0.996987 0.000000 0.000000 0.000000
0.675325 0.672390 1.057656 0.000000 0.000000 0.000000
0.829356 0.942631 0.999913 0.000000 0.000000 0.000000
0.809812 0.935921 0.999067 0.000000 0.000000 0.000000
0.968473 0.892622 0.970372 0.000000 0.000000 0.000000
0.945390 0.894274 0.969858 0.000000 0.000000 0.000000
0.875639 0.711295 0.965511 0.000000 0.000000 0.000000
0.769287 0.922372 0.999150 0.000000 0.000000 0.000000
0.826839 0.929677 0.993719 0.000000 0.000000 0.000000
0.853212 0.939296 0.989183 0.000000 0.000000 0.000000
0.817574 0.936092 0.987314 0.000000 0.000000 0.000000
0.705799 0.532790 1.097400 0.000000 0.000000 0.000000
0.745408 0.888130 0.991377 0.000000 0.000000 0.000000
0.905873 0.741610 0.960531 0.000000 0.000000 0.000000
0.824884 0.930212 0.996529 0.000000 0.000000 0.000000
0.838714 0.932956 0.991294 0.000000 0.000000 0.000000
0.910029 0.651691 0.952314 0.000000 0.000000 0.000000
0.868020 0.639797 0.970340 0.000000 0.000000 0.000000
0.772266 0.922279 0.997321 0.000000 0.000000 0.000000
0.675347 0.677831 1.051660 0.000000 0.000000 0.000000
0.819082 0.942852 0.998911 0.000000 0.000000 0.000000
0.792209 0.887769 0.975227 0.000000 0.000000 0.000000
0.821719 0.936716 0.998419 0.000000 0.000000 0.000000
0.638922 0.544299 1.097409 0.000000 0.000000 0.000000
0.640034 0.579384 1.077086 0.000000 0.000000 0.000000
0.974055 0.872811 0.968280 0.000000 0.000000 0.000000
0.976711 0.808403 0.954480 0.000000 0.000000 0.000000
0.953330 0.865717 0.960228 0.000000 0.000000 0.000000
0.721451 0.530884 1.073671 0.000000 0.000000 0.000000
0.881590 0.765084 0.962362 0.000000 0.000000 0.000000
0.984452 0.825809 0.958934 0.000000 0.000000 0.000000
0.991608 0.829881 0.959648 0.000000 0.000000 0.000000
0.818112 0.859721 0.968029 0.000000 0.000000 0.000000
0.998056 0.819758 0.954919 0.000000 0.000000 0.000000
0.983911 0.834503 0.957399 0.000000 0.000000 0.000000
0.974321 0.710812 0.958087 0.000000 0.000000 0.000000
0.828537 0.782652 0.949815 0.000000 0.000000 0.000000
0.797684 0.721685 0.961757 0.000000 0.000000 0.000000
0.996152 0.800171 0.957852 0.000000 0.000000 0.000000
0.988097 0.835465 0.959908 0.000000 0.000000 0.000000
0.987646 0.810352 0.952637 0.000000 0.000000 0.000000
0.845749 0.846109 0.975819 0.000000 0.000000 0.000000
0.820845 0.868593 0.971233 0.000000 0.000000 0.000000
0.849830 0.748476 0.968199 0.000000 0.000000 0.000000
0.666169 0.758487 0.990790 0.000000 0.000000 0.000000
0.980316 0.826752 0.957173 0.000000 0.000000 0.000000
0.978505 0.832193 0.955565 0.000000 0.000000 0.000000
0.971950 0.823296 0.957222 0.000000 0.000000 0.000000
0.919795 0.802200 0.960709 0.000000 0.000000 0.000000
0.982657 0.812617 0.955766 0.000000 0.000000 0.000000
0.808168 0.736746 0.954023 0.000000 0.000000 0.000000
0.736104 0.527016 1.059939 0.000000 0.000000 0.000000
0.886422 0.790177 0.967335 0.000000 0.000000 0.000000
0.985016 0.815822 0.956256 0.000000 0.000000 0.000000
0.990701 0.830798 0.963852 0.000000 0.000000 0.000000
0.859629 0.864037 0.979876 0.000000 0.000000 0.000000
0.987588 0.825835 0.958999 0.000000 0.000000 0.000000
0.963105 0.697836 0.948631 0.000000 0.000000 0.000000
0.794675 0.714479 0.963542 0.000000 0.000000 0.000000
0.996455 0.795560 0.957607 0.000000 0.000000 0.000000
0.982272 0.814741 0.954093 0.000000 0.000000 0.000000
0.987548 0.798096 0.954217 0.000000 0.000000 0.000000
0.830752 0.857158 0.974062 0.000000 0.000000 0.000000
0.824027 0.879476 0.978258 0.000000 0.000000 0.000000
0.663113 0.630206 1.072688 0.000000 0.000000 0.000000
0.841587 0.687208 0.968942 0.000000 0.000000 0.000000
0.668446 0.769205 0.983143 0.000000 0.000000 0.000000
0.987562 0.841256 0.961265 0.000000 0.000000 0.000000
0.989098 0.833361 0.963315 0.000000 0.000000 0.000000
0.987001 0.809437 0.956032 0.000000 0.000000 0.000000
0.978447 0.821563 0.954646 0.000000 0.000000 0.000000
0.913945 0.765295 0.961502 0.000000 0.000000 0.000000
0.656926 0.730894 1.005804 0.000000 0.000000 0.000000
0.747270 0.890762 0.990796 0.000000 0.000000 0.000000
0.710216 0.526350 1.095799 0.000000 0.000000 0.000000
0.641459 0.540599 1.102643 0.000000 0.000000 0.000000
0.925846 0.642052 0.958836 0.000000 0.000000 0.000000
0.926625 0.672358 0.966204 0.000000 0.000000 0.000000
0.925532 0.633798 0.962574 0.000000 0.000000 0.000000
0.920928 0.628389 0.963337 0.000000 0.000000 0.000000
0.795500 0.813298 0.968558 0.000000 0.000000 0.000000
0.804873 0.820893 0.967366 0.000000 0.000000 0.000000
0.728701 0.549945 1.077357 0.000000 0.000000 0.000000
0.928053 0.636727 0.960563 0.000000 0.000000 0.000000
0.925672 0.705582 0.965371 0.000000 0.000000 0.000000
0.929836 0.638056 0.961192 0.000000 0.000000 0.000000
0.911217 0.624120 0.965367 0.000000 0.000000 0.000000
0.782193 0.823092 0.975142 0.000000 0.000000 0.000000
0.792705 0.836059 0.964152 0.000000 0.000000 0.000000
0.827475 0.818776 0.970589 0.000000 0.000000 0.000000
0.735265 0.536313 1.059503 0.000000 0.000000 0.000000
