ply
format ascii 1.0
comment VCGLIB generated
obj_info Generated by SPFormer!
element vertex 852
property float x
property float y
property float z
property float nx
property float ny
property float nz
end_header
0.583739 1.395777 2.237789 0.000000 0.000000 0.000000
0.575647 1.395315 2.237257 0.000000 0.000000 0.000000
0.566453 1.394894 2.238511 0.000000 0.000000 0.000000
0.552962 1.344575 2.216302 0.000000 0.000000 0.000000
0.560106 1.319648 2.214554 0.000000 0.000000 0.000000
0.490738 1.386244 2.174828 0.000000 0.000000 0.000000
0.455563 1.388457 2.200280 0.000000 0.000000 0.000000
0.607776 1.366605 2.201060 0.000000 0.000000 0.000000
0.619794 1.347484 2.204693 0.000000 0.000000 0.000000
0.632607 1.368577 2.197019 0.000000 0.000000 0.000000
0.626767 1.357083 2.200250 0.000000 0.000000 0.000000
0.564190 1.296835 2.228083 0.000000 0.000000 0.000000
0.585652 1.337431 2.223049 0.000000 0.000000 0.000000
0.574191 1.349213 2.216029 0.000000 0.000000 0.000000
0.625174 1.361667 2.200224 0.000000 0.000000 0.000000
0.493602 1.400332 2.186020 0.000000 0.000000 0.000000
0.498851 1.390982 2.191718 0.000000 0.000000 0.000000
0.616198 1.379381 2.198462 0.000000 0.000000 0.000000
0.618640 1.343315 2.191340 0.000000 0.000000 0.000000
0.623186 1.371714 2.203026 0.000000 0.000000 0.000000
0.509993 1.400921 2.184764 0.000000 0.000000 0.000000
0.531080 1.375253 2.188017 0.000000 0.000000 0.000000
0.606439 1.366949 2.196102 0.000000 0.000000 0.000000
0.631160 1.375547 2.195809 0.000000 0.000000 0.000000
0.608662 1.393776 2.197720 0.000000 0.000000 0.000000
0.643820 1.343117 2.183126 0.000000 0.000000 0.000000
0.517714 1.388140 2.193002 0.000000 0.000000 0.000000
0.649813 1.362224 2.192187 0.000000 0.000000 0.000000
0.623046 1.362188 2.201594 0.000000 0.000000 0.000000
0.530390 1.415709 2.183688 0.000000 0.000000 0.000000
0.617110 1.387765 2.196053 0.000000 0.000000 0.000000
0.619667 1.311582 2.203253 0.000000 0.000000 0.000000
0.630656 1.391106 2.195327 0.000000 0.000000 0.000000
0.579074 1.306801 2.222385 0.000000 0.000000 0.000000
0.605329 1.372287 2.203334 0.000000 0.000000 0.000000
0.592033 1.294245 2.221973 0.000000 0.000000 0.000000
0.460052 1.390338 2.197004 0.000000 0.000000 0.000000
0.462500 1.380549 2.177785 0.000000 0.000000 0.000000
0.464180 1.447863 2.203435 0.000000 0.000000 0.000000
0.640059 1.332720 2.199533 0.000000 0.000000 0.000000
0.579425 1.370110 2.205895 0.000000 0.000000 0.000000
0.494473 1.322162 2.238764 0.000000 0.000000 0.000000
0.463322 1.438676 2.200222 0.000000 0.000000 0.000000
0.572146 1.329600 2.221698 0.000000 0.000000 0.000000
0.510108 1.335867 2.221058 0.000000 0.000000 0.000000
0.601873 1.314310 2.210781 0.000000 0.000000 0.000000
0.486128 1.410032 2.175822 0.000000 0.000000 0.000000
0.534221 1.393606 2.183960 0.000000 0.000000 0.000000
0.610556 1.362036 2.204776 0.000000 0.000000 0.000000
0.556551 1.334655 2.225822 0.000000 0.000000 0.000000
0.631854 1.358829 2.200625 0.000000 0.000000 0.000000
0.545731 1.391234 2.173736 0.000000 0.000000 0.000000
0.623571 1.337653 2.208178 0.000000 0.000000 0.000000
0.614195 1.324295 2.207214 0.000000 0.000000 0.000000
0.608029 1.287037 2.209936 0.000000 0.000000 0.000000
0.536298 1.387746 2.197689 0.000000 0.000000 0.000000
0.654753 1.372325 2.191293 0.000000 0.000000 0.000000
0.629977 1.317874 2.201391 0.000000 0.000000 0.000000
0.626175 1.386824 2.193306 0.000000 0.000000 0.000000
0.626259 1.377275 2.198894 0.000000 0.000000 0.000000
0.639445 1.352156 2.197058 0.000000 0.000000 0.000000
0.471323 1.398753 2.189960 0.000000 0.000000 0.000000
0.652713 1.341918 2.205105 0.000000 0.000000 0.000000
0.463674 1.410930 2.183449 0.000000 0.000000 0.000000
0.661532 1.373176 2.193205 0.000000 0.000000 0.000000
0.640395 1.354128 2.200746 0.000000 0.000000 0.000000
0.644383 1.356430 2.196385 0.000000 0.000000 0.000000
0.581965 1.398760 2.192201 0.000000 0.000000 0.000000
0.407567 1.418133 2.195982 0.000000 0.000000 0.000000
0.608591 1.288317 2.208977 0.000000 0.000000 0.000000
0.638037 1.339260 2.195363 0.000000 0.000000 0.000000
0.632556 1.309134 2.194829 0.000000 0.000000 0.000000
0.593295 1.314489 2.217896 0.000000 0.000000 0.000000
0.605311 1.321293 2.213823 0.000000 0.000000 0.000000
0.629988 1.335556 2.198997 0.000000 0.000000 0.000000
0.494403 1.414032 2.172161 0.000000 0.000000 0.000000
0.652733 1.339815 2.191567 0.000000 0.000000 0.000000
0.663965 1.366261 2.195122 0.000000 0.000000 0.000000
0.660082 1.366128 2.200006 0.000000 0.000000 0.000000
0.616626 1.305421 2.201073 0.000000 0.000000 0.000000
0.470370 1.416999 2.177374 0.000000 0.000000 0.000000
0.572010 1.388866 2.193949 0.000000 0.000000 0.000000
0.625955 1.327039 2.205597 0.000000 0.000000 0.000000
0.581762 1.388892 2.191000 0.000000 0.000000 0.000000
0.550467 1.365171 2.207507 0.000000 0.000000 0.000000
0.602383 1.298927 2.212798 0.000000 0.000000 0.000000
0.618172 1.338854 2.204934 0.000000 0.000000 0.000000
0.541888 1.418248 2.175834 0.000000 0.000000 0.000000
0.630523 1.351871 2.201856 0.000000 0.000000 0.000000
0.653917 1.361368 2.208070 0.000000 0.000000 0.000000
0.514982 1.385280 2.192344 0.000000 0.000000 0.000000
0.591962 1.329952 2.217164 0.000000 0.000000 0.000000
0.653448 1.346428 2.195099 0.000000 0.000000 0.000000
0.522761 1.377032 2.195278 0.000000 0.000000 0.000000
0.566628 1.396957 2.188302 0.000000 0.000000 0.000000
0.616365 1.305531 2.193834 0.000000 0.000000 0.000000
0.531854 1.398884 2.203489 0.000000 0.000000 0.000000
0.626857 1.319634 2.202165 0.000000 0.000000 0.000000
0.444241 1.379015 2.207643 0.000000 0.000000 0.000000
0.632721 1.322635 2.202082 0.000000 0.000000 0.000000
0.621655 1.334777 2.205613 0.000000 0.000000 0.000000
0.447069 1.425154 2.178810 0.000000 0.000000 0.000000
0.633375 1.353898 2.198322 0.000000 0.000000 0.000000
0.598418 1.303857 2.216235 0.000000 0.000000 0.000000
0.442288 1.401162 2.194786 0.000000 0.000000 0.000000
0.606321 1.305652 2.209170 0.000000 0.000000 0.000000
0.648683 1.336664 2.192944 0.000000 0.000000 0.000000
0.504665 1.345368 2.223021 0.000000 0.000000 0.000000
0.480391 1.411799 2.177598 0.000000 0.000000 0.000000
0.646138 1.343724 2.195400 0.000000 0.000000 0.000000
0.497542 1.425662 2.166118 0.000000 0.000000 0.000000
0.507636 1.417570 2.171768 0.000000 0.000000 0.000000
0.468838 1.405588 2.185703 0.000000 0.000000 0.000000
0.520536 1.400713 2.182116 0.000000 0.000000 0.000000
0.633977 1.328867 2.201616 0.000000 0.000000 0.000000
0.628492 1.314092 2.198307 0.000000 0.000000 0.000000
0.658784 1.363210 2.193874 0.000000 0.000000 0.000000
0.654851 1.380865 2.194001 0.000000 0.000000 0.000000
0.579847 1.397700 2.194307 0.000000 0.000000 0.000000
0.513560 1.353693 2.211120 0.000000 0.000000 0.000000
0.659258 1.360180 2.194991 0.000000 0.000000 0.000000
0.506867 1.345586 2.216187 0.000000 0.000000 0.000000
0.548144 1.334807 2.221655 0.000000 0.000000 0.000000
0.579965 1.317136 2.219387 0.000000 0.000000 0.000000
0.642052 1.363418 2.199888 0.000000 0.000000 0.000000
0.613695 1.349309 2.204747 0.000000 0.000000 0.000000
0.550413 1.323573 2.230944 0.000000 0.000000 0.000000
0.500197 1.401384 2.183823 0.000000 0.000000 0.000000
0.582199 1.292542 2.222600 0.000000 0.000000 0.000000
0.478040 1.360559 2.206267 0.000000 0.000000 0.000000
0.497068 1.374742 2.196532 0.000000 0.000000 0.000000
0.464231 1.391925 2.198255 0.000000 0.000000 0.000000
0.468676 1.366790 2.204706 0.000000 0.000000 0.000000
0.449187 1.418512 2.185101 0.000000 0.000000 0.000000
0.577829 1.344640 2.217927 0.000000 0.000000 0.000000
0.486838 1.396677 2.190582 0.000000 0.000000 0.000000
0.638416 1.375202 2.202478 0.000000 0.000000 0.000000
0.634999 1.331495 2.202325 0.000000 0.000000 0.000000
0.661574 1.360578 2.201539 0.000000 0.000000 0.000000
0.637820 1.337373 2.202812 0.000000 0.000000 0.000000
0.463952 1.373253 2.206966 0.000000 0.000000 0.000000
0.485285 1.349432 2.215167 0.000000 0.000000 0.000000
0.530306 1.326178 2.233479 0.000000 0.000000 0.000000
0.523448 1.337036 2.228973 0.000000 0.000000 0.000000
0.480861 1.344231 2.218823 0.000000 0.000000 0.000000
0.590264 1.354390 2.210366 0.000000 0.000000 0.000000
0.530374 1.351046 2.211942 0.000000 0.000000 0.000000
0.487711 1.337114 2.223412 0.000000 0.000000 0.000000
0.447791 1.379813 2.190857 0.000000 0.000000 0.000000
0.588969 1.311670 2.216107 0.000000 0.000000 0.000000
0.621423 1.307015 2.204555 0.000000 0.000000 0.000000
0.597910 1.325895 2.213522 0.000000 0.000000 0.000000
0.588337 1.360114 2.210088 0.000000 0.000000 0.000000
0.590042 1.369451 2.205090 0.000000 0.000000 0.000000
0.610095 1.310045 2.219698 0.000000 0.000000 0.000000
0.486045 1.331193 2.228953 0.000000 0.000000 0.000000
0.579183 1.332785 2.219261 0.000000 0.000000 0.000000
0.472706 1.401241 2.181661 0.000000 0.000000 0.000000
0.631826 1.386679 2.194597 0.000000 0.000000 0.000000
0.493221 1.381106 2.192432 0.000000 0.000000 0.000000
0.554239 1.374352 2.206710 0.000000 0.000000 0.000000
0.402702 1.408627 2.197502 0.000000 0.000000 0.000000
0.656534 1.345607 2.193072 0.000000 0.000000 0.000000
0.468866 1.404247 2.184938 0.000000 0.000000 0.000000
0.648719 1.370471 2.192940 0.000000 0.000000 0.000000
0.637955 1.371020 2.195400 0.000000 0.000000 0.000000
0.661084 1.373874 2.194170 0.000000 0.000000 0.000000
0.463658 1.373655 2.206512 0.000000 0.000000 0.000000
0.495017 1.328563 2.230337 0.000000 0.000000 0.000000
0.494630 1.363685 2.203829 0.000000 0.000000 0.000000
0.607437 1.327183 2.223199 0.000000 0.000000 0.000000
0.614395 1.314173 2.206944 0.000000 0.000000 0.000000
0.591343 1.342392 2.214616 0.000000 0.000000 0.000000
0.588470 1.342114 2.210611 0.000000 0.000000 0.000000
0.621987 1.348171 2.202799 0.000000 0.000000 0.000000
0.575094 1.313943 2.226190 0.000000 0.000000 0.000000
0.597808 1.356660 2.204453 0.000000 0.000000 0.000000
0.621164 1.302640 2.198317 0.000000 0.000000 0.000000
0.517637 1.396897 2.178288 0.000000 0.000000 0.000000
0.604051 1.294297 2.216045 0.000000 0.000000 0.000000
0.624859 1.304290 2.201668 0.000000 0.000000 0.000000
0.589315 1.398721 2.196758 0.000000 0.000000 0.000000
0.606337 1.306777 2.212431 0.000000 0.000000 0.000000
0.480642 1.356001 2.217825 0.000000 0.000000 0.000000
0.531886 1.334250 2.229505 0.000000 0.000000 0.000000
0.615779 1.350993 2.206143 0.000000 0.000000 0.000000
0.568885 1.321267 2.232979 0.000000 0.000000 0.000000
0.547008 1.395909 2.186710 0.000000 0.000000 0.000000
0.608839 1.349808 2.204496 0.000000 0.000000 0.000000
0.606233 1.350540 2.207334 0.000000 0.000000 0.000000
0.600394 1.341798 2.213638 0.000000 0.000000 0.000000
0.611339 1.325343 2.195341 0.000000 0.000000 0.000000
0.603622 1.289819 2.212408 0.000000 0.000000 0.000000
0.632109 1.329586 2.202147 0.000000 0.000000 0.000000
0.552534 1.354488 2.214415 0.000000 0.000000 0.000000
0.628035 1.380773 2.198477 0.000000 0.000000 0.000000
0.626313 1.346159 2.202250 0.000000 0.000000 0.000000
0.658278 1.373763 2.193699 0.000000 0.000000 0.000000
0.655553 1.368708 2.194386 0.000000 0.000000 0.000000
0.641368 1.378458 2.191805 0.000000 0.000000 0.000000
0.662473 1.358311 2.194219 0.000000 0.000000 0.000000
0.643511 1.369015 2.203909 0.000000 0.000000 0.000000
0.601965 1.375827 2.199919 0.000000 0.000000 0.000000
0.517507 1.399109 2.171813 0.000000 0.000000 0.000000
0.608771 1.402157 2.198287 0.000000 0.000000 0.000000
0.603596 1.369683 2.204424 0.000000 0.000000 0.000000
0.454613 1.400393 2.191023 0.000000 0.000000 0.000000
0.578145 1.378438 2.201947 0.000000 0.000000 0.000000
0.459986 1.409094 2.179932 0.000000 0.000000 0.000000
0.648391 1.350468 2.193601 0.000000 0.000000 0.000000
0.639149 1.347743 2.200900 0.000000 0.000000 0.000000
0.620224 1.369429 2.195665 0.000000 0.000000 0.000000
0.628458 1.372767 2.198558 0.000000 0.000000 0.000000
0.660564 1.354172 2.190809 0.000000 0.000000 0.000000
0.474799 1.406919 2.178920 0.000000 0.000000 0.000000
0.644453 1.376292 2.189669 0.000000 0.000000 0.000000
0.649420 1.360483 2.199638 0.000000 0.000000 0.000000
0.653613 1.352232 2.210293 0.000000 0.000000 0.000000
0.468448 1.431555 2.175901 0.000000 0.000000 0.000000
0.606877 1.385999 2.200001 0.000000 0.000000 0.000000
0.540193 1.389949 2.192748 0.000000 0.000000 0.000000
0.599577 1.313237 2.220148 0.000000 0.000000 0.000000
0.616634 1.371080 2.201235 0.000000 0.000000 0.000000
0.592002 1.363307 2.207087 0.000000 0.000000 0.000000
0.517556 1.401611 2.185421 0.000000 0.000000 0.000000
0.612602 1.366542 2.200913 0.000000 0.000000 0.000000
0.628876 1.396510 2.192538 0.000000 0.000000 0.000000
0.633100 1.380710 2.196303 0.000000 0.000000 0.000000
0.615099 1.388785 2.196054 0.000000 0.000000 0.000000
0.613777 1.376356 2.198101 0.000000 0.000000 0.000000
0.659060 1.371492 2.193907 0.000000 0.000000 0.000000
0.594100 1.372080 2.204216 0.000000 0.000000 0.000000
0.639979 1.332775 2.193649 0.000000 0.000000 0.000000
0.636232 1.365998 2.198258 0.000000 0.000000 0.000000
0.641248 1.382677 2.194342 0.000000 0.000000 0.000000
0.635495 1.390278 2.198289 0.000000 0.000000 0.000000
0.422941 1.427996 2.182970 0.000000 0.000000 0.000000
0.642353 1.389660 2.196412 0.000000 0.000000 0.000000
0.612429 1.284126 2.201818 0.000000 0.000000 0.000000
0.502550 1.404170 2.177413 0.000000 0.000000 0.000000
0.518279 1.413609 2.170387 0.000000 0.000000 0.000000
0.519621 1.413762 2.174355 0.000000 0.000000 0.000000
0.463641 1.416315 2.175324 0.000000 0.000000 0.000000
0.459644 1.417764 2.168505 0.000000 0.000000 0.000000
0.639256 1.376033 2.195179 0.000000 0.000000 0.000000
0.632817 1.312109 2.194107 0.000000 0.000000 0.000000
0.480206 1.396339 2.223410 0.000000 0.000000 0.000000
0.453568 1.371530 2.206574 0.000000 0.000000 0.000000
0.494158 1.415002 2.178770 0.000000 0.000000 0.000000
0.514029 1.407361 2.181550 0.000000 0.000000 0.000000
0.616362 1.371734 2.200383 0.000000 0.000000 0.000000
0.656474 1.357370 2.203142 0.000000 0.000000 0.000000
0.643604 1.351791 2.201282 0.000000 0.000000 0.000000
0.538151 1.336406 2.232106 0.000000 0.000000 0.000000
0.571123 1.373854 2.202860 0.000000 0.000000 0.000000
0.519153 1.419265 2.172955 0.000000 0.000000 0.000000
0.547710 1.355748 2.218769 0.000000 0.000000 0.000000
0.546085 1.410443 2.185057 0.000000 0.000000 0.000000
0.656929 1.374852 2.193665 0.000000 0.000000 0.000000
0.560263 1.357611 2.211483 0.000000 0.000000 0.000000
0.519057 1.407321 2.182788 0.000000 0.000000 0.000000
0.609189 1.395069 2.196098 0.000000 0.000000 0.000000
0.585710 1.374602 2.202677 0.000000 0.000000 0.000000
0.600304 1.384338 2.200061 0.000000 0.000000 0.000000
0.520852 1.394474 2.188306 0.000000 0.000000 0.000000
0.569419 1.294877 2.210034 0.000000 0.000000 0.000000
0.528465 1.399508 2.176121 0.000000 0.000000 0.000000
0.525968 1.401663 2.169440 0.000000 0.000000 0.000000
0.423688 1.430747 2.191135 0.000000 0.000000 0.000000
0.583664 1.328162 2.201634 0.000000 0.000000 0.000000
0.592959 1.300555 2.215788 0.000000 0.000000 0.000000
0.521499 1.407887 2.177848 0.000000 0.000000 0.000000
0.607525 1.288068 2.200763 0.000000 0.000000 0.000000
0.633216 1.381341 2.194852 0.000000 0.000000 0.000000
0.441957 1.401938 2.193048 0.000000 0.000000 0.000000
0.436654 1.406520 2.185630 0.000000 0.000000 0.000000
0.583337 1.405192 2.187473 0.000000 0.000000 0.000000
0.431174 1.417020 2.181978 0.000000 0.000000 0.000000
0.650261 1.379579 2.193041 0.000000 0.000000 0.000000
0.650660 1.374680 2.194040 0.000000 0.000000 0.000000
0.646071 1.362433 2.196402 0.000000 0.000000 0.000000
0.664548 1.362477 2.196627 0.000000 0.000000 0.000000
0.621908 1.298505 2.201137 0.000000 0.000000 0.000000
0.638451 1.316069 2.193666 0.000000 0.000000 0.000000
0.439536 1.420611 2.178612 0.000000 0.000000 0.000000
0.543477 1.414338 2.175619 0.000000 0.000000 0.000000
0.644935 1.371394 2.194105 0.000000 0.000000 0.000000
0.645791 1.364951 2.195141 0.000000 0.000000 0.000000
0.657206 1.349302 2.198723 0.000000 0.000000 0.000000
0.663650 1.364453 2.200031 0.000000 0.000000 0.000000
0.620374 1.302050 2.206738 0.000000 0.000000 0.000000
0.596757 1.381098 2.201467 0.000000 0.000000 0.000000
0.503881 1.411203 2.176878 0.000000 0.000000 0.000000
0.595780 1.400707 2.192322 0.000000 0.000000 0.000000
0.549044 1.389434 2.182065 0.000000 0.000000 0.000000
0.612166 1.292111 2.205513 0.000000 0.000000 0.000000
0.553212 1.393387 2.181504 0.000000 0.000000 0.000000
0.540548 1.412313 2.189649 0.000000 0.000000 0.000000
0.541033 1.396715 2.181454 0.000000 0.000000 0.000000
0.586004 1.296231 2.219917 0.000000 0.000000 0.000000
0.530029 1.417816 2.170928 0.000000 0.000000 0.000000
0.520209 1.411564 2.175044 0.000000 0.000000 0.000000
0.540068 1.407355 2.175670 0.000000 0.000000 0.000000
0.505667 1.416281 2.171962 0.000000 0.000000 0.000000
0.527533 1.408581 2.172314 0.000000 0.000000 0.000000
0.503911 1.419397 2.172910 0.000000 0.000000 0.000000
0.515875 1.408909 2.172904 0.000000 0.000000 0.000000
0.522723 1.420341 2.169229 0.000000 0.000000 0.000000
0.507714 1.392065 2.189111 0.000000 0.000000 0.000000
0.501952 1.410790 2.167632 0.000000 0.000000 0.000000
0.630635 1.316964 2.203851 0.000000 0.000000 0.000000
0.648799 1.329953 2.190788 0.000000 0.000000 0.000000
0.628374 1.332157 2.202215 0.000000 0.000000 0.000000
0.657241 1.347088 2.189712 0.000000 0.000000 0.000000
0.621951 1.308276 2.206501 0.000000 0.000000 0.000000
0.633218 1.333852 2.187388 0.000000 0.000000 0.000000
0.646947 1.375768 2.194342 0.000000 0.000000 0.000000
0.432242 1.405921 2.188284 0.000000 0.000000 0.000000
0.563757 1.402444 2.188841 0.000000 0.000000 0.000000
0.488591 1.417880 2.167187 0.000000 0.000000 0.000000
0.652173 1.355912 2.198075 0.000000 0.000000 0.000000
0.580553 1.358242 2.208923 0.000000 0.000000 0.000000
0.504862 1.395004 2.185455 0.000000 0.000000 0.000000
0.495729 1.409811 2.182060 0.000000 0.000000 0.000000
0.545561 1.405148 2.177070 0.000000 0.000000 0.000000
0.452618 1.429024 2.173760 0.000000 0.000000 0.000000
0.592517 1.368296 2.208442 0.000000 0.000000 0.000000
0.484083 1.417081 2.181346 0.000000 0.000000 0.000000
0.509677 1.405133 2.170719 0.000000 0.000000 0.000000
0.487882 1.414749 2.176533 0.000000 0.000000 0.000000
0.468779 1.366144 2.209070 0.000000 0.000000 0.000000
0.489701 1.425183 2.164401 0.000000 0.000000 0.000000
0.535821 1.415744 2.178709 0.000000 0.000000 0.000000
0.609934 1.392552 2.197818 0.000000 0.000000 0.000000
0.476597 1.422249 2.175173 0.000000 0.000000 0.000000
0.488962 1.423936 2.172515 0.000000 0.000000 0.000000
0.459419 1.423909 2.174567 0.000000 0.000000 0.000000
0.644231 1.374889 2.201519 0.000000 0.000000 0.000000
0.661149 1.365423 2.203053 0.000000 0.000000 0.000000
0.625527 1.338863 2.207285 0.000000 0.000000 0.000000
0.586105 1.387810 2.196991 0.000000 0.000000 0.000000
0.567752 1.398299 2.187492 0.000000 0.000000 0.000000
0.576464 1.390678 2.196256 0.000000 0.000000 0.000000
0.582600 1.389134 2.197066 0.000000 0.000000 0.000000
0.592046 1.396955 2.200154 0.000000 0.000000 0.000000
0.588159 1.405016 2.195084 0.000000 0.000000 0.000000
0.578914 1.381866 2.202093 0.000000 0.000000 0.000000
0.588837 1.393599 2.198663 0.000000 0.000000 0.000000
0.433886 1.423427 2.180104 0.000000 0.000000 0.000000
0.497513 1.418860 2.169349 0.000000 0.000000 0.000000
0.419348 1.417539 2.187600 0.000000 0.000000 0.000000
0.552564 1.415314 2.171852 0.000000 0.000000 0.000000
0.561046 1.284666 2.236506 0.000000 0.000000 0.000000
0.412138 1.412495 2.192178 0.000000 0.000000 0.000000
0.474631 1.397278 2.188365 0.000000 0.000000 0.000000
0.490527 1.395360 2.176378 0.000000 0.000000 0.000000
0.611414 1.377398 2.198161 0.000000 0.000000 0.000000
0.615563 1.289750 2.204339 0.000000 0.000000 0.000000
0.612360 1.300536 2.205855 0.000000 0.000000 0.000000
0.523889 1.375703 2.174056 0.000000 0.000000 0.000000
0.603163 1.390640 2.196940 0.000000 0.000000 0.000000
0.627545 1.306580 2.198635 0.000000 0.000000 0.000000
0.451967 1.378503 2.215178 0.000000 0.000000 0.000000
0.567139 1.410136 2.181574 0.000000 0.000000 0.000000
0.490000 1.419784 2.168879 0.000000 0.000000 0.000000
0.579788 1.286076 2.226480 0.000000 0.000000 0.000000
0.524295 1.417235 2.176931 0.000000 0.000000 0.000000
0.492463 1.417505 2.173659 0.000000 0.000000 0.000000
0.631266 1.382040 2.190536 0.000000 0.000000 0.000000
0.580196 1.404189 2.190430 0.000000 0.000000 0.000000
0.634910 1.301446 2.190227 0.000000 0.000000 0.000000
0.495728 1.415365 2.167566 0.000000 0.000000 0.000000
0.601397 1.298640 2.211426 0.000000 0.000000 0.000000
0.410053 1.416597 2.190306 0.000000 0.000000 0.000000
0.493297 1.411060 2.172684 0.000000 0.000000 0.000000
0.472529 1.413301 2.180477 0.000000 0.000000 0.000000
0.479129 1.425468 2.170353 0.000000 0.000000 0.000000
0.491567 1.423093 2.167986 0.000000 0.000000 0.000000
0.468449 1.431855 2.165447 0.000000 0.000000 0.000000
0.421337 1.428782 2.182192 0.000000 0.000000 0.000000
0.627286 1.311923 2.195985 0.000000 0.000000 0.000000
0.452856 1.419433 2.175674 0.000000 0.000000 0.000000
0.517681 1.417800 2.177838 0.000000 0.000000 0.000000
0.452038 1.427111 2.174247 0.000000 0.000000 0.000000
0.479581 1.431237 2.168546 0.000000 0.000000 0.000000
0.610348 1.290348 2.209334 0.000000 0.000000 0.000000
0.620926 1.296342 2.199736 0.000000 0.000000 0.000000
0.473476 1.427879 2.164647 0.000000 0.000000 0.000000
0.611765 1.308039 2.211058 0.000000 0.000000 0.000000
0.637227 1.317130 2.196230 0.000000 0.000000 0.000000
0.648370 1.323044 2.191262 0.000000 0.000000 0.000000
0.652779 1.343876 2.198019 0.000000 0.000000 0.000000
0.655131 1.358675 2.201127 0.000000 0.000000 0.000000
0.661318 1.350512 2.197230 0.000000 0.000000 0.000000
0.570248 1.394610 2.198096 0.000000 0.000000 0.000000
0.553306 1.409160 2.176524 0.000000 0.000000 0.000000
0.562430 1.372516 2.203879 0.000000 0.000000 0.000000
0.614092 1.292589 2.203485 0.000000 0.000000 0.000000
0.559766 1.406952 2.178792 0.000000 0.000000 0.000000
0.558196 1.409812 2.184431 0.000000 0.000000 0.000000
0.486095 1.387711 2.194679 0.000000 0.000000 0.000000
0.565502 1.384831 2.196735 0.000000 0.000000 0.000000
0.516979 1.379575 2.197731 0.000000 0.000000 0.000000
0.552563 1.383460 2.195611 0.000000 0.000000 0.000000
0.561482 1.394294 2.190801 0.000000 0.000000 0.000000
0.565332 1.379680 2.197644 0.000000 0.000000 0.000000
0.543275 1.394928 2.193471 0.000000 0.000000 0.000000
0.584818 1.355507 2.203243 0.000000 0.000000 0.000000
0.566267 1.404723 2.181752 0.000000 0.000000 0.000000
0.516471 1.382458 2.199286 0.000000 0.000000 0.000000
0.550564 1.390846 2.190217 0.000000 0.000000 0.000000
0.593934 1.288651 2.234587 0.000000 0.000000 0.000000
0.554631 1.403489 2.183295 0.000000 0.000000 0.000000
0.495171 1.366944 2.200086 0.000000 0.000000 0.000000
0.540942 1.362631 2.207044 0.000000 0.000000 0.000000
0.533266 1.395222 2.182705 0.000000 0.000000 0.000000
0.571062 1.358838 2.209472 0.000000 0.000000 0.000000
0.551408 1.374713 2.201306 0.000000 0.000000 0.000000
0.561763 1.371498 2.202445 0.000000 0.000000 0.000000
0.556576 1.407612 2.183464 0.000000 0.000000 0.000000
0.560640 1.377588 2.197066 0.000000 0.000000 0.000000
0.553563 1.377369 2.202472 0.000000 0.000000 0.000000
0.535433 1.350178 2.219904 0.000000 0.000000 0.000000
0.534038 1.398090 2.184080 0.000000 0.000000 0.000000
0.572322 1.350471 2.219469 0.000000 0.000000 0.000000
0.563439 1.387743 2.199170 0.000000 0.000000 0.000000
0.539516 1.404307 2.183639 0.000000 0.000000 0.000000
0.578764 1.392627 2.193139 0.000000 0.000000 0.000000
0.608676 1.281293 2.204010 0.000000 0.000000 0.000000
0.555491 1.386659 2.193501 0.000000 0.000000 0.000000
0.611856 1.282585 2.202802 0.000000 0.000000 0.000000
0.464366 1.399543 2.191090 0.000000 0.000000 0.000000
0.621219 1.323724 2.205256 0.000000 0.000000 0.000000
0.620757 1.310921 2.201377 0.000000 0.000000 0.000000
0.475319 1.374949 2.196919 0.000000 0.000000 0.000000
0.598477 1.280186 2.210414 0.000000 0.000000 0.000000
0.626878 1.302078 2.193231 0.000000 0.000000 0.000000
0.619906 1.300957 2.202294 0.000000 0.000000 0.000000
0.620081 1.289576 2.200279 0.000000 0.000000 0.000000
0.597921 1.400435 2.196223 0.000000 0.000000 0.000000
0.486166 1.356200 2.207818 0.000000 0.000000 0.000000
0.615323 1.394423 2.196083 0.000000 0.000000 0.000000
0.620236 1.293989 2.195983 0.000000 0.000000 0.000000
0.614742 1.299049 2.206126 0.000000 0.000000 0.000000
0.506146 1.377224 2.196252 0.000000 0.000000 0.000000
0.620407 1.394038 2.190955 0.000000 0.000000 0.000000
0.605948 1.393985 2.195386 0.000000 0.000000 0.000000
0.619189 1.392623 2.195129 0.000000 0.000000 0.000000
0.630707 1.311424 2.195976 0.000000 0.000000 0.000000
0.630221 1.300053 2.193016 0.000000 0.000000 0.000000
0.569327 1.324797 2.222857 0.000000 0.000000 0.000000
0.441034 1.414717 2.173302 0.000000 0.000000 0.000000
0.449522 1.407079 2.177686 0.000000 0.000000 0.000000
0.642570 1.327929 2.190408 0.000000 0.000000 0.000000
0.445064 1.414339 2.176963 0.000000 0.000000 0.000000
0.429775 1.415201 2.180446 0.000000 0.000000 0.000000
0.641278 1.321504 2.191499 0.000000 0.000000 0.000000
0.454894 1.407036 2.175042 0.000000 0.000000 0.000000
0.445278 1.429997 2.173698 0.000000 0.000000 0.000000
0.423830 1.418988 2.181569 0.000000 0.000000 0.000000
0.436832 1.416532 2.178663 0.000000 0.000000 0.000000
0.627638 1.309983 2.189579 0.000000 0.000000 0.000000
0.625831 1.320314 2.195614 0.000000 0.000000 0.000000
0.633146 1.318146 2.194438 0.000000 0.000000 0.000000
0.597833 1.399989 2.193018 0.000000 0.000000 0.000000
0.635486 1.313909 2.199286 0.000000 0.000000 0.000000
0.460235 1.433613 2.173035 0.000000 0.000000 0.000000
0.641469 1.390537 2.191366 0.000000 0.000000 0.000000
0.481339 1.429510 2.165395 0.000000 0.000000 0.000000
0.454992 1.426796 2.169260 0.000000 0.000000 0.000000
0.634334 1.397276 2.192560 0.000000 0.000000 0.000000
0.626637 1.314347 2.201308 0.000000 0.000000 0.000000
0.649467 1.333226 2.189546 0.000000 0.000000 0.000000
0.642112 1.392661 2.193122 0.000000 0.000000 0.000000
0.654574 1.335454 2.192866 0.000000 0.000000 0.000000
0.585212 1.408976 2.192711 0.000000 0.000000 0.000000
0.555255 1.343116 2.225782 0.000000 0.000000 0.000000
0.565712 1.407822 2.186955 0.000000 0.000000 0.000000
0.580436 1.294742 2.231224 0.000000 0.000000 0.000000
0.651805 1.342065 2.198563 0.000000 0.000000 0.000000
0.619630 1.338874 2.214075 0.000000 0.000000 0.000000
0.632395 1.334287 2.207135 0.000000 0.000000 0.000000
0.601952 1.318892 2.210740 0.000000 0.000000 0.000000
0.521141 1.412357 2.165072 0.000000 0.000000 0.000000
0.611469 1.330705 2.208438 0.000000 0.000000 0.000000
0.629081 1.323286 2.207533 0.000000 0.000000 0.000000
0.606803 1.329284 2.213161 0.000000 0.000000 0.000000
0.523988 1.417289 2.167620 0.000000 0.000000 0.000000
0.419059 1.411763 2.196586 0.000000 0.000000 0.000000
0.441050 1.428495 2.173985 0.000000 0.000000 0.000000
0.450622 1.424028 2.175396 0.000000 0.000000 0.000000
0.427355 1.425367 2.178480 0.000000 0.000000 0.000000
0.417867 1.429158 2.179432 0.000000 0.000000 0.000000
0.429335 1.425270 2.182432 0.000000 0.000000 0.000000
0.568533 1.407270 2.188443 0.000000 0.000000 0.000000
0.571071 1.404885 2.188792 0.000000 0.000000 0.000000
0.661388 1.342106 2.193038 0.000000 0.000000 0.000000
0.652539 1.337661 2.192067 0.000000 0.000000 0.000000
0.656852 1.341938 2.194953 0.000000 0.000000 0.000000
0.648239 1.335659 2.196226 0.000000 0.000000 0.000000
0.647232 1.331612 2.192208 0.000000 0.000000 0.000000
0.544572 1.409790 2.171923 0.000000 0.000000 0.000000
0.626151 1.366442 2.188486 0.000000 0.000000 0.000000
0.552736 1.404719 2.175381 0.000000 0.000000 0.000000
0.615254 1.323041 2.215077 0.000000 0.000000 0.000000
0.635650 1.324447 2.200821 0.000000 0.000000 0.000000
0.400605 1.435312 2.195946 0.000000 0.000000 0.000000
0.621153 1.320404 2.207267 0.000000 0.000000 0.000000
0.630770 1.319342 2.202713 0.000000 0.000000 0.000000
0.613568 1.404661 2.198190 0.000000 0.000000 0.000000
0.501792 1.425267 2.171326 0.000000 0.000000 0.000000
0.536205 1.326431 2.233702 0.000000 0.000000 0.000000
0.461537 1.430888 2.171587 0.000000 0.000000 0.000000
0.444072 1.422335 2.173750 0.000000 0.000000 0.000000
0.465299 1.428065 2.166674 0.000000 0.000000 0.000000
0.439142 1.429087 2.175688 0.000000 0.000000 0.000000
0.476489 1.423722 2.161606 0.000000 0.000000 0.000000
0.663509 1.349010 2.187047 0.000000 0.000000 0.000000
0.651896 1.344669 2.194487 0.000000 0.000000 0.000000
0.534215 1.402400 2.180134 0.000000 0.000000 0.000000
0.448396 1.414735 2.178854 0.000000 0.000000 0.000000
0.662755 1.352322 2.201665 0.000000 0.000000 0.000000
0.663129 1.356419 2.193753 0.000000 0.000000 0.000000
0.654336 1.338017 2.185948 0.000000 0.000000 0.000000
0.508300 1.406643 2.172605 0.000000 0.000000 0.000000
0.476165 1.410837 2.169306 0.000000 0.000000 0.000000
0.661600 1.351716 2.191873 0.000000 0.000000 0.000000
0.561353 1.403075 2.180375 0.000000 0.000000 0.000000
0.532440 1.412700 2.169513 0.000000 0.000000 0.000000
0.547916 1.413269 2.167481 0.000000 0.000000 0.000000
0.501811 1.423824 2.164402 0.000000 0.000000 0.000000
0.500476 1.418394 2.160672 0.000000 0.000000 0.000000
0.516167 1.418975 2.167257 0.000000 0.000000 0.000000
0.602814 1.287088 2.216526 0.000000 0.000000 0.000000
0.516828 1.417720 2.167331 0.000000 0.000000 0.000000
0.587524 1.280509 2.227198 0.000000 0.000000 0.000000
0.525082 1.406316 2.166979 0.000000 0.000000 0.000000
0.638040 1.322586 2.194158 0.000000 0.000000 0.000000
0.654987 1.344532 2.203431 0.000000 0.000000 0.000000
0.642288 1.323513 2.189250 0.000000 0.000000 0.000000
0.641126 1.362363 2.202620 0.000000 0.000000 0.000000
0.637977 1.364457 2.204820 0.000000 0.000000 0.000000
0.449046 1.435156 2.169477 0.000000 0.000000 0.000000
0.455818 1.426414 2.170970 0.000000 0.000000 0.000000
0.452243 1.428010 2.168373 0.000000 0.000000 0.000000
0.469201 1.427551 2.169775 0.000000 0.000000 0.000000
0.428672 1.430407 2.176841 0.000000 0.000000 0.000000
0.444061 1.423837 2.172770 0.000000 0.000000 0.000000
0.578105 1.407174 2.187719 0.000000 0.000000 0.000000
0.528862 1.362022 2.206682 0.000000 0.000000 0.000000
0.656868 1.359733 2.205293 0.000000 0.000000 0.000000
0.490990 1.421919 2.161546 0.000000 0.000000 0.000000
0.467728 1.431237 2.169671 0.000000 0.000000 0.000000
0.461006 1.432173 2.168237 0.000000 0.000000 0.000000
0.447031 1.431157 2.170161 0.000000 0.000000 0.000000
0.448671 1.407138 2.178252 0.000000 0.000000 0.000000
0.598507 1.352124 2.212196 0.000000 0.000000 0.000000
0.628751 1.396097 2.196396 0.000000 0.000000 0.000000
0.568637 1.296259 2.236051 0.000000 0.000000 0.000000
0.618478 1.391148 2.194367 0.000000 0.000000 0.000000
0.636668 1.388457 2.190845 0.000000 0.000000 0.000000
0.448062 1.402478 2.182473 0.000000 0.000000 0.000000
0.599114 1.334971 2.217275 0.000000 0.000000 0.000000
0.622567 1.385668 2.200305 0.000000 0.000000 0.000000
0.573326 1.282289 2.228534 0.000000 0.000000 0.000000
0.602996 1.284260 2.221803 0.000000 0.000000 0.000000
0.522174 1.326386 2.227278 0.000000 0.000000 0.000000
0.439678 1.425490 2.178541 0.000000 0.000000 0.000000
0.414070 1.428958 2.184538 0.000000 0.000000 0.000000
0.405417 1.431142 2.193330 0.000000 0.000000 0.000000
0.406589 1.430969 2.186476 0.000000 0.000000 0.000000
0.430371 1.428418 2.176142 0.000000 0.000000 0.000000
0.437663 1.418717 2.182646 0.000000 0.000000 0.000000
0.436068 1.429652 2.178018 0.000000 0.000000 0.000000
0.432247 1.429837 2.174156 0.000000 0.000000 0.000000
0.403893 1.432730 2.196302 0.000000 0.000000 0.000000
0.413251 1.430364 2.181264 0.000000 0.000000 0.000000
0.423365 1.428904 2.178465 0.000000 0.000000 0.000000
0.620561 1.395496 2.199544 0.000000 0.000000 0.000000
0.534188 1.414521 2.168712 0.000000 0.000000 0.000000
0.579078 1.295697 2.237099 0.000000 0.000000 0.000000
0.575503 1.282811 2.219365 0.000000 0.000000 0.000000
0.570161 1.299884 2.239327 0.000000 0.000000 0.000000
0.574921 1.305752 2.233612 0.000000 0.000000 0.000000
0.595923 1.281147 2.225240 0.000000 0.000000 0.000000
0.570694 1.299531 2.233619 0.000000 0.000000 0.000000
0.632119 1.301677 2.194255 0.000000 0.000000 0.000000
0.627493 1.299648 2.194829 0.000000 0.000000 0.000000
0.654746 1.333835 2.189919 0.000000 0.000000 0.000000
0.446212 1.429750 2.168605 0.000000 0.000000 0.000000
0.653386 1.335048 2.188905 0.000000 0.000000 0.000000
0.462290 1.426646 2.164105 0.000000 0.000000 0.000000
0.617344 1.291181 2.201967 0.000000 0.000000 0.000000
0.583091 1.280591 2.225323 0.000000 0.000000 0.000000
0.654675 1.365103 2.211854 0.000000 0.000000 0.000000
0.412654 1.420402 2.186767 0.000000 0.000000 0.000000
0.525505 1.371385 2.203181 0.000000 0.000000 0.000000
0.462561 1.372958 2.230993 0.000000 0.000000 0.000000
0.453322 1.393528 2.214676 0.000000 0.000000 0.000000
0.529622 1.368299 2.211020 0.000000 0.000000 0.000000
0.513986 1.339588 2.230424 0.000000 0.000000 0.000000
0.517984 1.373135 2.214839 0.000000 0.000000 0.000000
0.483554 1.396114 2.192426 0.000000 0.000000 0.000000
0.419208 1.411569 2.190355 0.000000 0.000000 0.000000
0.451446 1.382879 2.222658 0.000000 0.000000 0.000000
0.441293 1.387900 2.217999 0.000000 0.000000 0.000000
0.526677 1.360271 2.227583 0.000000 0.000000 0.000000
0.523538 1.365183 2.220323 0.000000 0.000000 0.000000
0.496048 1.374228 2.211257 0.000000 0.000000 0.000000
0.644702 1.335151 2.194863 0.000000 0.000000 0.000000
0.656020 1.338416 2.186965 0.000000 0.000000 0.000000
0.609042 1.399161 2.198393 0.000000 0.000000 0.000000
0.637157 1.392359 2.192454 0.000000 0.000000 0.000000
0.642597 1.337857 2.191162 0.000000 0.000000 0.000000
0.633486 1.328918 2.190798 0.000000 0.000000 0.000000
0.603945 1.406342 2.194668 0.000000 0.000000 0.000000
0.649346 1.342395 2.191206 0.000000 0.000000 0.000000
0.642557 1.360494 2.195916 0.000000 0.000000 0.000000
0.626531 1.335314 2.214630 0.000000 0.000000 0.000000
0.655998 1.365740 2.191842 0.000000 0.000000 0.000000
0.663049 1.354710 2.194555 0.000000 0.000000 0.000000
0.590508 1.324510 2.215153 0.000000 0.000000 0.000000
0.652311 1.358014 2.194973 0.000000 0.000000 0.000000
0.626543 1.320526 2.191514 0.000000 0.000000 0.000000
0.654670 1.357630 2.192245 0.000000 0.000000 0.000000
0.610512 1.348185 2.199021 0.000000 0.000000 0.000000
0.518920 1.418806 2.168549 0.000000 0.000000 0.000000
0.632026 1.350522 2.199652 0.000000 0.000000 0.000000
0.643565 1.366010 2.192664 0.000000 0.000000 0.000000
0.561302 1.417235 2.178658 0.000000 0.000000 0.000000
0.644215 1.352485 2.193939 0.000000 0.000000 0.000000
0.515455 1.420287 2.164801 0.000000 0.000000 0.000000
0.617351 1.346197 2.205501 0.000000 0.000000 0.000000
0.661480 1.361444 2.192687 0.000000 0.000000 0.000000
0.576714 1.334943 2.210696 0.000000 0.000000 0.000000
0.593552 1.330572 2.199591 0.000000 0.000000 0.000000
0.517619 1.416463 2.168541 0.000000 0.000000 0.000000
0.643288 1.346610 2.191972 0.000000 0.000000 0.000000
0.572927 1.418398 2.184073 0.000000 0.000000 0.000000
0.656772 1.355800 2.190535 0.000000 0.000000 0.000000
0.530044 1.417699 2.163643 0.000000 0.000000 0.000000
0.593847 1.391450 2.198608 0.000000 0.000000 0.000000
0.603611 1.399825 2.199062 0.000000 0.000000 0.000000
0.589910 1.385117 2.201933 0.000000 0.000000 0.000000
0.598996 1.404315 2.197655 0.000000 0.000000 0.000000
0.610027 1.394648 2.197634 0.000000 0.000000 0.000000
0.603222 1.391528 2.195882 0.000000 0.000000 0.000000
0.608644 1.390139 2.197030 0.000000 0.000000 0.000000
0.596100 1.396725 2.197604 0.000000 0.000000 0.000000
0.596801 1.404278 2.193122 0.000000 0.000000 0.000000
0.631518 1.397172 2.189943 0.000000 0.000000 0.000000
0.613429 1.402635 2.194008 0.000000 0.000000 0.000000
0.414518 1.426435 2.182468 0.000000 0.000000 0.000000
0.576609 1.402807 2.192807 0.000000 0.000000 0.000000
0.574809 1.408655 2.182376 0.000000 0.000000 0.000000
0.626159 1.401509 2.194502 0.000000 0.000000 0.000000
0.621426 1.399562 2.193455 0.000000 0.000000 0.000000
0.595904 1.387708 2.199508 0.000000 0.000000 0.000000
0.619594 1.384704 2.193315 0.000000 0.000000 0.000000
0.585903 1.376292 2.203343 0.000000 0.000000 0.000000
0.588031 1.398436 2.193747 0.000000 0.000000 0.000000
0.635384 1.396463 2.190808 0.000000 0.000000 0.000000
0.607759 1.401455 2.193845 0.000000 0.000000 0.000000
0.436591 1.422666 2.178279 0.000000 0.000000 0.000000
0.591005 1.405587 2.191530 0.000000 0.000000 0.000000
0.587018 1.408445 2.189358 0.000000 0.000000 0.000000
0.617027 1.400009 2.196132 0.000000 0.000000 0.000000
0.633354 1.394092 2.191291 0.000000 0.000000 0.000000
0.656188 1.356808 2.195900 0.000000 0.000000 0.000000
0.664513 1.353999 2.197497 0.000000 0.000000 0.000000
0.659347 1.348808 2.192710 0.000000 0.000000 0.000000
0.664033 1.356900 2.193614 0.000000 0.000000 0.000000
0.651998 1.343541 2.195421 0.000000 0.000000 0.000000
0.640987 1.343583 2.195897 0.000000 0.000000 0.000000
0.661684 1.358311 2.192556 0.000000 0.000000 0.000000
0.628951 1.341653 2.200950 0.000000 0.000000 0.000000
0.632575 1.339659 2.197179 0.000000 0.000000 0.000000
0.616519 1.329046 2.209486 0.000000 0.000000 0.000000
0.644883 1.345004 2.200769 0.000000 0.000000 0.000000
0.608342 1.335441 2.208698 0.000000 0.000000 0.000000
0.617959 1.317694 2.202102 0.000000 0.000000 0.000000
0.589141 1.297382 2.206228 0.000000 0.000000 0.000000
0.654437 1.367850 2.193839 0.000000 0.000000 0.000000
0.534617 1.415043 2.170631 0.000000 0.000000 0.000000
0.635063 1.317135 2.190820 0.000000 0.000000 0.000000
0.545321 1.413165 2.173524 0.000000 0.000000 0.000000
0.609612 1.302426 2.205694 0.000000 0.000000 0.000000
0.514420 1.418895 2.160836 0.000000 0.000000 0.000000
0.534061 1.414384 2.175196 0.000000 0.000000 0.000000
0.660933 1.350654 2.191059 0.000000 0.000000 0.000000
0.646596 1.361641 2.189754 0.000000 0.000000 0.000000
0.657122 1.339666 2.186832 0.000000 0.000000 0.000000
0.583492 1.306512 2.203315 0.000000 0.000000 0.000000
0.631618 1.325816 2.197759 0.000000 0.000000 0.000000
0.646804 1.341716 2.196184 0.000000 0.000000 0.000000
0.629805 1.326888 2.202113 0.000000 0.000000 0.000000
0.634790 1.328533 2.196744 0.000000 0.000000 0.000000
0.640708 1.345730 2.198374 0.000000 0.000000 0.000000
0.646089 1.326234 2.190436 0.000000 0.000000 0.000000
0.599019 1.339798 2.209552 0.000000 0.000000 0.000000
0.602541 1.321863 2.209690 0.000000 0.000000 0.000000
0.600454 1.290310 2.202199 0.000000 0.000000 0.000000
0.649931 1.361973 2.194026 0.000000 0.000000 0.000000
0.505086 1.425282 2.167772 0.000000 0.000000 0.000000
0.522694 1.420461 2.170922 0.000000 0.000000 0.000000
0.617128 1.325321 2.208673 0.000000 0.000000 0.000000
0.505765 1.423600 2.158982 0.000000 0.000000 0.000000
0.531977 1.416056 2.177378 0.000000 0.000000 0.000000
0.662737 1.352806 2.190321 0.000000 0.000000 0.000000
0.649924 1.338828 2.198820 0.000000 0.000000 0.000000
0.660117 1.352361 2.189529 0.000000 0.000000 0.000000
0.656781 1.347999 2.190085 0.000000 0.000000 0.000000
0.597035 1.314859 2.197532 0.000000 0.000000 0.000000
0.620672 1.336704 2.195649 0.000000 0.000000 0.000000
0.552989 1.412612 2.177141 0.000000 0.000000 0.000000
0.650213 1.344808 2.187875 0.000000 0.000000 0.000000
0.544833 1.413620 2.172847 0.000000 0.000000 0.000000
0.542058 1.403864 2.191811 0.000000 0.000000 0.000000
0.654426 1.340010 2.188175 0.000000 0.000000 0.000000
0.553389 1.404300 2.191190 0.000000 0.000000 0.000000
0.663752 1.354499 2.191796 0.000000 0.000000 0.000000
0.663228 1.359707 2.192076 0.000000 0.000000 0.000000
0.495243 1.425733 2.163562 0.000000 0.000000 0.000000
0.624905 1.297214 2.197446 0.000000 0.000000 0.000000
0.661030 1.375457 2.194023 0.000000 0.000000 0.000000
0.658572 1.375680 2.193734 0.000000 0.000000 0.000000
0.655894 1.367353 2.197567 0.000000 0.000000 0.000000
0.662352 1.368857 2.192896 0.000000 0.000000 0.000000
0.657294 1.338219 2.187586 0.000000 0.000000 0.000000
0.655619 1.339930 2.190207 0.000000 0.000000 0.000000
0.661987 1.343590 2.189211 0.000000 0.000000 0.000000
0.656078 1.341024 2.187061 0.000000 0.000000 0.000000
0.651466 1.324735 2.187525 0.000000 0.000000 0.000000
0.657471 1.336447 2.187422 0.000000 0.000000 0.000000
0.664171 1.352321 2.189252 0.000000 0.000000 0.000000
0.641054 1.316871 2.190331 0.000000 0.000000 0.000000
0.653829 1.334587 2.188335 0.000000 0.000000 0.000000
0.643195 1.318846 2.190403 0.000000 0.000000 0.000000
0.647838 1.329989 2.192185 0.000000 0.000000 0.000000
0.643999 1.321159 2.189746 0.000000 0.000000 0.000000
0.651339 1.330467 2.189197 0.000000 0.000000 0.000000
0.623665 1.294707 2.195062 0.000000 0.000000 0.000000
0.419495 1.426209 2.182518 0.000000 0.000000 0.000000
0.647240 1.326869 2.189291 0.000000 0.000000 0.000000
0.655236 1.341527 2.192072 0.000000 0.000000 0.000000
0.646067 1.343771 2.197070 0.000000 0.000000 0.000000
0.643202 1.326831 2.194423 0.000000 0.000000 0.000000
0.648648 1.328230 2.188585 0.000000 0.000000 0.000000
0.654688 1.328469 2.189600 0.000000 0.000000 0.000000
0.620996 1.291085 2.199872 0.000000 0.000000 0.000000
0.651637 1.329959 2.187426 0.000000 0.000000 0.000000
0.649417 1.333421 2.188804 0.000000 0.000000 0.000000
0.661432 1.374730 2.192454 0.000000 0.000000 0.000000
0.662201 1.350984 2.191923 0.000000 0.000000 0.000000
0.467492 1.447480 2.177726 0.000000 0.000000 0.000000
0.580647 1.341620 2.218274 0.000000 0.000000 0.000000
0.655856 1.381891 2.192720 0.000000 0.000000 0.000000
0.583274 1.298270 2.226133 0.000000 0.000000 0.000000
0.664340 1.360231 2.191697 0.000000 0.000000 0.000000
0.659680 1.344550 2.187054 0.000000 0.000000 0.000000
0.588804 1.336659 2.224441 0.000000 0.000000 0.000000
0.656302 1.376918 2.192876 0.000000 0.000000 0.000000
0.589985 1.291120 2.222672 0.000000 0.000000 0.000000
0.661606 1.346622 2.188147 0.000000 0.000000 0.000000
0.653883 1.330410 2.185982 0.000000 0.000000 0.000000
0.479677 1.390594 2.187108 0.000000 0.000000 0.000000
0.465519 1.401686 2.182021 0.000000 0.000000 0.000000
0.474511 1.388586 2.191988 0.000000 0.000000 0.000000
0.468018 1.381661 2.201262 0.000000 0.000000 0.000000
0.440536 1.428206 2.173193 0.000000 0.000000 0.000000
0.665759 1.360678 2.192940 0.000000 0.000000 0.000000
0.534503 1.339120 2.235455 0.000000 0.000000 0.000000
0.449073 1.427463 2.170856 0.000000 0.000000 0.000000
0.546358 1.337182 2.229311 0.000000 0.000000 0.000000
0.447867 1.431197 2.168898 0.000000 0.000000 0.000000
0.662952 1.352716 2.189198 0.000000 0.000000 0.000000
0.543333 1.377767 2.210517 0.000000 0.000000 0.000000
0.572089 1.297274 2.238200 0.000000 0.000000 0.000000
0.535442 1.374535 2.211468 0.000000 0.000000 0.000000
0.468922 1.422918 2.166407 0.000000 0.000000 0.000000
0.551296 1.376472 2.212500 0.000000 0.000000 0.000000
0.573589 1.362265 2.213953 0.000000 0.000000 0.000000
0.495115 1.422348 2.162612 0.000000 0.000000 0.000000
0.649245 1.384475 2.197196 0.000000 0.000000 0.000000
0.656146 1.349201 2.197806 0.000000 0.000000 0.000000
0.648395 1.348315 2.204713 0.000000 0.000000 0.000000
0.623274 1.400938 2.191081 0.000000 0.000000 0.000000
0.646582 1.368442 2.200680 0.000000 0.000000 0.000000
0.646386 1.386757 2.191630 0.000000 0.000000 0.000000
0.647901 1.386534 2.194727 0.000000 0.000000 0.000000
0.637305 1.382438 2.198270 0.000000 0.000000 0.000000
0.663000 1.355641 2.186434 0.000000 0.000000 0.000000
0.632198 1.366924 2.201226 0.000000 0.000000 0.000000
0.630918 1.391492 2.197911 0.000000 0.000000 0.000000
0.645358 1.391260 2.196394 0.000000 0.000000 0.000000
0.646791 1.379284 2.199496 0.000000 0.000000 0.000000
0.662082 1.347919 2.188538 0.000000 0.000000 0.000000
0.631855 1.304872 2.192015 0.000000 0.000000 0.000000
0.633373 1.307586 2.190289 0.000000 0.000000 0.000000
0.624804 1.298766 2.191216 0.000000 0.000000 0.000000
0.643183 1.317933 2.189053 0.000000 0.000000 0.000000
0.631225 1.310624 2.197673 0.000000 0.000000 0.000000
0.627565 1.304021 2.196848 0.000000 0.000000 0.000000
0.632702 1.306950 2.192900 0.000000 0.000000 0.000000
0.637307 1.317529 2.192197 0.000000 0.000000 0.000000
0.638406 1.313873 2.191439 0.000000 0.000000 0.000000
0.429371 1.418078 2.190684 0.000000 0.000000 0.000000
0.625117 1.301029 2.196848 0.000000 0.000000 0.000000
0.637288 1.319256 2.195503 0.000000 0.000000 0.000000
0.626688 1.304808 2.196381 0.000000 0.000000 0.000000
0.633146 1.316030 2.199005 0.000000 0.000000 0.000000
0.556485 1.403822 2.174459 0.000000 0.000000 0.000000
0.638578 1.318928 2.196770 0.000000 0.000000 0.000000
0.638522 1.332900 2.194003 0.000000 0.000000 0.000000
0.626606 1.299001 2.196185 0.000000 0.000000 0.000000
0.447182 1.399468 2.203526 0.000000 0.000000 0.000000
0.636563 1.314004 2.193971 0.000000 0.000000 0.000000
0.636740 1.321849 2.197046 0.000000 0.000000 0.000000
0.628879 1.305017 2.189269 0.000000 0.000000 0.000000
0.648195 1.351644 2.197902 0.000000 0.000000 0.000000
0.626116 1.328226 2.202857 0.000000 0.000000 0.000000
0.552014 1.408993 2.172652 0.000000 0.000000 0.000000
0.408307 1.428623 2.197265 0.000000 0.000000 0.000000
0.638706 1.313754 2.192659 0.000000 0.000000 0.000000
0.642032 1.333342 2.190795 0.000000 0.000000 0.000000
0.633890 1.305789 2.192567 0.000000 0.000000 0.000000
0.648276 1.325186 2.186651 0.000000 0.000000 0.000000
0.653209 1.377850 2.190905 0.000000 0.000000 0.000000
0.653253 1.380087 2.191521 0.000000 0.000000 0.000000
0.651871 1.351107 2.188867 0.000000 0.000000 0.000000
0.637207 1.378468 2.189287 0.000000 0.000000 0.000000
0.648711 1.380695 2.191306 0.000000 0.000000 0.000000
0.641890 1.384805 2.190902 0.000000 0.000000 0.000000
0.657903 1.375546 2.191430 0.000000 0.000000 0.000000
0.652108 1.382280 2.194465 0.000000 0.000000 0.000000
0.654943 1.342110 2.187200 0.000000 0.000000 0.000000
0.652240 1.362078 2.189388 0.000000 0.000000 0.000000
0.651024 1.334403 2.187125 0.000000 0.000000 0.000000
0.648466 1.359994 2.191123 0.000000 0.000000 0.000000
0.660278 1.353543 2.190415 0.000000 0.000000 0.000000
0.649699 1.323230 2.186992 0.000000 0.000000 0.000000
0.650103 1.341029 2.189876 0.000000 0.000000 0.000000
0.654326 1.382445 2.191880 0.000000 0.000000 0.000000
0.640100 1.313303 2.188349 0.000000 0.000000 0.000000
0.648708 1.366927 2.191018 0.000000 0.000000 0.000000
0.651004 1.387064 2.193474 0.000000 0.000000 0.000000
0.654961 1.369534 2.188541 0.000000 0.000000 0.000000
0.660946 1.379765 2.191470 0.000000 0.000000 0.000000
0.646101 1.388190 2.198089 0.000000 0.000000 0.000000
0.481634 1.427808 2.163203 0.000000 0.000000 0.000000
0.647287 1.377290 2.201627 0.000000 0.000000 0.000000
0.483447 1.427827 2.163033 0.000000 0.000000 0.000000
