ply
format ascii 1.0
comment VCGLIB generated
obj_info Generated by SPFormer!
element vertex 884
property float x
property float y
property float z
property float nx
property float ny
property float nz
end_header
0.502547 1.278715 0.795817 0.000000 0.000000 0.000000
0.575663 1.087488 0.772009 0.000000 0.000000 0.000000
0.832856 1.050371 0.880840 0.000000 0.000000 0.000000
0.696865 0.937510 0.814385 0.000000 0.000000 0.000000
0.687364 0.922250 0.816094 0.000000 0.000000 0.000000
0.795914 1.178294 0.824646 0.000000 0.000000 0.000000
0.525455 1.098185 0.766277 0.000000 0.000000 0.000000
0.751229 1.154506 0.821243 0.000000 0.000000 0.000000
0.818549 1.131064 0.845321 0.000000 0.000000 0.000000
0.553145 1.192048 0.767563 0.000000 0.000000 0.000000
0.548126 1.146085 0.769873 0.000000 0.000000 0.000000
0.541133 1.114817 0.768248 0.000000 0.000000 0.000000
0.716708 1.231736 0.808974 0.000000 0.000000 0.000000
0.529590 1.190012 0.772604 0.000000 0.000000 0.000000
0.769231 1.022813 0.862951 0.000000 0.000000 0.000000
0.529800 1.142255 0.767034 0.000000 0.000000 0.000000
0.517736 1.228040 0.775332 0.000000 0.000000 0.000000
0.524453 1.199455 0.771643 0.000000 0.000000 0.000000
0.767080 1.061163 0.843791 0.000000 0.000000 0.000000
0.776655 0.936401 0.871420 0.000000 0.000000 0.000000
0.838191 1.048495 0.888717 0.000000 0.000000 0.000000
0.511685 1.065354 0.776050 0.000000 0.000000 0.000000
0.512464 1.114332 0.765688 0.000000 0.000000 0.000000
0.480480 1.286685 0.800445 0.000000 0.000000 0.000000
0.749428 1.149870 0.817515 0.000000 0.000000 0.000000
0.704373 1.093242 0.812053 0.000000 0.000000 0.000000
0.703744 1.252964 0.810235 0.000000 0.000000 0.000000
0.752630 1.074930 0.833904 0.000000 0.000000 0.000000
0.409934 1.208251 0.760368 0.000000 0.000000 0.000000
0.458806 1.282846 0.798279 0.000000 0.000000 0.000000
0.735219 0.926479 0.840543 0.000000 0.000000 0.000000
0.519561 1.277392 0.791936 0.000000 0.000000 0.000000
0.630922 0.919127 0.791253 0.000000 0.000000 0.000000
0.590703 1.119723 0.775343 0.000000 0.000000 0.000000
0.577500 1.149361 0.778541 0.000000 0.000000 0.000000
0.777750 0.956847 0.875654 0.000000 0.000000 0.000000
0.480374 1.056754 0.783190 0.000000 0.000000 0.000000
0.459538 1.280777 0.795084 0.000000 0.000000 0.000000
0.736383 0.929596 0.842703 0.000000 0.000000 0.000000
0.560713 0.997437 0.769994 0.000000 0.000000 0.000000
0.745737 1.232339 0.814842 0.000000 0.000000 0.000000
0.493932 1.042787 0.782425 0.000000 0.000000 0.000000
0.549478 1.220600 0.775497 0.000000 0.000000 0.000000
0.819655 1.001328 0.899654 0.000000 0.000000 0.000000
0.794873 1.050009 0.859584 0.000000 0.000000 0.000000
0.556769 1.154866 0.774079 0.000000 0.000000 0.000000
0.548463 1.165495 0.768984 0.000000 0.000000 0.000000
0.727548 1.220823 0.811255 0.000000 0.000000 0.000000
0.502159 1.179543 0.768498 0.000000 0.000000 0.000000
0.788345 1.010217 0.883575 0.000000 0.000000 0.000000
0.706448 0.954628 0.824168 0.000000 0.000000 0.000000
0.517687 1.246591 0.782901 0.000000 0.000000 0.000000
0.407560 1.256760 0.789480 0.000000 0.000000 0.000000
0.640711 0.928934 0.801558 0.000000 0.000000 0.000000
0.664553 0.928089 0.811034 0.000000 0.000000 0.000000
0.693820 1.264500 0.804184 0.000000 0.000000 0.000000
0.653208 1.251226 0.798965 0.000000 0.000000 0.000000
0.500988 1.285427 0.799063 0.000000 0.000000 0.000000
0.494806 1.288187 0.797113 0.000000 0.000000 0.000000
0.615467 1.256231 0.798878 0.000000 0.000000 0.000000
0.834083 0.977941 0.931387 0.000000 0.000000 0.000000
0.545613 1.167497 0.772671 0.000000 0.000000 0.000000
0.645061 1.278100 0.805884 0.000000 0.000000 0.000000
0.695513 0.918585 0.824676 0.000000 0.000000 0.000000
0.642684 0.987026 0.786809 0.000000 0.000000 0.000000
0.811542 1.026237 0.885039 0.000000 0.000000 0.000000
0.778043 1.071425 0.842368 0.000000 0.000000 0.000000
0.452165 1.132754 0.788552 0.000000 0.000000 0.000000
0.518185 1.281893 0.796477 0.000000 0.000000 0.000000
0.514111 1.283256 0.797996 0.000000 0.000000 0.000000
0.506337 1.285793 0.799577 0.000000 0.000000 0.000000
0.498584 1.283909 0.800350 0.000000 0.000000 0.000000
0.620198 1.261382 0.804521 0.000000 0.000000 0.000000
0.833200 0.977844 0.935524 0.000000 0.000000 0.000000
0.507017 1.285898 0.800568 0.000000 0.000000 0.000000
0.508111 1.041907 0.782300 0.000000 0.000000 0.000000
0.419622 1.187413 0.769595 0.000000 0.000000 0.000000
0.489942 1.277035 0.795353 0.000000 0.000000 0.000000
0.641009 1.022046 0.785247 0.000000 0.000000 0.000000
0.707081 1.007715 0.819562 0.000000 0.000000 0.000000
0.836707 0.979442 0.942149 0.000000 0.000000 0.000000
0.837122 1.072423 0.880032 0.000000 0.000000 0.000000
0.535733 1.031291 0.775614 0.000000 0.000000 0.000000
0.712043 0.930775 0.829677 0.000000 0.000000 0.000000
0.502092 1.035218 0.778594 0.000000 0.000000 0.000000
0.854995 1.052826 0.895767 0.000000 0.000000 0.000000
0.838036 1.062807 0.879628 0.000000 0.000000 0.000000
0.530254 1.280922 0.794346 0.000000 0.000000 0.000000
0.835640 0.965525 0.924439 0.000000 0.000000 0.000000
0.784527 1.202934 0.823822 0.000000 0.000000 0.000000
0.803690 0.971136 0.902076 0.000000 0.000000 0.000000
0.444449 1.279184 0.795518 0.000000 0.000000 0.000000
0.663136 1.099869 0.799657 0.000000 0.000000 0.000000
0.760661 1.022637 0.856129 0.000000 0.000000 0.000000
0.554753 1.109410 0.772986 0.000000 0.000000 0.000000
0.829316 0.971954 0.928817 0.000000 0.000000 0.000000
0.791560 1.206231 0.820060 0.000000 0.000000 0.000000
0.678324 0.923020 0.817888 0.000000 0.000000 0.000000
0.411041 1.255976 0.779995 0.000000 0.000000 0.000000
0.686516 1.254217 0.802276 0.000000 0.000000 0.000000
0.488066 1.046693 0.781352 0.000000 0.000000 0.000000
0.527621 1.272638 0.794488 0.000000 0.000000 0.000000
0.477444 1.064139 0.786994 0.000000 0.000000 0.000000
0.559592 1.287987 0.791900 0.000000 0.000000 0.000000
0.744882 1.238401 0.816115 0.000000 0.000000 0.000000
0.451502 1.278360 0.793620 0.000000 0.000000 0.000000
0.722303 1.212664 0.813806 0.000000 0.000000 0.000000
0.553148 1.287525 0.785990 0.000000 0.000000 0.000000
0.749467 1.224338 0.814972 0.000000 0.000000 0.000000
0.516073 1.276618 0.795781 0.000000 0.000000 0.000000
0.795772 0.947866 0.893827 0.000000 0.000000 0.000000
0.530965 1.282083 0.794362 0.000000 0.000000 0.000000
0.535558 1.281858 0.791110 0.000000 0.000000 0.000000
0.536649 1.278394 0.789985 0.000000 0.000000 0.000000
0.537589 1.283364 0.793984 0.000000 0.000000 0.000000
0.707346 1.245252 0.809726 0.000000 0.000000 0.000000
0.562415 1.288194 0.790355 0.000000 0.000000 0.000000
0.473488 1.077263 0.790738 0.000000 0.000000 0.000000
0.719217 1.238439 0.811058 0.000000 0.000000 0.000000
0.556798 1.287892 0.793464 0.000000 0.000000 0.000000
0.727660 1.248737 0.815788 0.000000 0.000000 0.000000
0.518306 1.279510 0.795199 0.000000 0.000000 0.000000
0.602669 0.959371 0.775798 0.000000 0.000000 0.000000
0.765761 0.948052 0.866147 0.000000 0.000000 0.000000
0.652664 0.923774 0.808245 0.000000 0.000000 0.000000
0.774589 1.215486 0.813525 0.000000 0.000000 0.000000
0.417786 1.184579 0.768758 0.000000 0.000000 0.000000
0.851149 1.089103 0.877800 0.000000 0.000000 0.000000
0.836896 1.094649 0.871851 0.000000 0.000000 0.000000
0.680078 0.923616 0.815726 0.000000 0.000000 0.000000
0.496620 1.071644 0.782493 0.000000 0.000000 0.000000
0.844209 1.068811 0.885454 0.000000 0.000000 0.000000
0.715716 0.939594 0.831101 0.000000 0.000000 0.000000
0.413455 1.248591 0.772951 0.000000 0.000000 0.000000
0.787703 0.974901 0.893598 0.000000 0.000000 0.000000
0.846147 1.090955 0.873740 0.000000 0.000000 0.000000
0.849554 1.084031 0.884745 0.000000 0.000000 0.000000
0.662392 0.929064 0.811937 0.000000 0.000000 0.000000
0.420650 1.244553 0.769059 0.000000 0.000000 0.000000
0.469213 1.132363 0.782785 0.000000 0.000000 0.000000
0.758701 0.936980 0.856325 0.000000 0.000000 0.000000
0.734072 1.216570 0.812002 0.000000 0.000000 0.000000
0.706701 1.237392 0.815801 0.000000 0.000000 0.000000
0.709748 1.244851 0.813380 0.000000 0.000000 0.000000
0.446041 1.129184 0.793485 0.000000 0.000000 0.000000
0.549089 0.996507 0.771147 0.000000 0.000000 0.000000
0.726262 0.925519 0.837675 0.000000 0.000000 0.000000
0.594774 1.239663 0.788037 0.000000 0.000000 0.000000
0.733693 1.230971 0.814017 0.000000 0.000000 0.000000
0.775584 1.040264 0.859038 0.000000 0.000000 0.000000
0.784610 0.949133 0.884171 0.000000 0.000000 0.000000
0.408958 1.255791 0.780705 0.000000 0.000000 0.000000
0.839897 0.973514 0.940589 0.000000 0.000000 0.000000
0.723826 0.920638 0.834820 0.000000 0.000000 0.000000
0.545253 1.001242 0.776517 0.000000 0.000000 0.000000
0.649071 0.986572 0.789142 0.000000 0.000000 0.000000
0.491024 1.279268 0.798727 0.000000 0.000000 0.000000
0.822472 1.180602 0.834043 0.000000 0.000000 0.000000
0.831090 0.967926 0.926527 0.000000 0.000000 0.000000
0.565140 1.134258 0.772803 0.000000 0.000000 0.000000
0.589624 1.080538 0.770620 0.000000 0.000000 0.000000
0.662498 0.912366 0.810337 0.000000 0.000000 0.000000
0.799592 0.956015 0.895714 0.000000 0.000000 0.000000
0.429217 1.167129 0.774506 0.000000 0.000000 0.000000
0.543988 1.012816 0.780431 0.000000 0.000000 0.000000
0.714594 0.979284 0.818750 0.000000 0.000000 0.000000
0.706207 1.258119 0.810835 0.000000 0.000000 0.000000
0.488312 1.282800 0.797094 0.000000 0.000000 0.000000
0.828388 0.963941 0.919225 0.000000 0.000000 0.000000
0.491219 1.048486 0.781286 0.000000 0.000000 0.000000
0.578341 1.083282 0.768694 0.000000 0.000000 0.000000
0.580289 1.148165 0.777675 0.000000 0.000000 0.000000
0.680315 0.907828 0.815659 0.000000 0.000000 0.000000
0.763657 0.953749 0.861967 0.000000 0.000000 0.000000
0.414754 1.218154 0.757628 0.000000 0.000000 0.000000
0.477171 1.077969 0.788230 0.000000 0.000000 0.000000
0.421669 1.240555 0.770395 0.000000 0.000000 0.000000
0.561567 0.980422 0.766402 0.000000 0.000000 0.000000
0.631057 0.938875 0.790788 0.000000 0.000000 0.000000
0.624344 0.926042 0.789122 0.000000 0.000000 0.000000
0.644695 0.940976 0.790764 0.000000 0.000000 0.000000
0.655177 0.938977 0.797743 0.000000 0.000000 0.000000
0.660895 1.013670 0.797436 0.000000 0.000000 0.000000
0.626919 0.937631 0.797327 0.000000 0.000000 0.000000
0.635837 0.933631 0.796933 0.000000 0.000000 0.000000
0.589290 1.243517 0.786285 0.000000 0.000000 0.000000
0.761018 1.224365 0.817591 0.000000 0.000000 0.000000
0.843609 1.100299 0.870645 0.000000 0.000000 0.000000
0.742050 1.242073 0.814333 0.000000 0.000000 0.000000
0.634621 0.938853 0.790430 0.000000 0.000000 0.000000
0.678934 0.983270 0.798305 0.000000 0.000000 0.000000
0.462834 1.090583 0.789571 0.000000 0.000000 0.000000
0.632144 0.934808 0.802772 0.000000 0.000000 0.000000
0.439469 1.131792 0.785607 0.000000 0.000000 0.000000
0.780813 0.931642 0.880020 0.000000 0.000000 0.000000
0.762616 1.012605 0.869518 0.000000 0.000000 0.000000
0.635537 1.265866 0.805557 0.000000 0.000000 0.000000
0.713999 1.252461 0.820818 0.000000 0.000000 0.000000
0.839929 0.998229 0.927855 0.000000 0.000000 0.000000
0.846018 1.017873 0.916476 0.000000 0.000000 0.000000
0.836428 1.026085 0.895015 0.000000 0.000000 0.000000
0.847483 1.020892 0.916038 0.000000 0.000000 0.000000
0.824245 1.029097 0.890325 0.000000 0.000000 0.000000
0.652752 1.281946 0.804238 0.000000 0.000000 0.000000
0.501812 1.121756 0.770165 0.000000 0.000000 0.000000
0.767105 0.950206 0.870833 0.000000 0.000000 0.000000
0.712809 1.261389 0.818904 0.000000 0.000000 0.000000
0.835551 1.060042 0.885624 0.000000 0.000000 0.000000
0.822469 1.004271 0.919360 0.000000 0.000000 0.000000
0.843649 1.040644 0.900299 0.000000 0.000000 0.000000
0.675204 0.909054 0.811736 0.000000 0.000000 0.000000
0.789575 0.953045 0.888047 0.000000 0.000000 0.000000
0.634347 1.281482 0.805035 0.000000 0.000000 0.000000
0.575888 1.281931 0.804290 0.000000 0.000000 0.000000
0.643109 0.940512 0.795592 0.000000 0.000000 0.000000
0.838310 1.004781 0.914648 0.000000 0.000000 0.000000
0.639813 0.927705 0.802837 0.000000 0.000000 0.000000
0.636675 0.935613 0.789534 0.000000 0.000000 0.000000
0.542660 1.174935 0.766716 0.000000 0.000000 0.000000
0.667670 0.921425 0.812365 0.000000 0.000000 0.000000
0.648592 0.935764 0.799653 0.000000 0.000000 0.000000
0.789192 1.219468 0.817649 0.000000 0.000000 0.000000
0.833243 1.024821 0.910888 0.000000 0.000000 0.000000
0.853857 1.021692 0.907774 0.000000 0.000000 0.000000
0.647353 0.926091 0.806613 0.000000 0.000000 0.000000
0.735300 0.922636 0.841191 0.000000 0.000000 0.000000
0.584928 1.259136 0.794872 0.000000 0.000000 0.000000
0.618567 0.939133 0.780930 0.000000 0.000000 0.000000
0.647777 0.930877 0.803874 0.000000 0.000000 0.000000
0.844133 1.030486 0.898690 0.000000 0.000000 0.000000
0.851873 1.012829 0.917747 0.000000 0.000000 0.000000
0.486088 1.076324 0.785924 0.000000 0.000000 0.000000
0.540542 1.010599 0.772191 0.000000 0.000000 0.000000
0.664467 0.923241 0.810968 0.000000 0.000000 0.000000
0.416189 1.215079 0.763034 0.000000 0.000000 0.000000
0.848391 1.027718 0.912700 0.000000 0.000000 0.000000
0.720989 0.929256 0.831180 0.000000 0.000000 0.000000
0.820550 0.961407 0.912874 0.000000 0.000000 0.000000
0.643894 1.275781 0.807920 0.000000 0.000000 0.000000
0.674338 1.271111 0.802553 0.000000 0.000000 0.000000
0.756973 1.227841 0.805466 0.000000 0.000000 0.000000
0.665655 1.276233 0.802368 0.000000 0.000000 0.000000
0.639448 1.277175 0.805087 0.000000 0.000000 0.000000
0.823721 0.970496 0.923052 0.000000 0.000000 0.000000
0.426491 1.204394 0.766183 0.000000 0.000000 0.000000
0.684815 1.270606 0.799269 0.000000 0.000000 0.000000
0.592849 1.278149 0.808597 0.000000 0.000000 0.000000
0.624788 1.126534 0.788411 0.000000 0.000000 0.000000
0.614819 1.269859 0.801701 0.000000 0.000000 0.000000
0.837063 1.039599 0.895654 0.000000 0.000000 0.000000
0.835146 1.152366 0.850377 0.000000 0.000000 0.000000
0.843613 1.025335 0.904366 0.000000 0.000000 0.000000
0.847923 1.000623 0.916660 0.000000 0.000000 0.000000
0.414428 1.255318 0.777164 0.000000 0.000000 0.000000
0.742490 0.939602 0.848374 0.000000 0.000000 0.000000
0.851978 1.031945 0.907304 0.000000 0.000000 0.000000
0.832696 1.035214 0.904227 0.000000 0.000000 0.000000
0.804486 0.952990 0.898517 0.000000 0.000000 0.000000
0.551635 0.981992 0.767161 0.000000 0.000000 0.000000
0.507522 1.283329 0.799903 0.000000 0.000000 0.000000
0.538107 1.011012 0.776058 0.000000 0.000000 0.000000
0.540218 0.995129 0.772457 0.000000 0.000000 0.000000
0.522678 1.190441 0.771456 0.000000 0.000000 0.000000
0.540625 1.004825 0.777581 0.000000 0.000000 0.000000
0.559787 1.259773 0.797745 0.000000 0.000000 0.000000
0.552785 0.984471 0.766384 0.000000 0.000000 0.000000
0.828825 1.162198 0.842210 0.000000 0.000000 0.000000
0.846632 1.009883 0.917140 0.000000 0.000000 0.000000
0.537031 1.012002 0.779104 0.000000 0.000000 0.000000
0.653111 0.921816 0.798904 0.000000 0.000000 0.000000
0.415622 1.254758 0.777849 0.000000 0.000000 0.000000
0.835893 0.956023 0.922876 0.000000 0.000000 0.000000
0.644516 1.278782 0.806060 0.000000 0.000000 0.000000
0.818928 0.978078 0.920242 0.000000 0.000000 0.000000
0.655657 1.285094 0.804187 0.000000 0.000000 0.000000
0.547511 1.040551 0.775886 0.000000 0.000000 0.000000
0.642952 1.266951 0.804253 0.000000 0.000000 0.000000
0.615626 1.275260 0.808271 0.000000 0.000000 0.000000
0.816602 1.160866 0.836394 0.000000 0.000000 0.000000
0.847536 1.053430 0.901320 0.000000 0.000000 0.000000
0.847790 1.023751 0.906710 0.000000 0.000000 0.000000
0.521699 1.027242 0.781921 0.000000 0.000000 0.000000
0.825756 1.157249 0.842224 0.000000 0.000000 0.000000
0.845058 1.043827 0.904452 0.000000 0.000000 0.000000
0.452787 1.118472 0.789610 0.000000 0.000000 0.000000
0.842606 1.055629 0.896936 0.000000 0.000000 0.000000
0.851898 1.024734 0.908294 0.000000 0.000000 0.000000
0.848879 1.051408 0.892735 0.000000 0.000000 0.000000
0.429007 1.161493 0.779696 0.000000 0.000000 0.000000
0.427479 1.153130 0.775260 0.000000 0.000000 0.000000
0.571591 0.963256 0.760098 0.000000 0.000000 0.000000
0.553083 1.283856 0.791641 0.000000 0.000000 0.000000
0.449596 1.125703 0.787091 0.000000 0.000000 0.000000
0.732491 0.932560 0.849573 0.000000 0.000000 0.000000
0.520025 1.010108 0.776586 0.000000 0.000000 0.000000
0.554425 1.288244 0.787144 0.000000 0.000000 0.000000
0.816413 1.168158 0.833440 0.000000 0.000000 0.000000
0.446583 1.154295 0.775127 0.000000 0.000000 0.000000
0.449663 1.122438 0.789990 0.000000 0.000000 0.000000
0.745915 0.946914 0.851017 0.000000 0.000000 0.000000
0.537644 1.009086 0.779313 0.000000 0.000000 0.000000
0.548885 1.288269 0.785903 0.000000 0.000000 0.000000
0.549669 1.197051 0.772386 0.000000 0.000000 0.000000
0.823367 1.149617 0.839635 0.000000 0.000000 0.000000
0.442664 1.142556 0.787331 0.000000 0.000000 0.000000
0.784533 0.945917 0.881037 0.000000 0.000000 0.000000
0.593946 0.954580 0.768872 0.000000 0.000000 0.000000
0.771867 0.935139 0.870335 0.000000 0.000000 0.000000
0.795214 1.208701 0.820084 0.000000 0.000000 0.000000
0.668233 1.266497 0.802273 0.000000 0.000000 0.000000
0.530247 1.020854 0.779189 0.000000 0.000000 0.000000
0.524794 1.025705 0.780137 0.000000 0.000000 0.000000
0.619914 0.958156 0.781157 0.000000 0.000000 0.000000
0.439226 1.137071 0.778999 0.000000 0.000000 0.000000
0.554855 0.994103 0.768249 0.000000 0.000000 0.000000
0.451064 1.135530 0.781579 0.000000 0.000000 0.000000
0.604571 0.946164 0.775004 0.000000 0.000000 0.000000
0.606413 0.955222 0.776825 0.000000 0.000000 0.000000
0.569838 1.001408 0.768889 0.000000 0.000000 0.000000
0.595158 0.963229 0.771916 0.000000 0.000000 0.000000
0.591467 0.962261 0.768503 0.000000 0.000000 0.000000
0.587130 0.967633 0.766992 0.000000 0.000000 0.000000
0.604600 0.949565 0.774601 0.000000 0.000000 0.000000
0.675976 1.275710 0.802158 0.000000 0.000000 0.000000
0.560030 0.977037 0.765517 0.000000 0.000000 0.000000
0.757485 0.936061 0.862482 0.000000 0.000000 0.000000
0.762450 0.939072 0.856920 0.000000 0.000000 0.000000
0.852089 1.052958 0.900058 0.000000 0.000000 0.000000
0.444347 1.133777 0.779864 0.000000 0.000000 0.000000
0.557125 0.991383 0.768303 0.000000 0.000000 0.000000
0.642034 0.980307 0.783046 0.000000 0.000000 0.000000
0.599417 0.946684 0.771289 0.000000 0.000000 0.000000
0.579391 1.025613 0.767401 0.000000 0.000000 0.000000
0.602278 0.964267 0.772508 0.000000 0.000000 0.000000
0.603065 0.947422 0.777679 0.000000 0.000000 0.000000
0.449152 1.138112 0.781862 0.000000 0.000000 0.000000
0.767036 0.937709 0.863912 0.000000 0.000000 0.000000
0.810552 0.986852 0.917761 0.000000 0.000000 0.000000
0.773749 0.943731 0.876654 0.000000 0.000000 0.000000
0.555112 1.285897 0.791997 0.000000 0.000000 0.000000
0.416754 1.225450 0.757479 0.000000 0.000000 0.000000
0.702465 1.264230 0.810731 0.000000 0.000000 0.000000
0.559063 1.278259 0.791800 0.000000 0.000000 0.000000
0.560608 1.288758 0.789608 0.000000 0.000000 0.000000
0.839064 1.028739 0.910341 0.000000 0.000000 0.000000
0.558297 1.284895 0.793188 0.000000 0.000000 0.000000
0.528332 1.017173 0.782457 0.000000 0.000000 0.000000
0.564559 1.275589 0.789324 0.000000 0.000000 0.000000
0.829276 1.089666 0.875429 0.000000 0.000000 0.000000
0.422946 1.166117 0.778077 0.000000 0.000000 0.000000
0.538936 1.030200 0.776830 0.000000 0.000000 0.000000
0.706481 1.238814 0.807056 0.000000 0.000000 0.000000
0.707812 1.262999 0.816378 0.000000 0.000000 0.000000
0.555186 0.990823 0.769365 0.000000 0.000000 0.000000
0.810131 0.975347 0.911557 0.000000 0.000000 0.000000
0.568571 1.286538 0.796904 0.000000 0.000000 0.000000
0.746343 0.921501 0.850119 0.000000 0.000000 0.000000
0.550466 1.286037 0.792055 0.000000 0.000000 0.000000
0.566559 1.287953 0.793259 0.000000 0.000000 0.000000
0.848801 1.057118 0.892245 0.000000 0.000000 0.000000
0.533140 1.016661 0.778753 0.000000 0.000000 0.000000
0.846616 1.060813 0.900875 0.000000 0.000000 0.000000
0.708071 1.248697 0.813438 0.000000 0.000000 0.000000
0.694502 1.259798 0.814807 0.000000 0.000000 0.000000
0.574685 1.284808 0.799720 0.000000 0.000000 0.000000
0.704265 1.240388 0.821613 0.000000 0.000000 0.000000
0.567052 1.284137 0.796260 0.000000 0.000000 0.000000
0.839810 0.982357 0.937883 0.000000 0.000000 0.000000
0.786148 1.222872 0.816761 0.000000 0.000000 0.000000
0.833149 0.981842 0.937687 0.000000 0.000000 0.000000
0.576819 0.983043 0.770162 0.000000 0.000000 0.000000
0.571436 1.283791 0.797922 0.000000 0.000000 0.000000
0.570324 1.280685 0.798348 0.000000 0.000000 0.000000
0.692598 1.268814 0.803054 0.000000 0.000000 0.000000
0.837055 0.981438 0.941916 0.000000 0.000000 0.000000
0.846385 1.117464 0.866707 0.000000 0.000000 0.000000
0.608290 1.106677 0.777347 0.000000 0.000000 0.000000
0.605321 1.000377 0.778097 0.000000 0.000000 0.000000
0.584554 1.046158 0.771303 0.000000 0.000000 0.000000
0.659549 1.026061 0.793463 0.000000 0.000000 0.000000
0.646852 1.020159 0.788414 0.000000 0.000000 0.000000
0.605807 1.026953 0.773026 0.000000 0.000000 0.000000
0.462385 1.282122 0.795880 0.000000 0.000000 0.000000
0.822035 0.989609 0.925858 0.000000 0.000000 0.000000
0.556116 0.998450 0.770495 0.000000 0.000000 0.000000
0.536698 1.118712 0.768711 0.000000 0.000000 0.000000
0.656289 0.992330 0.792019 0.000000 0.000000 0.000000
0.808333 1.199468 0.826930 0.000000 0.000000 0.000000
0.759808 0.924683 0.853510 0.000000 0.000000 0.000000
0.411523 1.251583 0.775658 0.000000 0.000000 0.000000
0.413602 1.250308 0.776783 0.000000 0.000000 0.000000
0.410463 1.247868 0.769172 0.000000 0.000000 0.000000
0.619822 1.015790 0.778515 0.000000 0.000000 0.000000
0.740616 1.039293 0.836136 0.000000 0.000000 0.000000
0.738727 1.012734 0.840468 0.000000 0.000000 0.000000
0.705621 1.016529 0.814680 0.000000 0.000000 0.000000
0.685039 1.032745 0.806832 0.000000 0.000000 0.000000
0.808635 0.956488 0.903958 0.000000 0.000000 0.000000
0.423291 1.241384 0.770008 0.000000 0.000000 0.000000
0.586511 1.017184 0.773813 0.000000 0.000000 0.000000
0.729689 1.023715 0.831153 0.000000 0.000000 0.000000
0.727486 1.062652 0.830329 0.000000 0.000000 0.000000
0.418377 1.247802 0.772037 0.000000 0.000000 0.000000
0.417110 1.245150 0.771231 0.000000 0.000000 0.000000
0.686466 1.015611 0.801962 0.000000 0.000000 0.000000
0.681828 1.019851 0.806445 0.000000 0.000000 0.000000
0.407596 1.265530 0.789901 0.000000 0.000000 0.000000
0.419239 1.236993 0.765262 0.000000 0.000000 0.000000
0.435850 1.146585 0.776924 0.000000 0.000000 0.000000
0.739910 1.245277 0.814916 0.000000 0.000000 0.000000
0.421776 1.159856 0.773468 0.000000 0.000000 0.000000
0.658391 0.979710 0.795646 0.000000 0.000000 0.000000
0.821579 0.981519 0.923954 0.000000 0.000000 0.000000
0.419406 1.185241 0.773332 0.000000 0.000000 0.000000
0.536536 1.096289 0.768954 0.000000 0.000000 0.000000
0.561117 1.115923 0.771435 0.000000 0.000000 0.000000
0.590881 0.990507 0.773647 0.000000 0.000000 0.000000
0.425737 1.160537 0.772575 0.000000 0.000000 0.000000
0.677736 0.975367 0.798245 0.000000 0.000000 0.000000
0.622374 1.277836 0.808818 0.000000 0.000000 0.000000
0.579344 1.015090 0.770708 0.000000 0.000000 0.000000
0.552242 1.096157 0.772674 0.000000 0.000000 0.000000
0.620336 0.937978 0.780329 0.000000 0.000000 0.000000
0.637331 1.055926 0.786676 0.000000 0.000000 0.000000
0.763542 0.951579 0.863978 0.000000 0.000000 0.000000
0.632994 0.925745 0.801397 0.000000 0.000000 0.000000
0.656428 1.278301 0.803618 0.000000 0.000000 0.000000
0.644338 1.275115 0.806390 0.000000 0.000000 0.000000
0.849459 1.013673 0.911229 0.000000 0.000000 0.000000
0.557876 1.284217 0.791073 0.000000 0.000000 0.000000
0.547710 0.987158 0.769930 0.000000 0.000000 0.000000
0.622401 1.275825 0.807465 0.000000 0.000000 0.000000
0.798197 0.943178 0.892116 0.000000 0.000000 0.000000
0.445211 1.280755 0.797134 0.000000 0.000000 0.000000
0.419569 1.205665 0.768492 0.000000 0.000000 0.000000
0.639654 1.280493 0.804988 0.000000 0.000000 0.000000
0.548415 1.285191 0.792780 0.000000 0.000000 0.000000
0.530688 1.281426 0.793617 0.000000 0.000000 0.000000
0.842226 1.005054 0.910822 0.000000 0.000000 0.000000
0.424949 1.266750 0.788822 0.000000 0.000000 0.000000
0.548065 1.282471 0.792350 0.000000 0.000000 0.000000
0.412169 1.200327 0.772398 0.000000 0.000000 0.000000
0.851057 1.029585 0.907030 0.000000 0.000000 0.000000
0.628465 1.280773 0.808673 0.000000 0.000000 0.000000
0.544674 0.997225 0.775968 0.000000 0.000000 0.000000
0.634120 1.261056 0.800415 0.000000 0.000000 0.000000
0.657323 1.279515 0.800731 0.000000 0.000000 0.000000
0.842906 1.012514 0.913040 0.000000 0.000000 0.000000
0.547334 1.246177 0.786994 0.000000 0.000000 0.000000
0.795418 0.947585 0.891964 0.000000 0.000000 0.000000
0.420561 1.173749 0.770717 0.000000 0.000000 0.000000
0.645807 1.261407 0.800776 0.000000 0.000000 0.000000
0.553790 1.278696 0.791638 0.000000 0.000000 0.000000
0.549341 1.265391 0.785516 0.000000 0.000000 0.000000
0.811373 0.984600 0.913881 0.000000 0.000000 0.000000
0.544360 1.284221 0.794368 0.000000 0.000000 0.000000
0.844459 1.010319 0.909062 0.000000 0.000000 0.000000
0.630984 1.278308 0.807871 0.000000 0.000000 0.000000
0.417725 1.231016 0.763024 0.000000 0.000000 0.000000
0.831551 0.964631 0.924395 0.000000 0.000000 0.000000
0.525387 1.020425 0.782142 0.000000 0.000000 0.000000
0.636078 0.982279 0.784101 0.000000 0.000000 0.000000
0.781596 1.163233 0.832164 0.000000 0.000000 0.000000
0.693075 1.132961 0.808865 0.000000 0.000000 0.000000
0.737070 0.927153 0.841476 0.000000 0.000000 0.000000
0.662919 1.275537 0.799552 0.000000 0.000000 0.000000
0.822555 0.969963 0.920002 0.000000 0.000000 0.000000
0.663249 1.274558 0.799996 0.000000 0.000000 0.000000
0.472804 1.070643 0.787669 0.000000 0.000000 0.000000
0.417795 1.183985 0.775282 0.000000 0.000000 0.000000
0.457577 1.108712 0.790449 0.000000 0.000000 0.000000
0.674559 1.273356 0.800492 0.000000 0.000000 0.000000
0.659639 1.277987 0.796885 0.000000 0.000000 0.000000
0.799880 0.984430 0.901595 0.000000 0.000000 0.000000
0.611945 1.260658 0.796648 0.000000 0.000000 0.000000
0.825011 0.961479 0.920598 0.000000 0.000000 0.000000
0.771057 1.182027 0.827081 0.000000 0.000000 0.000000
0.704524 1.135498 0.811345 0.000000 0.000000 0.000000
0.737087 0.927656 0.842370 0.000000 0.000000 0.000000
0.673200 1.277297 0.799510 0.000000 0.000000 0.000000
0.472913 1.115715 0.784739 0.000000 0.000000 0.000000
0.820364 0.978353 0.924171 0.000000 0.000000 0.000000
0.669130 1.279729 0.800014 0.000000 0.000000 0.000000
0.471712 1.086636 0.784717 0.000000 0.000000 0.000000
0.566958 0.973311 0.764962 0.000000 0.000000 0.000000
0.418182 1.187793 0.776288 0.000000 0.000000 0.000000
0.672807 1.276475 0.799404 0.000000 0.000000 0.000000
0.669358 1.276882 0.801967 0.000000 0.000000 0.000000
0.814399 0.976328 0.916719 0.000000 0.000000 0.000000
0.808745 0.959875 0.901894 0.000000 0.000000 0.000000
0.414209 1.191992 0.768290 0.000000 0.000000 0.000000
0.784503 1.211969 0.820659 0.000000 0.000000 0.000000
0.707867 1.263918 0.814272 0.000000 0.000000 0.000000
0.834119 0.965917 0.927920 0.000000 0.000000 0.000000
0.495276 1.124196 0.766416 0.000000 0.000000 0.000000
0.472126 1.106533 0.791549 0.000000 0.000000 0.000000
0.574726 0.971155 0.766823 0.000000 0.000000 0.000000
0.496216 1.135134 0.769180 0.000000 0.000000 0.000000
0.736905 1.200714 0.806637 0.000000 0.000000 0.000000
0.554468 0.983405 0.771122 0.000000 0.000000 0.000000
0.559234 0.974043 0.763129 0.000000 0.000000 0.000000
0.548594 0.999283 0.776118 0.000000 0.000000 0.000000
0.564960 0.978690 0.767827 0.000000 0.000000 0.000000
0.563743 0.987408 0.771396 0.000000 0.000000 0.000000
0.702550 0.989105 0.802860 0.000000 0.000000 0.000000
0.816685 0.952987 0.907287 0.000000 0.000000 0.000000
0.712514 1.258596 0.816025 0.000000 0.000000 0.000000
0.711784 1.248624 0.817316 0.000000 0.000000 0.000000
0.416214 1.182557 0.771106 0.000000 0.000000 0.000000
0.497168 1.155352 0.764578 0.000000 0.000000 0.000000
0.468883 1.097631 0.794487 0.000000 0.000000 0.000000
0.657149 0.963609 0.794455 0.000000 0.000000 0.000000
0.568503 0.985651 0.771870 0.000000 0.000000 0.000000
0.555094 0.990018 0.768549 0.000000 0.000000 0.000000
0.575515 0.985605 0.771463 0.000000 0.000000 0.000000
0.563705 0.974551 0.766768 0.000000 0.000000 0.000000
0.665962 1.008237 0.795911 0.000000 0.000000 0.000000
0.674786 1.136522 0.795155 0.000000 0.000000 0.000000
0.419174 1.179565 0.771301 0.000000 0.000000 0.000000
0.834182 0.989099 0.934543 0.000000 0.000000 0.000000
0.832709 0.975458 0.928919 0.000000 0.000000 0.000000
0.768276 1.232358 0.807694 0.000000 0.000000 0.000000
0.459079 1.162354 0.762238 0.000000 0.000000 0.000000
0.774731 1.199584 0.819865 0.000000 0.000000 0.000000
0.787008 1.182047 0.827781 0.000000 0.000000 0.000000
0.771961 1.227594 0.813360 0.000000 0.000000 0.000000
0.766022 1.225339 0.810010 0.000000 0.000000 0.000000
0.796591 1.196037 0.822625 0.000000 0.000000 0.000000
0.769469 1.230780 0.814432 0.000000 0.000000 0.000000
0.771725 1.210059 0.814133 0.000000 0.000000 0.000000
0.692467 0.909622 0.821573 0.000000 0.000000 0.000000
0.453737 1.110139 0.788712 0.000000 0.000000 0.000000
0.843803 1.103480 0.871372 0.000000 0.000000 0.000000
0.606156 1.192268 0.780244 0.000000 0.000000 0.000000
0.740689 1.239609 0.814268 0.000000 0.000000 0.000000
0.466103 1.074861 0.788697 0.000000 0.000000 0.000000
0.748111 1.242277 0.812284 0.000000 0.000000 0.000000
0.751061 1.242374 0.814243 0.000000 0.000000 0.000000
0.551114 1.002081 0.775744 0.000000 0.000000 0.000000
0.459369 1.146532 0.764998 0.000000 0.000000 0.000000
0.778046 1.200306 0.823861 0.000000 0.000000 0.000000
0.763428 1.173893 0.817738 0.000000 0.000000 0.000000
0.767589 1.216565 0.811670 0.000000 0.000000 0.000000
0.790040 1.202942 0.819210 0.000000 0.000000 0.000000
0.781085 1.214545 0.816939 0.000000 0.000000 0.000000
0.784340 1.199303 0.820520 0.000000 0.000000 0.000000
0.762474 1.235144 0.813734 0.000000 0.000000 0.000000
0.767057 1.209780 0.815892 0.000000 0.000000 0.000000
0.447953 1.121936 0.787664 0.000000 0.000000 0.000000
0.847496 1.098372 0.878976 0.000000 0.000000 0.000000
0.742095 1.243010 0.814333 0.000000 0.000000 0.000000
0.693054 0.903851 0.821610 0.000000 0.000000 0.000000
0.740541 1.237598 0.812573 0.000000 0.000000 0.000000
0.542699 1.003698 0.774055 0.000000 0.000000 0.000000
0.527464 1.012807 0.773788 0.000000 0.000000 0.000000
0.840055 1.056119 0.889231 0.000000 0.000000 0.000000
0.599109 1.148933 0.779044 0.000000 0.000000 0.000000
0.754869 0.935288 0.854985 0.000000 0.000000 0.000000
0.756591 0.938897 0.852902 0.000000 0.000000 0.000000
0.571517 0.970093 0.764380 0.000000 0.000000 0.000000
0.712603 1.143127 0.808352 0.000000 0.000000 0.000000
0.670672 1.266463 0.799504 0.000000 0.000000 0.000000
0.641177 0.928285 0.804105 0.000000 0.000000 0.000000
0.853438 1.066476 0.888191 0.000000 0.000000 0.000000
0.672995 1.096097 0.800893 0.000000 0.000000 0.000000
0.847335 1.059817 0.892990 0.000000 0.000000 0.000000
0.656571 1.231994 0.799649 0.000000 0.000000 0.000000
0.754073 0.931213 0.851826 0.000000 0.000000 0.000000
0.760379 0.934981 0.857573 0.000000 0.000000 0.000000
0.579478 0.959148 0.764035 0.000000 0.000000 0.000000
0.680167 0.918991 0.816623 0.000000 0.000000 0.000000
0.641932 1.128448 0.790160 0.000000 0.000000 0.000000
0.668454 1.110389 0.798890 0.000000 0.000000 0.000000
0.854341 1.062444 0.885143 0.000000 0.000000 0.000000
0.846853 1.060994 0.885530 0.000000 0.000000 0.000000
0.406751 1.203623 0.766722 0.000000 0.000000 0.000000
0.413455 1.214854 0.760068 0.000000 0.000000 0.000000
0.407838 1.208349 0.759960 0.000000 0.000000 0.000000
0.713921 1.259395 0.823739 0.000000 0.000000 0.000000
0.533906 1.025576 0.776506 0.000000 0.000000 0.000000
0.612277 0.935453 0.777017 0.000000 0.000000 0.000000
0.672585 0.918856 0.813339 0.000000 0.000000 0.000000
0.424683 1.214945 0.764011 0.000000 0.000000 0.000000
0.431094 1.270393 0.787365 0.000000 0.000000 0.000000
0.421491 1.270609 0.790392 0.000000 0.000000 0.000000
0.476828 1.084169 0.798723 0.000000 0.000000 0.000000
0.821898 0.957769 0.909688 0.000000 0.000000 0.000000
0.734590 0.950369 0.843913 0.000000 0.000000 0.000000
0.438824 1.273570 0.789202 0.000000 0.000000 0.000000
0.493697 1.040360 0.781358 0.000000 0.000000 0.000000
0.565503 1.279300 0.794675 0.000000 0.000000 0.000000
0.601739 1.272190 0.808588 0.000000 0.000000 0.000000
0.574809 1.274266 0.798942 0.000000 0.000000 0.000000
0.623883 0.945864 0.787815 0.000000 0.000000 0.000000
0.775564 0.937194 0.873125 0.000000 0.000000 0.000000
0.426774 1.276908 0.796972 0.000000 0.000000 0.000000
0.509916 1.146724 0.763045 0.000000 0.000000 0.000000
0.420651 1.221197 0.762443 0.000000 0.000000 0.000000
0.442991 1.271554 0.792625 0.000000 0.000000 0.000000
0.423315 1.270389 0.786484 0.000000 0.000000 0.000000
0.413182 1.208298 0.762550 0.000000 0.000000 0.000000
0.454623 1.273947 0.794030 0.000000 0.000000 0.000000
0.419441 1.268659 0.788588 0.000000 0.000000 0.000000
0.415269 1.211602 0.763503 0.000000 0.000000 0.000000
0.602769 0.941637 0.778422 0.000000 0.000000 0.000000
0.473971 1.074865 0.796936 0.000000 0.000000 0.000000
0.819582 0.965671 0.913895 0.000000 0.000000 0.000000
0.586611 1.279104 0.807402 0.000000 0.000000 0.000000
0.727606 0.921601 0.840270 0.000000 0.000000 0.000000
0.415672 1.266814 0.786806 0.000000 0.000000 0.000000
0.599643 0.935601 0.769504 0.000000 0.000000 0.000000
0.579576 1.282847 0.803191 0.000000 0.000000 0.000000
0.510897 1.032396 0.781249 0.000000 0.000000 0.000000
0.787772 0.938677 0.884582 0.000000 0.000000 0.000000
0.442304 1.269646 0.794023 0.000000 0.000000 0.000000
0.485216 1.156335 0.763280 0.000000 0.000000 0.000000
0.410764 1.210313 0.766961 0.000000 0.000000 0.000000
0.808266 1.198827 0.824725 0.000000 0.000000 0.000000
0.426060 1.158231 0.777514 0.000000 0.000000 0.000000
0.617610 0.946824 0.783547 0.000000 0.000000 0.000000
0.840753 1.015304 0.907728 0.000000 0.000000 0.000000
0.498100 1.046211 0.780996 0.000000 0.000000 0.000000
0.515779 1.038395 0.782496 0.000000 0.000000 0.000000
0.482918 1.105501 0.777359 0.000000 0.000000 0.000000
0.497443 1.095567 0.776621 0.000000 0.000000 0.000000
0.487857 1.105026 0.769463 0.000000 0.000000 0.000000
0.474842 1.096187 0.779749 0.000000 0.000000 0.000000
0.467124 1.102177 0.783933 0.000000 0.000000 0.000000
0.463450 1.117051 0.778325 0.000000 0.000000 0.000000
0.795938 1.211833 0.823070 0.000000 0.000000 0.000000
0.476084 1.100440 0.777306 0.000000 0.000000 0.000000
0.530901 1.090862 0.768596 0.000000 0.000000 0.000000
0.504417 1.090335 0.770339 0.000000 0.000000 0.000000
0.480099 1.096824 0.778162 0.000000 0.000000 0.000000
0.447824 1.279440 0.797588 0.000000 0.000000 0.000000
0.792061 1.012820 0.886139 0.000000 0.000000 0.000000
0.797985 1.206562 0.822217 0.000000 0.000000 0.000000
0.500511 1.093186 0.771526 0.000000 0.000000 0.000000
0.625420 0.925764 0.789764 0.000000 0.000000 0.000000
0.803130 1.203599 0.826877 0.000000 0.000000 0.000000
0.504400 1.077319 0.774313 0.000000 0.000000 0.000000
0.478581 1.117651 0.771686 0.000000 0.000000 0.000000
0.454888 1.113634 0.790568 0.000000 0.000000 0.000000
0.458450 1.109377 0.785693 0.000000 0.000000 0.000000
0.501908 1.037563 0.781686 0.000000 0.000000 0.000000
0.796330 1.203575 0.824768 0.000000 0.000000 0.000000
0.486217 1.091495 0.776265 0.000000 0.000000 0.000000
0.520725 1.072812 0.771203 0.000000 0.000000 0.000000
0.502336 1.070533 0.773371 0.000000 0.000000 0.000000
0.773050 1.199084 0.820771 0.000000 0.000000 0.000000
0.460580 1.101186 0.793520 0.000000 0.000000 0.000000
0.461863 1.107167 0.782911 0.000000 0.000000 0.000000
0.806456 1.205327 0.821143 0.000000 0.000000 0.000000
0.788344 1.219810 0.815821 0.000000 0.000000 0.000000
0.515856 1.079356 0.768060 0.000000 0.000000 0.000000
0.846111 1.006685 0.913216 0.000000 0.000000 0.000000
0.808169 1.204040 0.825704 0.000000 0.000000 0.000000
0.797485 1.213264 0.818464 0.000000 0.000000 0.000000
0.557582 0.986144 0.768552 0.000000 0.000000 0.000000
0.772067 1.223858 0.815326 0.000000 0.000000 0.000000
0.545798 1.184242 0.771558 0.000000 0.000000 0.000000
0.795369 0.927061 0.890071 0.000000 0.000000 0.000000
0.646873 0.924573 0.804718 0.000000 0.000000 0.000000
0.518318 1.042876 0.778024 0.000000 0.000000 0.000000
0.552808 0.991436 0.768383 0.000000 0.000000 0.000000
0.427290 1.157291 0.776493 0.000000 0.000000 0.000000
0.659334 1.110628 0.797603 0.000000 0.000000 0.000000
0.833777 0.965895 0.925508 0.000000 0.000000 0.000000
0.786655 1.035215 0.867831 0.000000 0.000000 0.000000
0.433034 1.159136 0.778343 0.000000 0.000000 0.000000
0.811662 0.952578 0.906826 0.000000 0.000000 0.000000
0.835593 0.970765 0.934500 0.000000 0.000000 0.000000
0.844414 1.048623 0.896468 0.000000 0.000000 0.000000
0.521846 1.023751 0.782916 0.000000 0.000000 0.000000
0.842300 1.011696 0.919698 0.000000 0.000000 0.000000
0.636320 0.922356 0.795544 0.000000 0.000000 0.000000
0.557505 1.170237 0.764318 0.000000 0.000000 0.000000
0.638594 0.916271 0.797245 0.000000 0.000000 0.000000
0.729864 0.919024 0.838729 0.000000 0.000000 0.000000
0.404553 1.261080 0.785838 0.000000 0.000000 0.000000
0.597118 0.947122 0.767758 0.000000 0.000000 0.000000
0.699658 1.248317 0.815560 0.000000 0.000000 0.000000
0.688734 1.264893 0.804966 0.000000 0.000000 0.000000
0.827239 1.104893 0.875150 0.000000 0.000000 0.000000
0.610129 1.265534 0.796970 0.000000 0.000000 0.000000
0.605220 1.272309 0.801230 0.000000 0.000000 0.000000
0.592156 1.279989 0.806656 0.000000 0.000000 0.000000
0.827274 1.170909 0.839809 0.000000 0.000000 0.000000
0.822943 1.170816 0.837790 0.000000 0.000000 0.000000
0.683650 0.927729 0.820362 0.000000 0.000000 0.000000
0.833865 0.956766 0.917342 0.000000 0.000000 0.000000
0.702484 1.264999 0.814977 0.000000 0.000000 0.000000
0.695374 0.988761 0.815352 0.000000 0.000000 0.000000
0.534431 1.258590 0.787821 0.000000 0.000000 0.000000
0.610303 0.981352 0.774578 0.000000 0.000000 0.000000
0.819717 1.032567 0.882957 0.000000 0.000000 0.000000
0.558064 1.231415 0.783570 0.000000 0.000000 0.000000
0.586172 1.163975 0.772389 0.000000 0.000000 0.000000
0.561601 1.261907 0.786612 0.000000 0.000000 0.000000
0.574602 1.239620 0.788454 0.000000 0.000000 0.000000
0.815608 1.159158 0.832989 0.000000 0.000000 0.000000
0.504081 1.278691 0.794990 0.000000 0.000000 0.000000
0.664443 1.203576 0.801855 0.000000 0.000000 0.000000
0.616748 1.162939 0.783140 0.000000 0.000000 0.000000
0.650463 1.228560 0.792509 0.000000 0.000000 0.000000
0.830983 1.083490 0.875962 0.000000 0.000000 0.000000
0.761375 1.115477 0.827647 0.000000 0.000000 0.000000
0.649550 0.960906 0.792374 0.000000 0.000000 0.000000
0.595443 1.262003 0.798038 0.000000 0.000000 0.000000
0.605187 1.247725 0.788212 0.000000 0.000000 0.000000
0.691829 0.940344 0.817840 0.000000 0.000000 0.000000
0.697685 0.980329 0.808485 0.000000 0.000000 0.000000
0.746428 0.958781 0.846955 0.000000 0.000000 0.000000
0.636782 1.239193 0.799126 0.000000 0.000000 0.000000
0.596500 1.249408 0.791268 0.000000 0.000000 0.000000
0.599546 1.233100 0.789694 0.000000 0.000000 0.000000
0.430134 1.170753 0.772358 0.000000 0.000000 0.000000
0.707792 0.952153 0.827210 0.000000 0.000000 0.000000
0.575590 1.190461 0.775268 0.000000 0.000000 0.000000
0.563148 1.136247 0.770783 0.000000 0.000000 0.000000
0.578135 1.280944 0.802042 0.000000 0.000000 0.000000
0.555270 1.249238 0.783682 0.000000 0.000000 0.000000
0.527057 1.232857 0.778605 0.000000 0.000000 0.000000
0.567777 1.273193 0.791400 0.000000 0.000000 0.000000
0.566912 1.055513 0.768572 0.000000 0.000000 0.000000
0.696733 1.026013 0.810181 0.000000 0.000000 0.000000
0.788890 0.972979 0.873113 0.000000 0.000000 0.000000
0.809648 1.110288 0.853670 0.000000 0.000000 0.000000
0.741921 1.176765 0.813633 0.000000 0.000000 0.000000
0.819847 0.958760 0.911893 0.000000 0.000000 0.000000
0.575638 1.229407 0.782828 0.000000 0.000000 0.000000
0.686727 1.174439 0.803512 0.000000 0.000000 0.000000
0.787664 1.028764 0.874149 0.000000 0.000000 0.000000
0.777248 1.119854 0.838023 0.000000 0.000000 0.000000
0.795678 1.129445 0.844342 0.000000 0.000000 0.000000
0.616188 1.146637 0.784079 0.000000 0.000000 0.000000
0.533466 1.225808 0.776772 0.000000 0.000000 0.000000
0.813050 1.017996 0.883308 0.000000 0.000000 0.000000
0.828586 1.034697 0.901406 0.000000 0.000000 0.000000
0.760603 1.148423 0.821613 0.000000 0.000000 0.000000
0.834556 1.092010 0.868611 0.000000 0.000000 0.000000
0.711684 1.213657 0.800930 0.000000 0.000000 0.000000
0.789982 1.068527 0.859591 0.000000 0.000000 0.000000
0.817892 1.013788 0.887215 0.000000 0.000000 0.000000
0.538216 1.279040 0.791644 0.000000 0.000000 0.000000
0.561220 1.277647 0.791407 0.000000 0.000000 0.000000
0.583562 1.261396 0.790542 0.000000 0.000000 0.000000
0.797895 1.005031 0.909521 0.000000 0.000000 0.000000
0.608581 1.234833 0.787142 0.000000 0.000000 0.000000
0.561374 1.284745 0.789121 0.000000 0.000000 0.000000
0.829092 1.014994 0.891071 0.000000 0.000000 0.000000
0.524863 1.164200 0.766932 0.000000 0.000000 0.000000
0.839385 0.991512 0.923614 0.000000 0.000000 0.000000
0.853482 1.023821 0.914641 0.000000 0.000000 0.000000
0.522197 1.022812 0.781192 0.000000 0.000000 0.000000
0.698587 1.052030 0.814582 0.000000 0.000000 0.000000
0.560864 1.270928 0.787944 0.000000 0.000000 0.000000
0.540982 1.264385 0.785217 0.000000 0.000000 0.000000
0.683892 1.044562 0.805642 0.000000 0.000000 0.000000
0.712800 0.923888 0.834484 0.000000 0.000000 0.000000
0.608288 1.273184 0.809649 0.000000 0.000000 0.000000
0.563202 1.285838 0.797728 0.000000 0.000000 0.000000
0.818878 0.940822 0.907924 0.000000 0.000000 0.000000
0.594550 1.275607 0.809646 0.000000 0.000000 0.000000
0.809253 0.937161 0.901352 0.000000 0.000000 0.000000
0.804733 0.932688 0.886430 0.000000 0.000000 0.000000
0.817812 0.951307 0.909117 0.000000 0.000000 0.000000
0.722669 1.016197 0.830002 0.000000 0.000000 0.000000
0.483088 1.215986 0.771688 0.000000 0.000000 0.000000
0.618953 0.991318 0.777737 0.000000 0.000000 0.000000
0.838485 1.043058 0.879519 0.000000 0.000000 0.000000
0.561425 1.251838 0.784388 0.000000 0.000000 0.000000
0.540226 1.244239 0.783883 0.000000 0.000000 0.000000
0.571921 1.237288 0.784329 0.000000 0.000000 0.000000
0.594946 1.258971 0.791833 0.000000 0.000000 0.000000
0.817607 1.173119 0.834140 0.000000 0.000000 0.000000
0.666500 1.220552 0.800773 0.000000 0.000000 0.000000
0.705206 1.196903 0.806891 0.000000 0.000000 0.000000
0.726364 1.049543 0.830685 0.000000 0.000000 0.000000
0.628948 1.248984 0.794297 0.000000 0.000000 0.000000
0.813988 0.998358 0.907174 0.000000 0.000000 0.000000
0.697901 0.951841 0.814859 0.000000 0.000000 0.000000
0.501349 1.262935 0.785776 0.000000 0.000000 0.000000
0.585997 1.271036 0.804805 0.000000 0.000000 0.000000
0.581398 1.251688 0.789812 0.000000 0.000000 0.000000
0.764951 1.170456 0.819070 0.000000 0.000000 0.000000
0.697451 0.956565 0.819436 0.000000 0.000000 0.000000
0.693329 0.972199 0.809963 0.000000 0.000000 0.000000
0.702250 0.962517 0.816850 0.000000 0.000000 0.000000
0.661713 1.215894 0.800957 0.000000 0.000000 0.000000
0.547636 1.253286 0.788626 0.000000 0.000000 0.000000
0.590892 1.273436 0.804256 0.000000 0.000000 0.000000
0.711613 0.947024 0.828158 0.000000 0.000000 0.000000
0.538839 1.192282 0.771162 0.000000 0.000000 0.000000
0.561237 1.181720 0.774312 0.000000 0.000000 0.000000
0.552702 1.241574 0.785498 0.000000 0.000000 0.000000
0.530275 1.214375 0.771690 0.000000 0.000000 0.000000
0.574796 1.279531 0.796770 0.000000 0.000000 0.000000
0.679155 1.012559 0.800299 0.000000 0.000000 0.000000
0.798690 1.073165 0.859982 0.000000 0.000000 0.000000
0.807894 1.071828 0.869608 0.000000 0.000000 0.000000
0.814357 0.970397 0.914246 0.000000 0.000000 0.000000
0.578801 1.237766 0.783233 0.000000 0.000000 0.000000
0.685721 1.143380 0.804538 0.000000 0.000000 0.000000
0.752192 1.026253 0.848898 0.000000 0.000000 0.000000
0.731460 1.113276 0.823537 0.000000 0.000000 0.000000
0.780653 1.154482 0.830300 0.000000 0.000000 0.000000
0.548236 1.207725 0.776668 0.000000 0.000000 0.000000
0.781622 1.037723 0.860763 0.000000 0.000000 0.000000
0.794859 1.123448 0.843029 0.000000 0.000000 0.000000
0.507679 1.279177 0.798763 0.000000 0.000000 0.000000
0.507679 1.284896 0.798002 0.000000 0.000000 0.000000
0.804907 1.062555 0.865252 0.000000 0.000000 0.000000
0.536702 1.270838 0.790541 0.000000 0.000000 0.000000
0.554120 1.281722 0.794923 0.000000 0.000000 0.000000
0.610082 1.247957 0.795312 0.000000 0.000000 0.000000
0.810408 0.997588 0.920480 0.000000 0.000000 0.000000
0.611642 1.243882 0.791553 0.000000 0.000000 0.000000
0.576557 1.269701 0.795031 0.000000 0.000000 0.000000
0.825727 0.992934 0.911824 0.000000 0.000000 0.000000
0.646631 1.017510 0.788395 0.000000 0.000000 0.000000
0.573157 1.145721 0.773125 0.000000 0.000000 0.000000
0.850325 1.004633 0.916157 0.000000 0.000000 0.000000
0.837281 1.006598 0.899549 0.000000 0.000000 0.000000
0.825417 1.019238 0.901438 0.000000 0.000000 0.000000
0.840982 1.021250 0.894862 0.000000 0.000000 0.000000
0.827110 1.171621 0.836709 0.000000 0.000000 0.000000
0.532240 1.010067 0.779344 0.000000 0.000000 0.000000
0.819215 1.055511 0.874045 0.000000 0.000000 0.000000
0.781402 0.978891 0.877176 0.000000 0.000000 0.000000
0.572933 1.274909 0.795853 0.000000 0.000000 0.000000
0.524515 1.263727 0.792448 0.000000 0.000000 0.000000
0.594829 1.276389 0.810253 0.000000 0.000000 0.000000
0.671282 0.994758 0.795671 0.000000 0.000000 0.000000
0.721778 0.912557 0.835147 0.000000 0.000000 0.000000
0.535518 1.244769 0.782478 0.000000 0.000000 0.000000
0.822267 0.939712 0.911545 0.000000 0.000000 0.000000
0.599690 1.276142 0.810492 0.000000 0.000000 0.000000
0.804418 0.929176 0.895164 0.000000 0.000000 0.000000
0.820791 0.953400 0.912671 0.000000 0.000000 0.000000
0.799888 1.022586 0.875147 0.000000 0.000000 0.000000
0.698110 0.935764 0.814416 0.000000 0.000000 0.000000
0.531535 1.006896 0.778575 0.000000 0.000000 0.000000
0.484480 1.051137 0.781981 0.000000 0.000000 0.000000
0.828630 1.160003 0.844163 0.000000 0.000000 0.000000
0.540706 1.005845 0.778163 0.000000 0.000000 0.000000
0.585931 0.962555 0.766458 0.000000 0.000000 0.000000
0.580801 0.968048 0.766001 0.000000 0.000000 0.000000
0.702472 0.920751 0.820788 0.000000 0.000000 0.000000
0.589425 0.970060 0.770559 0.000000 0.000000 0.000000
0.583057 0.968615 0.767858 0.000000 0.000000 0.000000
0.575921 1.163232 0.776661 0.000000 0.000000 0.000000
0.417816 1.276443 0.795000 0.000000 0.000000 0.000000
0.636661 0.951852 0.785485 0.000000 0.000000 0.000000
0.661532 0.917837 0.812252 0.000000 0.000000 0.000000
0.837982 0.993530 0.930596 0.000000 0.000000 0.000000
0.822680 1.183435 0.833980 0.000000 0.000000 0.000000
0.552999 0.984071 0.768716 0.000000 0.000000 0.000000
0.810670 1.204325 0.827988 0.000000 0.000000 0.000000
0.833918 1.013717 0.912023 0.000000 0.000000 0.000000
0.801269 1.058242 0.867135 0.000000 0.000000 0.000000
0.824712 1.059891 0.879135 0.000000 0.000000 0.000000
0.816133 1.178844 0.830823 0.000000 0.000000 0.000000
0.637399 1.222520 0.793289 0.000000 0.000000 0.000000
0.561288 1.220793 0.779375 0.000000 0.000000 0.000000
0.587302 1.192327 0.779346 0.000000 0.000000 0.000000
0.593571 0.955241 0.769094 0.000000 0.000000 0.000000
0.508846 1.284281 0.799125 0.000000 0.000000 0.000000
0.578295 0.975217 0.766294 0.000000 0.000000 0.000000
0.704423 0.926083 0.820527 0.000000 0.000000 0.000000
0.589009 0.978103 0.772150 0.000000 0.000000 0.000000
0.584145 0.975427 0.768315 0.000000 0.000000 0.000000
0.602260 1.134253 0.781186 0.000000 0.000000 0.000000
0.696768 0.913785 0.821245 0.000000 0.000000 0.000000
0.611572 0.967443 0.774344 0.000000 0.000000 0.000000
0.769552 1.008907 0.868544 0.000000 0.000000 0.000000
0.835189 0.997153 0.923908 0.000000 0.000000 0.000000
0.805663 1.187782 0.828538 0.000000 0.000000 0.000000
0.576160 0.964662 0.765934 0.000000 0.000000 0.000000
0.623632 0.926124 0.786183 0.000000 0.000000 0.000000
0.810307 1.025927 0.879286 0.000000 0.000000 0.000000
0.792529 1.044212 0.869143 0.000000 0.000000 0.000000
0.824289 1.081393 0.868440 0.000000 0.000000 0.000000
0.834790 1.149459 0.847029 0.000000 0.000000 0.000000
