ply
format ascii 1.0
comment VCGLIB generated
obj_info Generated by SPFormer!
element vertex 884
property float x
property float y
property float z
property float nx
property float ny
property float nz
end_header
2.008874 1.025116 0.466791 0.000000 0.000000 0.000000
2.188575 1.191035 0.700173 0.000000 0.000000 0.000000
2.204513 1.164096 0.723705 0.000000 0.000000 0.000000
2.156334 1.178642 0.696292 0.000000 0.000000 0.000000
2.121338 1.144012 0.671877 0.000000 0.000000 0.000000
2.214810 1.118612 0.695125 0.000000 0.000000 0.000000
2.217282 1.006784 0.603211 0.000000 0.000000 0.000000
1.943337 1.043224 0.485246 0.000000 0.000000 0.000000
1.967360 1.143295 0.527079 0.000000 0.000000 0.000000
2.208081 1.024929 0.594552 0.000000 0.000000 0.000000
2.172648 1.177218 0.693854 0.000000 0.000000 0.000000
2.187291 1.052702 0.616319 0.000000 0.000000 0.000000
2.194880 1.058787 0.610386 0.000000 0.000000 0.000000
2.153525 1.197115 0.662213 0.000000 0.000000 0.000000
1.931942 1.041045 0.479019 0.000000 0.000000 0.000000
2.060542 1.167993 0.583442 0.000000 0.000000 0.000000
2.178172 1.042875 0.573253 0.000000 0.000000 0.000000
2.013464 1.121797 0.535165 0.000000 0.000000 0.000000
2.172643 1.079282 0.620644 0.000000 0.000000 0.000000
2.130706 0.926565 0.515805 0.000000 0.000000 0.000000
2.111807 1.090831 0.563605 0.000000 0.000000 0.000000
2.146173 1.056226 0.552485 0.000000 0.000000 0.000000
1.925966 1.138926 0.515467 0.000000 0.000000 0.000000
1.988040 1.145368 0.519202 0.000000 0.000000 0.000000
2.195678 1.058588 0.608120 0.000000 0.000000 0.000000
2.059788 1.094132 0.535090 0.000000 0.000000 0.000000
2.204151 0.997724 0.588172 0.000000 0.000000 0.000000
2.159913 1.116878 0.671326 0.000000 0.000000 0.000000
2.214847 1.001905 0.600478 0.000000 0.000000 0.000000
2.022657 0.988643 0.465189 0.000000 0.000000 0.000000
2.024009 1.020457 0.475978 0.000000 0.000000 0.000000
2.134022 1.191822 0.644604 0.000000 0.000000 0.000000
1.940434 1.022616 0.466622 0.000000 0.000000 0.000000
2.145002 1.184612 0.678637 0.000000 0.000000 0.000000
2.116999 0.973829 0.473593 0.000000 0.000000 0.000000
2.047344 1.176901 0.596836 0.000000 0.000000 0.000000
2.152949 0.936471 0.511465 0.000000 0.000000 0.000000
1.925727 1.029676 0.478796 0.000000 0.000000 0.000000
2.231159 1.095874 0.687834 0.000000 0.000000 0.000000
2.023752 1.016418 0.477487 0.000000 0.000000 0.000000
1.936863 1.019827 0.463973 0.000000 0.000000 0.000000
2.144689 0.931740 0.521653 0.000000 0.000000 0.000000
2.146458 0.938350 0.515066 0.000000 0.000000 0.000000
2.003291 1.084276 0.511840 0.000000 0.000000 0.000000
1.947914 1.023656 0.461330 0.000000 0.000000 0.000000
2.174761 0.936759 0.514884 0.000000 0.000000 0.000000
1.921249 1.027468 0.477340 0.000000 0.000000 0.000000
2.065077 0.965000 0.472811 0.000000 0.000000 0.000000
1.927119 1.023733 0.476148 0.000000 0.000000 0.000000
1.939637 1.149533 0.537023 0.000000 0.000000 0.000000
2.234606 1.050141 0.635532 0.000000 0.000000 0.000000
1.921889 1.020310 0.473894 0.000000 0.000000 0.000000
2.194793 1.068462 0.631798 0.000000 0.000000 0.000000
1.996478 1.005751 0.466178 0.000000 0.000000 0.000000
1.992237 1.003279 0.462825 0.000000 0.000000 0.000000
2.018429 0.986112 0.460114 0.000000 0.000000 0.000000
1.986402 1.010702 0.467990 0.000000 0.000000 0.000000
1.967972 1.004715 0.456157 0.000000 0.000000 0.000000
2.009694 1.004653 0.461827 0.000000 0.000000 0.000000
2.015551 0.988050 0.464800 0.000000 0.000000 0.000000
2.032151 0.995364 0.469917 0.000000 0.000000 0.000000
1.922913 1.029771 0.482666 0.000000 0.000000 0.000000
1.937700 1.015904 0.466034 0.000000 0.000000 0.000000
2.197648 0.968416 0.551634 0.000000 0.000000 0.000000
2.118479 0.960043 0.492601 0.000000 0.000000 0.000000
2.216513 0.996609 0.577387 0.000000 0.000000 0.000000
1.925380 1.083002 0.499115 0.000000 0.000000 0.000000
2.147059 1.127865 0.603735 0.000000 0.000000 0.000000
2.084840 1.000907 0.499760 0.000000 0.000000 0.000000
1.938304 1.102585 0.488642 0.000000 0.000000 0.000000
2.093787 1.195100 0.604520 0.000000 0.000000 0.000000
2.011734 0.996561 0.447179 0.000000 0.000000 0.000000
2.140214 0.986434 0.506220 0.000000 0.000000 0.000000
1.935506 1.094824 0.483520 0.000000 0.000000 0.000000
1.969472 1.156730 0.591120 0.000000 0.000000 0.000000
2.087783 1.197234 0.611103 0.000000 0.000000 0.000000
1.960588 1.026156 0.475840 0.000000 0.000000 0.000000
2.197446 1.039694 0.596276 0.000000 0.000000 0.000000
2.216608 1.076249 0.670886 0.000000 0.000000 0.000000
2.203921 0.941520 0.535281 0.000000 0.000000 0.000000
2.098081 1.205380 0.630370 0.000000 0.000000 0.000000
2.116672 0.928560 0.503714 0.000000 0.000000 0.000000
2.140673 1.193460 0.653996 0.000000 0.000000 0.000000
2.149572 1.146616 0.635670 0.000000 0.000000 0.000000
2.066096 0.996858 0.458065 0.000000 0.000000 0.000000
2.098995 1.002843 0.464425 0.000000 0.000000 0.000000
2.164596 0.972311 0.530870 0.000000 0.000000 0.000000
2.183482 1.101834 0.635422 0.000000 0.000000 0.000000
2.113804 1.089520 0.569876 0.000000 0.000000 0.000000
2.026204 1.024198 0.474083 0.000000 0.000000 0.000000
2.163667 1.107668 0.621249 0.000000 0.000000 0.000000
1.932197 1.017384 0.465299 0.000000 0.000000 0.000000
2.173350 1.121931 0.646553 0.000000 0.000000 0.000000
1.990628 1.017523 0.473452 0.000000 0.000000 0.000000
2.002035 1.056906 0.502223 0.000000 0.000000 0.000000
2.159205 1.101892 0.628551 0.000000 0.000000 0.000000
2.191254 0.989189 0.552944 0.000000 0.000000 0.000000
1.976488 1.149930 0.527126 0.000000 0.000000 0.000000
2.204546 1.071038 0.639818 0.000000 0.000000 0.000000
2.061378 0.990351 0.463645 0.000000 0.000000 0.000000
2.168914 1.063883 0.584917 0.000000 0.000000 0.000000
2.201264 1.156441 0.713739 0.000000 0.000000 0.000000
2.165094 1.099601 0.609670 0.000000 0.000000 0.000000
2.175270 1.085739 0.608735 0.000000 0.000000 0.000000
2.177792 0.980095 0.548674 0.000000 0.000000 0.000000
2.188962 0.938981 0.538364 0.000000 0.000000 0.000000
2.205587 0.945814 0.542177 0.000000 0.000000 0.000000
2.224859 1.090799 0.696159 0.000000 0.000000 0.000000
2.106157 0.990933 0.491294 0.000000 0.000000 0.000000
2.093908 1.154849 0.618979 0.000000 0.000000 0.000000
2.004942 1.013009 0.470446 0.000000 0.000000 0.000000
2.089724 0.988444 0.460663 0.000000 0.000000 0.000000
2.176209 1.124040 0.658567 0.000000 0.000000 0.000000
2.120043 1.067663 0.562626 0.000000 0.000000 0.000000
2.157683 1.005273 0.543823 0.000000 0.000000 0.000000
2.063295 1.115480 0.539204 0.000000 0.000000 0.000000
1.993116 1.021803 0.474094 0.000000 0.000000 0.000000
2.159967 1.109546 0.597010 0.000000 0.000000 0.000000
1.939708 1.020465 0.460350 0.000000 0.000000 0.000000
2.140143 1.097409 0.590280 0.000000 0.000000 0.000000
2.120404 0.958507 0.503556 0.000000 0.000000 0.000000
2.164262 1.095934 0.616906 0.000000 0.000000 0.000000
2.028490 1.020572 0.477173 0.000000 0.000000 0.000000
1.992298 1.040094 0.487089 0.000000 0.000000 0.000000
2.089607 0.985195 0.490479 0.000000 0.000000 0.000000
2.113426 1.127504 0.622724 0.000000 0.000000 0.000000
2.101171 0.962715 0.460688 0.000000 0.000000 0.000000
1.988648 1.140265 0.514050 0.000000 0.000000 0.000000
1.937144 1.054697 0.486698 0.000000 0.000000 0.000000
2.158292 1.187567 0.675654 0.000000 0.000000 0.000000
2.150144 1.065910 0.581349 0.000000 0.000000 0.000000
2.175612 1.004363 0.558505 0.000000 0.000000 0.000000
1.933530 1.063762 0.485266 0.000000 0.000000 0.000000
1.954663 1.142940 0.516289 0.000000 0.000000 0.000000
2.134364 1.061432 0.567734 0.000000 0.000000 0.000000
2.239477 1.071272 0.661636 0.000000 0.000000 0.000000
2.175103 1.088946 0.619839 0.000000 0.000000 0.000000
2.185700 0.939981 0.526035 0.000000 0.000000 0.000000
2.183275 1.092458 0.645205 0.000000 0.000000 0.000000
2.210196 0.947506 0.543100 0.000000 0.000000 0.000000
2.169325 1.107891 0.717890 0.000000 0.000000 0.000000
2.182847 1.078759 0.613525 0.000000 0.000000 0.000000
2.177660 1.114341 0.662327 0.000000 0.000000 0.000000
2.190727 1.178566 0.699547 0.000000 0.000000 0.000000
2.165567 1.196446 0.676304 0.000000 0.000000 0.000000
1.938598 1.129582 0.493604 0.000000 0.000000 0.000000
2.102048 1.170796 0.596462 0.000000 0.000000 0.000000
2.149437 1.083239 0.594802 0.000000 0.000000 0.000000
2.114257 1.142791 0.594681 0.000000 0.000000 0.000000
2.198879 0.994484 0.562698 0.000000 0.000000 0.000000
2.152214 1.075336 0.581126 0.000000 0.000000 0.000000
2.186973 1.080876 0.618602 0.000000 0.000000 0.000000
2.017034 1.059630 0.494893 0.000000 0.000000 0.000000
2.021514 0.983613 0.457973 0.000000 0.000000 0.000000
2.142854 1.193176 0.656600 0.000000 0.000000 0.000000
1.949848 1.131801 0.505192 0.000000 0.000000 0.000000
2.007899 1.001393 0.458130 0.000000 0.000000 0.000000
2.184362 1.065367 0.621155 0.000000 0.000000 0.000000
2.147814 1.205413 0.653001 0.000000 0.000000 0.000000
2.067811 1.150308 0.552491 0.000000 0.000000 0.000000
2.105392 1.198163 0.628115 0.000000 0.000000 0.000000
2.193623 1.071886 0.626039 0.000000 0.000000 0.000000
2.165386 1.028826 0.550243 0.000000 0.000000 0.000000
2.174866 1.071013 0.609041 0.000000 0.000000 0.000000
2.088637 1.075512 0.593991 0.000000 0.000000 0.000000
1.924179 1.095349 0.478340 0.000000 0.000000 0.000000
2.082229 1.183511 0.606084 0.000000 0.000000 0.000000
2.178368 1.079843 0.614297 0.000000 0.000000 0.000000
2.136379 1.199398 0.646462 0.000000 0.000000 0.000000
2.197488 1.045140 0.593244 0.000000 0.000000 0.000000
2.196102 1.129746 0.708285 0.000000 0.000000 0.000000
2.131579 1.092625 0.596468 0.000000 0.000000 0.000000
2.156785 1.085947 0.601131 0.000000 0.000000 0.000000
1.936005 1.075286 0.490300 0.000000 0.000000 0.000000
2.228287 1.124936 0.732795 0.000000 0.000000 0.000000
2.206478 1.139089 0.705522 0.000000 0.000000 0.000000
1.944273 1.020088 0.467645 0.000000 0.000000 0.000000
2.196099 1.085488 0.653871 0.000000 0.000000 0.000000
1.926048 1.030434 0.464381 0.000000 0.000000 0.000000
2.144141 1.184993 0.678521 0.000000 0.000000 0.000000
2.195333 1.151153 0.710027 0.000000 0.000000 0.000000
2.203811 1.153001 0.725644 0.000000 0.000000 0.000000
2.208677 1.021400 0.587952 0.000000 0.000000 0.000000
2.110095 0.970694 0.514266 0.000000 0.000000 0.000000
2.062556 0.953600 0.475159 0.000000 0.000000 0.000000
2.207850 1.147504 0.731127 0.000000 0.000000 0.000000
1.966461 1.146424 0.517384 0.000000 0.000000 0.000000
2.174738 1.168281 0.711102 0.000000 0.000000 0.000000
2.193302 1.043490 0.595211 0.000000 0.000000 0.000000
2.136945 1.176734 0.685109 0.000000 0.000000 0.000000
2.175606 1.051872 0.601235 0.000000 0.000000 0.000000
2.185901 1.168325 0.701250 0.000000 0.000000 0.000000
2.158423 1.112542 0.608367 0.000000 0.000000 0.000000
2.146157 1.180984 0.662382 0.000000 0.000000 0.000000
2.209967 1.141604 0.726585 0.000000 0.000000 0.000000
2.199337 1.171030 0.714588 0.000000 0.000000 0.000000
2.185173 1.192295 0.697628 0.000000 0.000000 0.000000
2.220744 1.033454 0.604499 0.000000 0.000000 0.000000
2.143255 0.964326 0.519445 0.000000 0.000000 0.000000
2.181201 1.158129 0.695668 0.000000 0.000000 0.000000
2.208575 1.043083 0.606145 0.000000 0.000000 0.000000
2.134737 1.078520 0.610410 0.000000 0.000000 0.000000
2.170991 1.062579 0.623298 0.000000 0.000000 0.000000
2.174585 1.053892 0.602536 0.000000 0.000000 0.000000
1.930462 1.046993 0.492872 0.000000 0.000000 0.000000
1.947470 1.039899 0.483880 0.000000 0.000000 0.000000
2.227679 1.082746 0.669592 0.000000 0.000000 0.000000
2.211097 1.130594 0.698266 0.000000 0.000000 0.000000
2.206147 1.109575 0.674557 0.000000 0.000000 0.000000
2.145178 0.966503 0.508225 0.000000 0.000000 0.000000
1.934926 1.065787 0.484349 0.000000 0.000000 0.000000
2.234443 1.094805 0.682835 0.000000 0.000000 0.000000
1.928039 1.061359 0.484637 0.000000 0.000000 0.000000
2.217795 1.136822 0.727491 0.000000 0.000000 0.000000
2.231347 1.105005 0.697112 0.000000 0.000000 0.000000
2.236033 1.092491 0.691577 0.000000 0.000000 0.000000
1.928824 1.069071 0.486770 0.000000 0.000000 0.000000
1.966728 1.010217 0.456580 0.000000 0.000000 0.000000
2.203629 1.109151 0.717941 0.000000 0.000000 0.000000
2.188803 1.112053 0.726705 0.000000 0.000000 0.000000
2.217416 1.092465 0.682975 0.000000 0.000000 0.000000
2.195779 1.105796 0.661661 0.000000 0.000000 0.000000
1.944930 1.030063 0.477939 0.000000 0.000000 0.000000
1.970714 1.122444 0.524204 0.000000 0.000000 0.000000
1.930567 1.073247 0.484738 0.000000 0.000000 0.000000
2.074371 1.188502 0.585918 0.000000 0.000000 0.000000
1.932816 1.120318 0.486787 0.000000 0.000000 0.000000
2.099246 1.010183 0.503864 0.000000 0.000000 0.000000
2.244084 1.093290 0.698232 0.000000 0.000000 0.000000
2.108699 0.942744 0.509252 0.000000 0.000000 0.000000
2.183046 1.138729 0.666724 0.000000 0.000000 0.000000
2.196168 1.075239 0.712907 0.000000 0.000000 0.000000
2.223264 1.129597 0.714685 0.000000 0.000000 0.000000
2.099835 0.951170 0.501549 0.000000 0.000000 0.000000
2.125236 1.179554 0.631112 0.000000 0.000000 0.000000
1.929696 1.018298 0.475072 0.000000 0.000000 0.000000
2.103694 1.212114 0.619880 0.000000 0.000000 0.000000
1.984936 1.011666 0.470408 0.000000 0.000000 0.000000
1.932067 1.131084 0.496570 0.000000 0.000000 0.000000
1.939821 1.017732 0.470183 0.000000 0.000000 0.000000
2.132599 1.141381 0.696831 0.000000 0.000000 0.000000
2.083694 1.192067 0.600823 0.000000 0.000000 0.000000
1.921031 1.020952 0.481622 0.000000 0.000000 0.000000
2.222702 0.984234 0.585225 0.000000 0.000000 0.000000
1.982401 1.003428 0.461614 0.000000 0.000000 0.000000
2.124624 1.120176 0.617691 0.000000 0.000000 0.000000
1.967076 1.013513 0.469405 0.000000 0.000000 0.000000
2.120418 1.135422 0.676598 0.000000 0.000000 0.000000
2.011228 1.005329 0.466194 0.000000 0.000000 0.000000
1.996028 1.175491 0.543669 0.000000 0.000000 0.000000
1.942085 1.141533 0.534598 0.000000 0.000000 0.000000
2.118717 1.105397 0.625041 0.000000 0.000000 0.000000
2.217501 1.122028 0.718957 0.000000 0.000000 0.000000
1.939074 1.024335 0.459537 0.000000 0.000000 0.000000
2.213742 1.143676 0.723207 0.000000 0.000000 0.000000
2.099564 1.196209 0.626376 0.000000 0.000000 0.000000
2.061011 1.206483 0.595768 0.000000 0.000000 0.000000
2.196092 1.150136 0.709386 0.000000 0.000000 0.000000
2.204889 1.159317 0.724590 0.000000 0.000000 0.000000
2.198733 1.167834 0.715627 0.000000 0.000000 0.000000
1.995967 1.156098 0.549139 0.000000 0.000000 0.000000
2.201280 1.124832 0.728696 0.000000 0.000000 0.000000
2.199970 0.965982 0.550812 0.000000 0.000000 0.000000
2.191143 0.971695 0.540368 0.000000 0.000000 0.000000
2.184829 0.948543 0.535134 0.000000 0.000000 0.000000
2.196334 0.964825 0.542413 0.000000 0.000000 0.000000
2.221766 1.073743 0.656420 0.000000 0.000000 0.000000
2.215910 1.131537 0.725446 0.000000 0.000000 0.000000
2.152536 1.186760 0.685980 0.000000 0.000000 0.000000
2.200022 0.960216 0.541249 0.000000 0.000000 0.000000
2.190369 1.170262 0.709226 0.000000 0.000000 0.000000
1.982009 1.159057 0.542386 0.000000 0.000000 0.000000
2.151038 0.936219 0.498747 0.000000 0.000000 0.000000
2.174504 0.950579 0.544764 0.000000 0.000000 0.000000
2.169078 0.958808 0.533769 0.000000 0.000000 0.000000
2.125718 1.203519 0.649632 0.000000 0.000000 0.000000
2.241644 1.066914 0.659785 0.000000 0.000000 0.000000
2.111088 1.202452 0.637330 0.000000 0.000000 0.000000
1.949750 1.024407 0.473725 0.000000 0.000000 0.000000
2.080824 1.208510 0.605434 0.000000 0.000000 0.000000
2.232475 1.126968 0.726838 0.000000 0.000000 0.000000
2.080501 1.210698 0.605933 0.000000 0.000000 0.000000
2.047818 1.178663 0.575804 0.000000 0.000000 0.000000
2.091765 1.001259 0.493383 0.000000 0.000000 0.000000
2.105776 1.194932 0.613469 0.000000 0.000000 0.000000
2.063362 1.156682 0.596105 0.000000 0.000000 0.000000
2.064418 1.150385 0.580611 0.000000 0.000000 0.000000
2.118063 1.131096 0.656037 0.000000 0.000000 0.000000
2.083215 1.210288 0.617387 0.000000 0.000000 0.000000
2.041527 1.164766 0.571314 0.000000 0.000000 0.000000
2.107188 1.200338 0.618525 0.000000 0.000000 0.000000
2.046522 1.201251 0.584531 0.000000 0.000000 0.000000
2.110392 1.196455 0.617065 0.000000 0.000000 0.000000
1.921671 1.012841 0.472528 0.000000 0.000000 0.000000
1.935467 1.033536 0.479052 0.000000 0.000000 0.000000
2.198788 1.160130 0.726075 0.000000 0.000000 0.000000
2.077942 0.964446 0.483140 0.000000 0.000000 0.000000
1.942699 1.015519 0.465287 0.000000 0.000000 0.000000
2.170347 1.144836 0.710885 0.000000 0.000000 0.000000
2.179285 0.944171 0.525133 0.000000 0.000000 0.000000
2.182145 1.125926 0.727704 0.000000 0.000000 0.000000
2.136689 0.944030 0.503544 0.000000 0.000000 0.000000
2.099289 1.204046 0.610438 0.000000 0.000000 0.000000
2.102031 1.185279 0.612204 0.000000 0.000000 0.000000
1.977454 1.008765 0.460961 0.000000 0.000000 0.000000
2.168122 1.183976 0.693903 0.000000 0.000000 0.000000
1.995218 0.993480 0.463335 0.000000 0.000000 0.000000
2.194580 1.166498 0.716583 0.000000 0.000000 0.000000
2.170447 0.954256 0.524718 0.000000 0.000000 0.000000
2.151669 0.947273 0.520591 0.000000 0.000000 0.000000
2.175403 1.098874 0.725458 0.000000 0.000000 0.000000
2.054740 1.197825 0.597044 0.000000 0.000000 0.000000
2.208807 1.156498 0.725447 0.000000 0.000000 0.000000
2.220621 1.091997 0.723478 0.000000 0.000000 0.000000
2.182472 1.114746 0.720571 0.000000 0.000000 0.000000
2.127134 1.175023 0.620632 0.000000 0.000000 0.000000
1.975013 1.005444 0.459141 0.000000 0.000000 0.000000
2.180043 1.166538 0.704536 0.000000 0.000000 0.000000
2.083306 1.205768 0.610002 0.000000 0.000000 0.000000
2.029159 0.965228 0.471004 0.000000 0.000000 0.000000
2.128588 0.968651 0.472604 0.000000 0.000000 0.000000
2.134177 0.976839 0.509389 0.000000 0.000000 0.000000
2.088920 1.207544 0.607259 0.000000 0.000000 0.000000
1.946523 1.020264 0.463835 0.000000 0.000000 0.000000
1.942368 1.024922 0.473968 0.000000 0.000000 0.000000
2.163634 0.945238 0.521739 0.000000 0.000000 0.000000
2.249898 1.110535 0.710097 0.000000 0.000000 0.000000
2.114902 1.206022 0.635668 0.000000 0.000000 0.000000
2.104253 1.206685 0.615016 0.000000 0.000000 0.000000
2.084787 1.209341 0.606265 0.000000 0.000000 0.000000
2.173948 0.946195 0.521556 0.000000 0.000000 0.000000
1.946809 1.015038 0.461722 0.000000 0.000000 0.000000
2.105613 0.959073 0.508608 0.000000 0.000000 0.000000
2.138903 0.944021 0.522582 0.000000 0.000000 0.000000
2.189512 0.971267 0.554980 0.000000 0.000000 0.000000
2.100749 1.178070 0.632537 0.000000 0.000000 0.000000
1.922688 1.099938 0.488491 0.000000 0.000000 0.000000
2.088427 1.201312 0.603289 0.000000 0.000000 0.000000
2.045368 1.186402 0.591924 0.000000 0.000000 0.000000
2.061888 1.204042 0.593896 0.000000 0.000000 0.000000
2.117455 0.937146 0.511716 0.000000 0.000000 0.000000
1.941169 1.019286 0.454369 0.000000 0.000000 0.000000
2.046072 1.180015 0.578503 0.000000 0.000000 0.000000
1.945674 1.021538 0.472376 0.000000 0.000000 0.000000
2.065343 1.181480 0.593839 0.000000 0.000000 0.000000
2.125594 0.959277 0.499220 0.000000 0.000000 0.000000
2.178371 0.933697 0.522720 0.000000 0.000000 0.000000
1.961052 1.014956 0.466375 0.000000 0.000000 0.000000
2.181453 0.959515 0.552432 0.000000 0.000000 0.000000
2.115046 1.184289 0.619655 0.000000 0.000000 0.000000
1.920745 1.125088 0.498702 0.000000 0.000000 0.000000
1.953560 1.012106 0.467584 0.000000 0.000000 0.000000
2.104713 1.188412 0.630569 0.000000 0.000000 0.000000
2.210309 1.085606 0.711173 0.000000 0.000000 0.000000
2.231418 1.056007 0.638837 0.000000 0.000000 0.000000
2.010801 1.038220 0.486177 0.000000 0.000000 0.000000
1.953884 1.113959 0.518593 0.000000 0.000000 0.000000
1.965883 1.019169 0.474559 0.000000 0.000000 0.000000
2.067542 1.198215 0.584601 0.000000 0.000000 0.000000
2.091187 1.204357 0.610639 0.000000 0.000000 0.000000
2.114180 1.142878 0.588392 0.000000 0.000000 0.000000
2.201800 1.138142 0.701914 0.000000 0.000000 0.000000
2.155273 0.930078 0.507604 0.000000 0.000000 0.000000
2.106375 1.144629 0.593148 0.000000 0.000000 0.000000
2.132894 1.148288 0.684508 0.000000 0.000000 0.000000
2.197239 1.131907 0.720414 0.000000 0.000000 0.000000
2.207696 1.129935 0.726217 0.000000 0.000000 0.000000
2.148134 0.949447 0.492578 0.000000 0.000000 0.000000
2.192916 0.946142 0.533511 0.000000 0.000000 0.000000
2.185203 1.180861 0.701128 0.000000 0.000000 0.000000
2.166371 1.146315 0.699960 0.000000 0.000000 0.000000
2.246744 1.100982 0.704078 0.000000 0.000000 0.000000
2.189627 1.124552 0.726321 0.000000 0.000000 0.000000
2.178679 1.114627 0.729224 0.000000 0.000000 0.000000
2.116263 0.937036 0.502655 0.000000 0.000000 0.000000
2.139513 0.949735 0.496178 0.000000 0.000000 0.000000
2.158273 1.181472 0.702850 0.000000 0.000000 0.000000
2.186785 0.935747 0.531389 0.000000 0.000000 0.000000
2.142220 1.132011 0.680416 0.000000 0.000000 0.000000
1.931896 1.146425 0.515101 0.000000 0.000000 0.000000
1.952340 1.026665 0.476185 0.000000 0.000000 0.000000
1.958660 1.015195 0.470417 0.000000 0.000000 0.000000
2.106638 1.212951 0.633542 0.000000 0.000000 0.000000
1.964323 1.012913 0.469078 0.000000 0.000000 0.000000
1.947826 1.017005 0.460558 0.000000 0.000000 0.000000
2.058497 1.126684 0.519407 0.000000 0.000000 0.000000
2.002855 1.149864 0.518571 0.000000 0.000000 0.000000
2.221860 1.077379 0.664884 0.000000 0.000000 0.000000
1.935068 1.123415 0.494402 0.000000 0.000000 0.000000
2.104600 1.196950 0.614317 0.000000 0.000000 0.000000
2.185951 0.962818 0.528595 0.000000 0.000000 0.000000
2.102757 1.089654 0.545822 0.000000 0.000000 0.000000
1.954608 1.026714 0.471219 0.000000 0.000000 0.000000
2.034194 1.179477 0.571217 0.000000 0.000000 0.000000
1.968899 1.149140 0.569351 0.000000 0.000000 0.000000
2.065265 1.089083 0.527197 0.000000 0.000000 0.000000
2.015144 1.147472 0.522739 0.000000 0.000000 0.000000
1.922689 1.121565 0.507502 0.000000 0.000000 0.000000
2.111237 1.092789 0.603137 0.000000 0.000000 0.000000
1.944792 1.135293 0.497386 0.000000 0.000000 0.000000
2.076621 1.186264 0.587381 0.000000 0.000000 0.000000
2.065176 1.196285 0.585143 0.000000 0.000000 0.000000
1.952537 1.013076 0.457745 0.000000 0.000000 0.000000
2.114408 0.956762 0.488781 0.000000 0.000000 0.000000
1.937196 1.026343 0.469001 0.000000 0.000000 0.000000
2.099657 0.945532 0.497705 0.000000 0.000000 0.000000
2.096670 0.959974 0.483374 0.000000 0.000000 0.000000
2.090721 0.964610 0.495761 0.000000 0.000000 0.000000
2.133806 0.939294 0.508751 0.000000 0.000000 0.000000
2.115403 0.943637 0.500523 0.000000 0.000000 0.000000
2.148448 0.935964 0.509572 0.000000 0.000000 0.000000
1.932158 1.028117 0.471090 0.000000 0.000000 0.000000
2.127775 0.953762 0.509546 0.000000 0.000000 0.000000
2.061480 0.968320 0.467777 0.000000 0.000000 0.000000
1.967442 1.011179 0.466290 0.000000 0.000000 0.000000
2.224590 1.053411 0.639142 0.000000 0.000000 0.000000
2.185413 1.177473 0.701488 0.000000 0.000000 0.000000
2.198006 1.172237 0.716127 0.000000 0.000000 0.000000
2.172547 0.934718 0.526512 0.000000 0.000000 0.000000
2.068785 0.952587 0.470775 0.000000 0.000000 0.000000
1.981496 1.001060 0.460983 0.000000 0.000000 0.000000
2.150070 1.184150 0.670001 0.000000 0.000000 0.000000
2.168832 1.187784 0.674675 0.000000 0.000000 0.000000
2.201429 1.165473 0.717695 0.000000 0.000000 0.000000
2.205881 1.148393 0.719262 0.000000 0.000000 0.000000
2.197377 1.175457 0.714345 0.000000 0.000000 0.000000
1.952085 1.016795 0.459947 0.000000 0.000000 0.000000
2.217367 1.018026 0.603838 0.000000 0.000000 0.000000
2.197594 0.942417 0.533991 0.000000 0.000000 0.000000
2.066425 0.962478 0.474603 0.000000 0.000000 0.000000
1.957085 1.011643 0.461365 0.000000 0.000000 0.000000
2.194709 0.955253 0.540912 0.000000 0.000000 0.000000
1.988716 0.997621 0.460040 0.000000 0.000000 0.000000
1.969345 1.001180 0.463620 0.000000 0.000000 0.000000
2.037830 0.965820 0.466771 0.000000 0.000000 0.000000
1.952651 1.017210 0.470372 0.000000 0.000000 0.000000
2.205773 0.937221 0.536631 0.000000 0.000000 0.000000
2.162382 1.101135 0.672424 0.000000 0.000000 0.000000
2.191076 0.945310 0.542678 0.000000 0.000000 0.000000
1.993666 0.996314 0.461647 0.000000 0.000000 0.000000
2.004123 0.979207 0.459654 0.000000 0.000000 0.000000
2.198123 1.059463 0.617201 0.000000 0.000000 0.000000
1.925104 1.086374 0.508567 0.000000 0.000000 0.000000
2.090782 1.206812 0.619996 0.000000 0.000000 0.000000
1.988477 1.005494 0.468681 0.000000 0.000000 0.000000
2.183185 1.199988 0.683975 0.000000 0.000000 0.000000
2.188347 1.065640 0.633846 0.000000 0.000000 0.000000
2.144665 1.212016 0.648787 0.000000 0.000000 0.000000
2.200173 0.976710 0.570067 0.000000 0.000000 0.000000
2.086753 1.189772 0.627552 0.000000 0.000000 0.000000
2.224799 1.043029 0.618011 0.000000 0.000000 0.000000
2.194654 0.942048 0.529001 0.000000 0.000000 0.000000
2.092664 0.953613 0.497320 0.000000 0.000000 0.000000
1.933313 1.016657 0.467295 0.000000 0.000000 0.000000
1.938424 1.016755 0.467201 0.000000 0.000000 0.000000
1.953876 1.012837 0.468485 0.000000 0.000000 0.000000
1.952950 1.014786 0.463940 0.000000 0.000000 0.000000
1.954882 1.021960 0.473385 0.000000 0.000000 0.000000
2.158343 1.173194 0.654557 0.000000 0.000000 0.000000
2.222902 0.986626 0.591492 0.000000 0.000000 0.000000
1.944266 1.017769 0.471664 0.000000 0.000000 0.000000
2.033778 1.007280 0.474405 0.000000 0.000000 0.000000
1.974534 1.013523 0.470240 0.000000 0.000000 0.000000
2.148461 1.199878 0.652254 0.000000 0.000000 0.000000
2.215981 0.996393 0.577532 0.000000 0.000000 0.000000
2.133788 1.191184 0.636451 0.000000 0.000000 0.000000
1.932102 1.021654 0.466332 0.000000 0.000000 0.000000
2.133680 1.182384 0.630026 0.000000 0.000000 0.000000
2.214514 1.113663 0.726890 0.000000 0.000000 0.000000
2.110312 0.945444 0.495833 0.000000 0.000000 0.000000
2.009768 1.064036 0.502627 0.000000 0.000000 0.000000
2.163625 1.182258 0.668609 0.000000 0.000000 0.000000
2.229242 0.988567 0.587902 0.000000 0.000000 0.000000
1.968177 1.016629 0.471980 0.000000 0.000000 0.000000
2.169471 1.192446 0.683998 0.000000 0.000000 0.000000
2.184544 0.976437 0.524962 0.000000 0.000000 0.000000
2.179178 1.111712 0.706060 0.000000 0.000000 0.000000
1.972218 1.006773 0.464467 0.000000 0.000000 0.000000
2.101289 0.950697 0.490443 0.000000 0.000000 0.000000
2.204443 1.069592 0.715082 0.000000 0.000000 0.000000
2.129825 1.207095 0.644525 0.000000 0.000000 0.000000
2.139658 1.173559 0.675544 0.000000 0.000000 0.000000
2.154144 1.194075 0.700148 0.000000 0.000000 0.000000
2.216401 0.984713 0.591267 0.000000 0.000000 0.000000
1.953806 1.141421 0.507964 0.000000 0.000000 0.000000
1.976813 1.178677 0.552998 0.000000 0.000000 0.000000
1.961619 1.110865 0.514963 0.000000 0.000000 0.000000
2.205387 0.979424 0.572011 0.000000 0.000000 0.000000
1.972618 1.178513 0.545832 0.000000 0.000000 0.000000
2.223459 1.083661 0.727496 0.000000 0.000000 0.000000
1.937007 1.158541 0.514507 0.000000 0.000000 0.000000
1.939229 1.144829 0.510104 0.000000 0.000000 0.000000
1.949796 1.148219 0.507892 0.000000 0.000000 0.000000
1.975858 1.148484 0.538463 0.000000 0.000000 0.000000
1.994837 1.189723 0.569129 0.000000 0.000000 0.000000
1.986533 0.995157 0.465494 0.000000 0.000000 0.000000
2.108138 1.218399 0.630637 0.000000 0.000000 0.000000
1.969481 1.009221 0.461025 0.000000 0.000000 0.000000
1.923502 1.020827 0.456772 0.000000 0.000000 0.000000
1.985281 0.994107 0.459771 0.000000 0.000000 0.000000
2.155506 1.189516 0.685409 0.000000 0.000000 0.000000
1.930195 1.019043 0.470160 0.000000 0.000000 0.000000
2.158922 1.104902 0.648920 0.000000 0.000000 0.000000
2.027195 1.177515 0.573251 0.000000 0.000000 0.000000
2.010051 1.006154 0.457898 0.000000 0.000000 0.000000
2.001399 0.989368 0.459685 0.000000 0.000000 0.000000
2.009231 0.997145 0.458135 0.000000 0.000000 0.000000
2.162810 1.191144 0.674033 0.000000 0.000000 0.000000
2.161633 1.184226 0.692522 0.000000 0.000000 0.000000
1.957574 1.030891 0.478834 0.000000 0.000000 0.000000
1.941252 1.022704 0.457620 0.000000 0.000000 0.000000
2.013777 0.996886 0.462888 0.000000 0.000000 0.000000
1.973391 0.997676 0.456062 0.000000 0.000000 0.000000
2.224108 1.120921 0.739941 0.000000 0.000000 0.000000
2.239976 1.100106 0.706963 0.000000 0.000000 0.000000
1.967218 1.002676 0.464890 0.000000 0.000000 0.000000
1.991591 1.001012 0.460041 0.000000 0.000000 0.000000
2.044388 0.980928 0.460952 0.000000 0.000000 0.000000
2.036029 0.988934 0.458233 0.000000 0.000000 0.000000
2.037760 1.201416 0.580456 0.000000 0.000000 0.000000
1.970376 1.010776 0.465383 0.000000 0.000000 0.000000
1.924545 1.133718 0.512431 0.000000 0.000000 0.000000
2.069968 0.972000 0.463364 0.000000 0.000000 0.000000
2.112489 1.199971 0.650626 0.000000 0.000000 0.000000
2.163222 1.205306 0.674620 0.000000 0.000000 0.000000
2.022014 0.997326 0.460580 0.000000 0.000000 0.000000
2.066696 0.994827 0.462287 0.000000 0.000000 0.000000
2.035421 0.983115 0.458812 0.000000 0.000000 0.000000
2.028968 0.983618 0.457024 0.000000 0.000000 0.000000
2.025133 0.976136 0.456297 0.000000 0.000000 0.000000
1.965002 1.003386 0.462306 0.000000 0.000000 0.000000
2.030333 0.980199 0.463742 0.000000 0.000000 0.000000
2.236203 1.065752 0.658871 0.000000 0.000000 0.000000
2.194321 1.182733 0.709913 0.000000 0.000000 0.000000
2.190595 0.921969 0.526424 0.000000 0.000000 0.000000
2.237072 1.095187 0.696890 0.000000 0.000000 0.000000
2.110656 1.214588 0.626290 0.000000 0.000000 0.000000
2.024457 1.063895 0.507402 0.000000 0.000000 0.000000
2.000088 1.000993 0.454890 0.000000 0.000000 0.000000
2.165208 1.185845 0.712625 0.000000 0.000000 0.000000
1.955860 1.009298 0.467705 0.000000 0.000000 0.000000
1.981887 1.044986 0.492378 0.000000 0.000000 0.000000
2.184450 1.171299 0.717712 0.000000 0.000000 0.000000
1.928981 1.133690 0.500819 0.000000 0.000000 0.000000
2.038909 0.975894 0.460197 0.000000 0.000000 0.000000
2.219294 1.147930 0.739037 0.000000 0.000000 0.000000
1.972393 1.155981 0.576439 0.000000 0.000000 0.000000
1.920696 1.084117 0.503999 0.000000 0.000000 0.000000
1.984074 1.175811 0.547727 0.000000 0.000000 0.000000
1.929569 1.094776 0.477287 0.000000 0.000000 0.000000
2.232096 1.122559 0.744338 0.000000 0.000000 0.000000
2.163127 0.934238 0.509031 0.000000 0.000000 0.000000
2.117938 1.208097 0.633820 0.000000 0.000000 0.000000
2.176300 1.177011 0.713508 0.000000 0.000000 0.000000
2.153345 0.925913 0.513456 0.000000 0.000000 0.000000
2.234392 1.115823 0.711053 0.000000 0.000000 0.000000
2.238106 1.100837 0.698304 0.000000 0.000000 0.000000
1.947125 1.115129 0.515574 0.000000 0.000000 0.000000
2.218901 1.140240 0.736989 0.000000 0.000000 0.000000
1.924998 1.085813 0.480457 0.000000 0.000000 0.000000
2.223717 1.118301 0.740902 0.000000 0.000000 0.000000
2.212098 1.156693 0.736748 0.000000 0.000000 0.000000
2.212836 1.148585 0.733784 0.000000 0.000000 0.000000
2.167057 0.928878 0.518261 0.000000 0.000000 0.000000
2.188341 1.180551 0.704014 0.000000 0.000000 0.000000
2.241252 1.108001 0.705594 0.000000 0.000000 0.000000
2.035134 0.977504 0.450297 0.000000 0.000000 0.000000
2.149744 0.927507 0.503975 0.000000 0.000000 0.000000
2.019808 1.057795 0.499701 0.000000 0.000000 0.000000
2.108782 1.177812 0.643571 0.000000 0.000000 0.000000
2.164801 0.930500 0.525478 0.000000 0.000000 0.000000
2.109209 0.931627 0.500412 0.000000 0.000000 0.000000
1.920441 1.114783 0.478090 0.000000 0.000000 0.000000
2.051732 1.054687 0.508954 0.000000 0.000000 0.000000
2.015993 1.047802 0.493092 0.000000 0.000000 0.000000
2.105633 0.936686 0.501339 0.000000 0.000000 0.000000
2.197823 0.930428 0.536058 0.000000 0.000000 0.000000
1.932753 1.016309 0.468915 0.000000 0.000000 0.000000
2.128092 1.142785 0.668210 0.000000 0.000000 0.000000
2.055239 1.188910 0.582141 0.000000 0.000000 0.000000
2.056019 1.185913 0.584171 0.000000 0.000000 0.000000
1.991960 0.991997 0.456435 0.000000 0.000000 0.000000
2.243464 1.125581 0.742829 0.000000 0.000000 0.000000
2.149546 1.169522 0.680380 0.000000 0.000000 0.000000
2.139095 1.212795 0.630301 0.000000 0.000000 0.000000
2.016342 0.991783 0.465397 0.000000 0.000000 0.000000
2.003622 0.991228 0.466468 0.000000 0.000000 0.000000
2.129758 1.143234 0.665105 0.000000 0.000000 0.000000
2.047796 1.182032 0.577433 0.000000 0.000000 0.000000
1.986666 0.997811 0.458323 0.000000 0.000000 0.000000
2.118486 1.194853 0.667615 0.000000 0.000000 0.000000
2.045408 1.183203 0.585870 0.000000 0.000000 0.000000
2.177583 0.934985 0.511938 0.000000 0.000000 0.000000
2.143918 1.207973 0.629948 0.000000 0.000000 0.000000
2.068715 1.189795 0.583596 0.000000 0.000000 0.000000
2.241616 1.078438 0.675143 0.000000 0.000000 0.000000
2.002414 0.997879 0.462702 0.000000 0.000000 0.000000
2.005531 0.991747 0.461101 0.000000 0.000000 0.000000
1.999588 0.989266 0.458512 0.000000 0.000000 0.000000
2.106523 1.199042 0.637200 0.000000 0.000000 0.000000
2.066993 1.159743 0.560082 0.000000 0.000000 0.000000
2.167977 1.181655 0.709690 0.000000 0.000000 0.000000
1.975877 0.998978 0.463212 0.000000 0.000000 0.000000
2.156471 1.206386 0.657566 0.000000 0.000000 0.000000
2.088284 1.190830 0.622650 0.000000 0.000000 0.000000
2.133070 1.170040 0.663082 0.000000 0.000000 0.000000
2.108309 1.172285 0.640387 0.000000 0.000000 0.000000
2.165934 1.183747 0.700393 0.000000 0.000000 0.000000
2.242230 1.101241 0.704513 0.000000 0.000000 0.000000
2.166307 1.187931 0.669532 0.000000 0.000000 0.000000
2.098187 1.187603 0.637601 0.000000 0.000000 0.000000
2.187616 1.111372 0.724536 0.000000 0.000000 0.000000
1.932964 1.144797 0.515778 0.000000 0.000000 0.000000
2.104790 1.213859 0.622936 0.000000 0.000000 0.000000
2.085692 0.950334 0.469135 0.000000 0.000000 0.000000
2.166148 1.198656 0.673819 0.000000 0.000000 0.000000
1.978128 1.185699 0.523955 0.000000 0.000000 0.000000
1.944050 1.127720 0.502442 0.000000 0.000000 0.000000
2.156269 0.924155 0.506415 0.000000 0.000000 0.000000
1.974252 1.181644 0.530292 0.000000 0.000000 0.000000
2.144888 1.206258 0.652208 0.000000 0.000000 0.000000
1.925881 1.130945 0.513775 0.000000 0.000000 0.000000
1.937462 1.142988 0.508070 0.000000 0.000000 0.000000
2.199080 1.100966 0.688486 0.000000 0.000000 0.000000
2.104484 1.214756 0.618085 0.000000 0.000000 0.000000
2.105921 1.210119 0.625572 0.000000 0.000000 0.000000
2.119785 1.190040 0.645806 0.000000 0.000000 0.000000
2.111086 1.191595 0.644631 0.000000 0.000000 0.000000
2.232900 1.085615 0.679657 0.000000 0.000000 0.000000
2.137612 1.189629 0.650679 0.000000 0.000000 0.000000
2.215051 1.085855 0.671798 0.000000 0.000000 0.000000
1.963010 1.008333 0.458939 0.000000 0.000000 0.000000
2.127770 1.192941 0.651678 0.000000 0.000000 0.000000
2.115812 1.185810 0.653282 0.000000 0.000000 0.000000
2.241787 1.087253 0.678121 0.000000 0.000000 0.000000
1.980694 1.173404 0.572201 0.000000 0.000000 0.000000
2.148274 1.175008 0.648931 0.000000 0.000000 0.000000
2.167474 1.192448 0.681273 0.000000 0.000000 0.000000
2.118664 1.193725 0.660773 0.000000 0.000000 0.000000
1.967355 0.999016 0.456268 0.000000 0.000000 0.000000
2.069348 0.939346 0.492472 0.000000 0.000000 0.000000
2.000821 0.999877 0.459326 0.000000 0.000000 0.000000
2.168753 1.161496 0.707806 0.000000 0.000000 0.000000
2.012002 0.987220 0.464874 0.000000 0.000000 0.000000
2.174750 1.172523 0.715916 0.000000 0.000000 0.000000
1.965673 1.130635 0.518374 0.000000 0.000000 0.000000
2.204124 1.120661 0.681472 0.000000 0.000000 0.000000
1.993378 1.158970 0.562166 0.000000 0.000000 0.000000
2.015648 1.179707 0.568245 0.000000 0.000000 0.000000
2.100511 1.218436 0.613613 0.000000 0.000000 0.000000
1.926685 1.078543 0.499160 0.000000 0.000000 0.000000
2.102054 1.219480 0.619336 0.000000 0.000000 0.000000
2.218058 0.986926 0.586343 0.000000 0.000000 0.000000
1.955954 1.006777 0.463829 0.000000 0.000000 0.000000
1.950495 1.149469 0.525399 0.000000 0.000000 0.000000
1.965444 1.092245 0.508962 0.000000 0.000000 0.000000
1.944411 1.050631 0.487152 0.000000 0.000000 0.000000
2.021722 1.075054 0.509136 0.000000 0.000000 0.000000
2.013083 1.047354 0.486522 0.000000 0.000000 0.000000
2.067847 0.996647 0.486992 0.000000 0.000000 0.000000
1.989546 1.064438 0.500453 0.000000 0.000000 0.000000
1.975774 1.084797 0.508693 0.000000 0.000000 0.000000
1.969381 1.071855 0.500746 0.000000 0.000000 0.000000
2.054732 1.014048 0.465419 0.000000 0.000000 0.000000
2.165390 1.058833 0.586410 0.000000 0.000000 0.000000
2.132355 1.178973 0.668959 0.000000 0.000000 0.000000
2.106777 1.040651 0.528368 0.000000 0.000000 0.000000
2.113879 1.109118 0.598235 0.000000 0.000000 0.000000
1.959711 1.087349 0.505004 0.000000 0.000000 0.000000
1.948432 1.115579 0.498971 0.000000 0.000000 0.000000
1.962560 1.119523 0.498716 0.000000 0.000000 0.000000
2.088903 1.100980 0.555798 0.000000 0.000000 0.000000
2.049117 1.122345 0.547059 0.000000 0.000000 0.000000
1.961396 1.009977 0.460907 0.000000 0.000000 0.000000
2.204288 0.994061 0.578612 0.000000 0.000000 0.000000
2.081132 1.000946 0.461412 0.000000 0.000000 0.000000
1.920202 1.099231 0.483647 0.000000 0.000000 0.000000
1.943430 1.123215 0.498049 0.000000 0.000000 0.000000
1.960486 1.116580 0.508288 0.000000 0.000000 0.000000
1.967090 1.036050 0.483650 0.000000 0.000000 0.000000
1.935702 1.074358 0.494101 0.000000 0.000000 0.000000
2.204586 1.000595 0.596343 0.000000 0.000000 0.000000
2.179482 1.015018 0.560039 0.000000 0.000000 0.000000
2.085415 1.180197 0.593382 0.000000 0.000000 0.000000
1.952023 1.120272 0.491101 0.000000 0.000000 0.000000
2.178849 1.040107 0.568541 0.000000 0.000000 0.000000
2.108367 1.065632 0.538409 0.000000 0.000000 0.000000
2.158947 1.063325 0.597578 0.000000 0.000000 0.000000
1.976249 1.039445 0.489388 0.000000 0.000000 0.000000
2.051465 1.186475 0.580122 0.000000 0.000000 0.000000
1.991143 1.166068 0.546991 0.000000 0.000000 0.000000
1.955297 1.038551 0.483422 0.000000 0.000000 0.000000
2.126580 1.183854 0.629668 0.000000 0.000000 0.000000
1.955264 1.015386 0.467839 0.000000 0.000000 0.000000
1.959089 1.012648 0.456982 0.000000 0.000000 0.000000
1.945866 1.152426 0.517190 0.000000 0.000000 0.000000
2.099727 1.094676 0.548171 0.000000 0.000000 0.000000
1.950702 1.152153 0.506915 0.000000 0.000000 0.000000
1.965876 1.134214 0.572726 0.000000 0.000000 0.000000
2.207413 0.988272 0.587335 0.000000 0.000000 0.000000
1.926605 1.152136 0.514281 0.000000 0.000000 0.000000
2.140760 1.181306 0.682035 0.000000 0.000000 0.000000
1.958093 1.159193 0.514439 0.000000 0.000000 0.000000
2.226773 1.086979 0.669071 0.000000 0.000000 0.000000
2.068476 0.980099 0.460053 0.000000 0.000000 0.000000
1.943708 1.149759 0.513875 0.000000 0.000000 0.000000
2.207885 1.147011 0.746463 0.000000 0.000000 0.000000
2.153281 0.927696 0.509379 0.000000 0.000000 0.000000
2.171890 0.943236 0.494510 0.000000 0.000000 0.000000
2.110520 1.193292 0.647088 0.000000 0.000000 0.000000
2.233973 1.077801 0.676983 0.000000 0.000000 0.000000
2.172275 1.126114 0.699458 0.000000 0.000000 0.000000
2.034150 1.205688 0.577930 0.000000 0.000000 0.000000
1.975133 1.092179 0.512162 0.000000 0.000000 0.000000
1.981911 1.050083 0.494235 0.000000 0.000000 0.000000
2.035001 1.071998 0.518693 0.000000 0.000000 0.000000
2.038879 1.051173 0.497261 0.000000 0.000000 0.000000
1.953753 1.049024 0.487486 0.000000 0.000000 0.000000
2.123329 1.016927 0.531854 0.000000 0.000000 0.000000
1.961014 1.051352 0.491415 0.000000 0.000000 0.000000
1.965700 1.084290 0.505499 0.000000 0.000000 0.000000
1.953354 1.062574 0.492337 0.000000 0.000000 0.000000
2.045418 1.006872 0.470219 0.000000 0.000000 0.000000
2.109089 1.108780 0.564848 0.000000 0.000000 0.000000
2.130969 1.188988 0.656752 0.000000 0.000000 0.000000
2.053694 1.058715 0.507571 0.000000 0.000000 0.000000
2.125726 1.064470 0.559543 0.000000 0.000000 0.000000
2.197658 0.978020 0.573622 0.000000 0.000000 0.000000
1.951115 1.137869 0.507537 0.000000 0.000000 0.000000
1.951815 1.131100 0.497617 0.000000 0.000000 0.000000
2.082962 1.132419 0.564344 0.000000 0.000000 0.000000
1.985183 1.004842 0.458407 0.000000 0.000000 0.000000
2.185091 1.011717 0.571135 0.000000 0.000000 0.000000
2.081464 1.007698 0.464049 0.000000 0.000000 0.000000
2.082882 1.184536 0.621455 0.000000 0.000000 0.000000
1.942028 1.131182 0.511947 0.000000 0.000000 0.000000
1.957020 1.044784 0.486820 0.000000 0.000000 0.000000
2.029490 1.178282 0.571839 0.000000 0.000000 0.000000
2.205616 0.997259 0.596372 0.000000 0.000000 0.000000
2.111764 1.136854 0.637538 0.000000 0.000000 0.000000
2.235813 1.064024 0.648317 0.000000 0.000000 0.000000
1.929190 1.098244 0.495784 0.000000 0.000000 0.000000
2.092757 1.166984 0.590870 0.000000 0.000000 0.000000
2.110733 1.148515 0.588854 0.000000 0.000000 0.000000
1.949758 1.102630 0.490078 0.000000 0.000000 0.000000
2.188585 1.067689 0.598763 0.000000 0.000000 0.000000
2.164693 1.051949 0.580714 0.000000 0.000000 0.000000
2.167053 1.022088 0.562592 0.000000 0.000000 0.000000
1.923620 1.035638 0.472766 0.000000 0.000000 0.000000
2.034626 1.063462 0.507486 0.000000 0.000000 0.000000
1.956087 1.014105 0.465165 0.000000 0.000000 0.000000
2.039981 1.195610 0.582596 0.000000 0.000000 0.000000
2.050595 1.178740 0.573059 0.000000 0.000000 0.000000
1.941296 1.018886 0.466091 0.000000 0.000000 0.000000
2.092657 1.197033 0.621837 0.000000 0.000000 0.000000
1.968146 1.014226 0.459256 0.000000 0.000000 0.000000
2.064334 1.084053 0.521333 0.000000 0.000000 0.000000
1.950472 1.144496 0.502096 0.000000 0.000000 0.000000
2.192857 1.188342 0.701470 0.000000 0.000000 0.000000
1.942445 1.157816 0.513903 0.000000 0.000000 0.000000
2.119443 1.185908 0.665230 0.000000 0.000000 0.000000
1.962969 1.158559 0.504276 0.000000 0.000000 0.000000
2.045675 1.190885 0.579245 0.000000 0.000000 0.000000
2.047694 0.986342 0.456386 0.000000 0.000000 0.000000
2.213599 1.124355 0.745901 0.000000 0.000000 0.000000
1.920304 1.082744 0.489260 0.000000 0.000000 0.000000
1.923392 1.111283 0.490081 0.000000 0.000000 0.000000
2.207705 1.117221 0.676904 0.000000 0.000000 0.000000
2.159213 1.122336 0.688503 0.000000 0.000000 0.000000
2.033787 1.193341 0.571487 0.000000 0.000000 0.000000
1.982351 1.031137 0.450082 0.000000 0.000000 0.000000
2.240665 1.044999 0.633832 0.000000 0.000000 0.000000
2.168813 1.065235 0.624349 0.000000 0.000000 0.000000
2.067924 1.187811 0.599606 0.000000 0.000000 0.000000
1.928135 1.112390 0.497578 0.000000 0.000000 0.000000
1.954295 1.018994 0.472381 0.000000 0.000000 0.000000
2.021678 1.204042 0.568653 0.000000 0.000000 0.000000
1.945917 1.008380 0.464901 0.000000 0.000000 0.000000
1.922453 1.119036 0.508291 0.000000 0.000000 0.000000
1.923534 1.037642 0.457674 0.000000 0.000000 0.000000
2.025164 1.167865 0.563768 0.000000 0.000000 0.000000
1.974418 1.147335 0.521623 0.000000 0.000000 0.000000
1.948441 1.136873 0.498373 0.000000 0.000000 0.000000
2.187012 1.058972 0.621740 0.000000 0.000000 0.000000
1.998724 1.016611 0.473066 0.000000 0.000000 0.000000
2.191371 1.054351 0.608217 0.000000 0.000000 0.000000
2.100016 0.978894 0.462621 0.000000 0.000000 0.000000
1.989646 1.184345 0.555820 0.000000 0.000000 0.000000
2.214636 0.972886 0.561466 0.000000 0.000000 0.000000
1.942764 1.090054 0.494259 0.000000 0.000000 0.000000
2.022424 1.162148 0.564209 0.000000 0.000000 0.000000
2.001421 1.147463 0.548041 0.000000 0.000000 0.000000
1.941099 1.028192 0.476431 0.000000 0.000000 0.000000
2.216753 1.061196 0.643836 0.000000 0.000000 0.000000
2.205597 1.062909 0.629328 0.000000 0.000000 0.000000
2.200756 1.059957 0.617344 0.000000 0.000000 0.000000
2.138088 0.931862 0.515101 0.000000 0.000000 0.000000
2.160017 0.928283 0.503953 0.000000 0.000000 0.000000
2.191384 0.952397 0.528882 0.000000 0.000000 0.000000
2.203743 0.972210 0.550474 0.000000 0.000000 0.000000
2.043328 0.960945 0.472755 0.000000 0.000000 0.000000
2.230432 1.050910 0.630532 0.000000 0.000000 0.000000
2.215618 1.059250 0.636706 0.000000 0.000000 0.000000
1.992575 1.189992 0.563150 0.000000 0.000000 0.000000
1.952382 1.011522 0.459856 0.000000 0.000000 0.000000
1.977101 1.056677 0.495497 0.000000 0.000000 0.000000
1.962567 1.092789 0.510127 0.000000 0.000000 0.000000
1.924617 1.064372 0.483295 0.000000 0.000000 0.000000
1.943632 1.071776 0.492376 0.000000 0.000000 0.000000
1.968959 1.048670 0.491906 0.000000 0.000000 0.000000
1.947143 1.108245 0.495222 0.000000 0.000000 0.000000
1.969058 1.133048 0.514063 0.000000 0.000000 0.000000
1.940383 1.128243 0.496992 0.000000 0.000000 0.000000
2.180096 1.059378 0.629860 0.000000 0.000000 0.000000
2.010175 1.017089 0.472289 0.000000 0.000000 0.000000
2.003208 1.187427 0.565372 0.000000 0.000000 0.000000
1.935076 1.060160 0.479227 0.000000 0.000000 0.000000
1.969901 1.124914 0.518446 0.000000 0.000000 0.000000
2.039150 1.192597 0.580814 0.000000 0.000000 0.000000
1.995476 1.170076 0.558352 0.000000 0.000000 0.000000
2.017352 1.170837 0.564733 0.000000 0.000000 0.000000
1.932546 1.029504 0.476796 0.000000 0.000000 0.000000
2.220828 1.052692 0.626126 0.000000 0.000000 0.000000
2.192317 1.066780 0.612186 0.000000 0.000000 0.000000
2.201591 1.063057 0.625763 0.000000 0.000000 0.000000
1.922856 1.107695 0.487337 0.000000 0.000000 0.000000
2.082734 0.964886 0.464146 0.000000 0.000000 0.000000
1.952805 1.003735 0.459315 0.000000 0.000000 0.000000
2.231046 1.046962 0.622112 0.000000 0.000000 0.000000
2.212531 1.053082 0.631747 0.000000 0.000000 0.000000
2.234169 1.056352 0.647589 0.000000 0.000000 0.000000
1.953043 1.006351 0.463420 0.000000 0.000000 0.000000
1.993526 1.174482 0.557967 0.000000 0.000000 0.000000
2.012599 0.999502 0.456441 0.000000 0.000000 0.000000
1.975304 1.050458 0.492018 0.000000 0.000000 0.000000
1.951422 1.086534 0.503426 0.000000 0.000000 0.000000
1.929470 1.073666 0.488810 0.000000 0.000000 0.000000
1.952879 1.093408 0.502027 0.000000 0.000000 0.000000
1.963108 1.049192 0.490154 0.000000 0.000000 0.000000
1.953479 1.073265 0.497913 0.000000 0.000000 0.000000
1.944241 1.108443 0.491283 0.000000 0.000000 0.000000
1.944161 1.095960 0.506426 0.000000 0.000000 0.000000
2.221996 0.992756 0.601400 0.000000 0.000000 0.000000
1.986738 1.195536 0.566083 0.000000 0.000000 0.000000
2.011339 0.983678 0.462965 0.000000 0.000000 0.000000
1.926532 1.136752 0.505850 0.000000 0.000000 0.000000
1.929543 1.147567 0.509004 0.000000 0.000000 0.000000
1.957887 1.101113 0.513852 0.000000 0.000000 0.000000
2.065235 1.183326 0.593204 0.000000 0.000000 0.000000
2.167724 1.044747 0.567878 0.000000 0.000000 0.000000
1.935387 1.148172 0.509821 0.000000 0.000000 0.000000
2.214349 0.991555 0.574203 0.000000 0.000000 0.000000
1.951934 1.141435 0.539217 0.000000 0.000000 0.000000
1.959069 1.159695 0.552479 0.000000 0.000000 0.000000
2.133579 1.207329 0.654512 0.000000 0.000000 0.000000
2.217113 0.989793 0.571775 0.000000 0.000000 0.000000
1.940402 1.152832 0.529335 0.000000 0.000000 0.000000
1.926553 1.099186 0.477902 0.000000 0.000000 0.000000
1.943540 1.154243 0.548631 0.000000 0.000000 0.000000
1.977946 1.174888 0.536477 0.000000 0.000000 0.000000
1.980293 1.179101 0.532520 0.000000 0.000000 0.000000
1.943255 1.157439 0.515349 0.000000 0.000000 0.000000
1.935032 1.084170 0.489027 0.000000 0.000000 0.000000
2.061371 1.195438 0.591328 0.000000 0.000000 0.000000
1.928427 1.144497 0.503266 0.000000 0.000000 0.000000
2.061744 1.087545 0.532507 0.000000 0.000000 0.000000
2.223687 0.996021 0.583244 0.000000 0.000000 0.000000
1.956285 1.004391 0.462383 0.000000 0.000000 0.000000
2.234571 1.075773 0.690997 0.000000 0.000000 0.000000
1.926057 1.062767 0.479962 0.000000 0.000000 0.000000
2.154821 0.923935 0.521705 0.000000 0.000000 0.000000
1.973705 1.134561 0.531881 0.000000 0.000000 0.000000
2.061266 1.193139 0.591737 0.000000 0.000000 0.000000
2.001201 1.017380 0.472397 0.000000 0.000000 0.000000
2.218385 1.030678 0.601063 0.000000 0.000000 0.000000
1.924932 1.122124 0.497766 0.000000 0.000000 0.000000
2.154067 1.184961 0.677969 0.000000 0.000000 0.000000
2.190430 0.988999 0.569779 0.000000 0.000000 0.000000
1.943915 1.130491 0.533822 0.000000 0.000000 0.000000
1.962708 1.168422 0.557056 0.000000 0.000000 0.000000
2.123060 1.210348 0.657439 0.000000 0.000000 0.000000
2.241482 1.101446 0.697971 0.000000 0.000000 0.000000
2.227454 0.995093 0.586647 0.000000 0.000000 0.000000
1.965181 1.179253 0.533058 0.000000 0.000000 0.000000
